# .PCD v0.7 - Point Cloud Data file format
VERSION 0.7
FIELDS x y z intensity
SIZE 4 4 4 4
TYPE F F F F
COUNT 1 1 1 1
WIDTH 1422
HEIGHT 1
VIEWPOINT 0 0 0 1 0 0 0
POINTS 1422
DATA ascii
-3.5085692 7.1863065 1.6480603 0
-7.1143022 3.9816463 0.4805671 0
-6.8581796 4.0421991 1.8246744 0
-3.1398957 7.5421333 0.21467638 0
-3.1602221 7.524241 0.4576894 0
4.3037014 6.7840443 1.515631 0
-7.0393047 3.9971216 1.1631324 0
-3.1642919 7.5292382 -0.43261963 0
-3.1400704 7.5425534 0.40545487 0
-6.0019131 -5.5461383 0.40536246 0
-7.1273646 3.9859009 -0.54792571 0
-3.1595969 7.5234728 -0.73118365 0
-3.2531958 7.4462681 1.0513784 0
-7.1151376 3.9819181 0.82276416 0
-3.4984548 7.2078843 1.7226672 0
-5.8508301 -5.7262912 0.40467939 0
-3.3203313 7.3720717 1.3515124 0
-5.518466 -6.0586247 0.21289212 0
-6.170867 -5.3824334 0.40460104 0
-3.1624203 7.5269403 0.75421172 0
-3.1433685 7.5504756 0.59565258 0
-5.5155735 -6.0554495 0.40448782 0
-3.3440728 7.3658676 1.3503073 0
-5.8460302 -5.7215939 0.59562087 0
4.3045182 6.9849014 0.019976974 0
-7.0380611 3.9964154 1.3520902 0
7.6841645 -2.8803201 0.019835293 0
-3.4241657 7.2733912 1.6493562 0
7.6771402 -2.8686712 0.42634052 0
7.6827626 -2.8725865 -0.27552748 0
7.6853676 -2.8744006 0.19288452 0
-6.0123134 -5.5557489 0.59547663 0
-3.0734549 7.6101422 -0.13529432 0
-3.604682 7.1119714 1.9543393 0
-3.0761137 7.6135044 0.16141428 0
-3.0690532 7.6045761 0.45778707 0
7.6888137 -2.8820627 0.21176827 0
-5.6963229 -5.904386 0.40386355 0
-3.0705714 7.6064959 -0.43275934 0
-6.0055971 -5.5495429 0.78604347 0
-6.3357348 -5.2139001 0.40381697 0
-3.1430237 7.5496473 0.78604347 0
-6.1751652 -5.3861823 0.59529305 0
-5.6903338 -5.8981781 0.59525788 0
-5.5190248 -6.0592384 0.59524989 0
7.6739678 -2.8664618 0.65970343 0
-5.3519268 -6.2255244 0.40360713 0
7.6951432 -2.8844352 -0.17465246 0
7.697998 -2.8831956 -0.04183805 0
-3.137259 7.5358 0.97606415 0
4.3037906 6.7842913 1.7420615 0
-3.4929726 7.1965895 1.9104807 0
-5.6843209 -5.8919454 0.7860437 0
-3.2453704 7.4369349 1.3491012 0
4.3140726 7.0004053 0.21094829 0
7.6752334 -2.8673432 -0.7483089 0
7.695714 -2.884649 0.40319639 0
-5.8539653 -5.7293601 0.78604382 0
7.6918936 -2.8789449 -0.51299429 0
-3.3204565 7.3723497 1.5409887 0
-7.1109118 3.9805419 1.1658119 0
7.6894927 -2.8823171 0.59487861 0
7.702302 -2.8871186 -0.37017548 0
-6.4980383 -5.0419102 0.40291286 0
-3.165123 7.5302587 1.0521348 0
-3.5113282 7.1893239 1.9530228 0
7.670238 -2.8638649 0.89359224 0
4.3159423 7.0034394 0.4028275 0
-6.4903779 -5.0359664 0.59480792 0
-3.3307829 7.3504691 1.648797 0
-5.8451724 -5.7207541 0.9764384 0
-6.3435793 -5.220356 0.59479785 0
-5.3692255 -6.2456465 0.21001476 0
7.6971674 -2.8851941 -0.56518137 0
-5.357698 -6.2322373 0.5947234 0
-5.1842608 -6.3926735 0.40263709 0
7.6816897 -2.8793924 0.78604418 0
4.313623 6.9996758 0.59464264 0
-6.3368444 -5.2148137 0.7860443 0
-6.1697493 -5.3814583 0.97662759 0
-5.5275397 -6.0685868 0.78604436 0
-6.0137138 -5.5570431 0.97665548 0
-6.4855633 -5.0322309 0.78604436 0
-6.186512 -5.3960795 0.78604436 0
-5.1928144 -6.4032207 0.20946383 0
-5.6860418 -5.8937292 0.97668624 0
-3.0774274 7.6151657 0.75502998 0
-5.5160561 -6.0559788 0.97673553 0
-3.0798588 7.6182408 -0.7341311 0
-7.0485926 4.0023956 1.5428624 0
-3.1417112 7.546495 1.1668316 0
-2.9868798 7.6969314 0.16122299 0
-5.3587542 -6.2334661 0.78604466 0
-5.8450232 -5.7206082 1.1670303 0
-6.0076852 -5.5514722 1.1670915 0
7.6841793 -2.8803256 0.97707826 0
-3.1552134 7.5180902 1.3497313 0
-6.337441 -5.2153044 0.97710621 0
-5.6830864 -5.8906655 1.1673373 0
-6.667284 -4.873374 0.40133944 0
-3.3202324 7.3718524 1.7312052 0
-5.0158496 -6.5611343 0.40132594 0
-3.1349187 7.5301785 1.3565063 0
-5.1951714 -6.4061265 0.59404206 0
4.3188467 7.008152 0.78604501 0
-5.1865106 -6.3954477 0.78604507 0
-3.4240913 7.2733078 1.9537969 0
-7.034996 3.9946749 1.7317868 0
-6.1731153 -5.3843942 1.1676266 0
4.3056574 7.0615211 -0.25602227 0
4.3113537 6.9959931 0.97734618 0
7.6796103 -2.8703911 1.1305563 0
4.3049502 6.787497 1.9730344 0
-5.35777 -6.2323213 0.97736865 0
-5.5194678 -6.0597248 1.1678704 0
-5.0269661 -6.575676 0.2071647 0
-6.329792 -5.2090096 1.1679138 0
-3.2473869 7.4393401 1.6509598 0
-6.0020261 -5.5462427 1.3575939 0
-3.0811081 7.6198201 1.0536455 0
-6.6729631 -4.8775253 0.59363317 0
-7.1106715 3.9804635 1.5111654 0
4.3108773 7.0766239 0.19655253 0
4.3071027 7.0657029 -0.48479712 0
-3.007525 7.7238202 -0.13786992 0
-3.000782 7.7150383 0.45857549 0
-5.0228491 -6.5702901 0.59352201 0
-6.5054522 -5.0476627 0.97772604 0
-3.002861 7.7177458 -0.43679571 0
-5.1872101 -6.3963099 0.97775453 0
4.3096571 7.0730944 0.4227823 0
-6.1657839 -5.3779998 1.3582555 0
4.3143253 7.0866008 -0.030571669 0
-6.8317199 -4.6989408 0.39979234 0
4.3121657 6.9973106 1.1689277 0
-5.0202346 -6.5668702 0.78604597 0
-6.8256512 -4.6947665 0.59319532 0
-5.5174809 -6.0575433 1.3590958 0
-3.3326159 7.3525934 1.9536777 0
-6.4976845 -5.0416355 1.1691569 0
-5.3616643 -6.2368512 1.1691788 0
-6.6767311 -4.8802795 0.78604609 0
-3.0673018 7.6023617 1.3510455 0
-6.6615644 -4.8691936 0.97812992 0
-6.8155379 -4.6878109 0.78604615 0
-6.329771 -5.2089925 1.3593655 0
-5.8587403 -5.7340331 1.3593841 0
7.6788688 -2.8698747 1.3684106 0
-2.999938 7.7139392 0.75661707 0
-5.6930485 -5.9009919 1.3595059 0
7.7060242 -2.8885138 1.1694071 0
4.3094616 7.0725284 -0.7162956 0
-5.1847711 -6.3933024 1.1694915 0
-3.0039301 7.7191386 -0.73817301 0
-3.322439 7.3767514 1.923267 0
4.3128695 7.0823884 0.64973813 0
-7.0392609 3.9970965 1.9239002 0
-4.8502846 -6.7366471 0.59280652 0
7.6885648 -2.8819695 1.3603042 0
-3.1435556 7.5509248 1.5497253 0
-6.1646233 -5.376987 1.5498176 0
-5.3548827 -6.2289624 1.3605384 0
4.3099284 6.99368 1.3605907 0
-5.022347 -6.5696335 0.97855115 0
-5.8476577 -5.7231865 1.5500195 0
-5.6838527 -5.8914599 1.5503933 0
-7.3566213 3.9100788 -0.21428519 0
-4.864049 -6.7557654 0.39826009 0
4.3114815 7.0783715 0.87698209 0
-6.0146742 -5.5579305 1.5506866 0
-4.8689685 -6.762598 0.20325178 0
-6.498765 -5.0424743 1.3613288 0
-3.1678905 7.5336576 1.6544554 0
-6.6693282 -4.8748684 1.1708711 0
-7.3682923 3.9136963 0.13496692 0
-4.8546681 -6.7427359 0.78604716 0
-5.1871395 -6.3962226 1.3619988 0
-5.8343186 -5.7101316 1.740393 0
-2.98523 7.7935314 0.20236677 0
-5.3481598 -6.2211423 1.5520456 0
-3.2478089 7.4398432 1.9559141 0
-6.8339357 -4.7004647 0.97913229 0
-6.337091 -5.2150164 1.5523283 0
7.6776223 -2.8690069 1.6087273 0
-4.6826186 -6.9137335 0.20204896 0
-3.1397557 7.5417972 1.741051 0
7.6863308 -2.8811321 1.5524734 0
-3.0065036 7.7224903 1.0567191 0
-5.5282807 -6.0694008 1.552581 0
-7.3639455 3.9123487 -0.56570292 0
-5.026443 -6.5749917 1.1715796 0
-3.0656281 7.6002455 1.6525434 0
4.31148 7.0783682 1.1058426 0
-7.3854165 3.9178617 0.20134872 0
-7.3749366 3.9157557 0.48455453 0
4.3126678 6.998126 1.5535665 0
-2.9893956 7.8044071 0.39673656 0
-6.6651583 -4.8718204 1.363445 0
-5.6828833 -5.8904557 1.7428803 0
-7.384882 3.917578 0.39662898 0
-2.9864745 7.7967811 0.5916878 0
-5.5138626 -6.0535707 1.7432786 0
-6.1721783 -5.3835769 1.7434947 0
-6.5013151 -5.0444527 1.5543655 0
-7.1277814 3.9860365 1.8623656 0
-6.0173254 -5.5603805 1.7438328 0
-2.9833529 7.788631 0.78604811 0
-4.8619251 -6.7528148 0.979752 0
-7.3840866 3.9171562 0.59146512 0
-4.6939201 -6.9304199 0.39612889 0
4.3069344 7.0652146 1.33447 0
-4.6884394 -6.9223275 0.59142172 0
-6.8387361 -4.7037668 1.172699 0
-2.9781694 7.7750988 0.97986799 0
-5.023684 -6.571383 1.364552 0
-7.3746538 3.9121521 0.78604829 0
-3.155508 7.5184517 1.9562649 0
-2.9996157 7.7135191 1.3567032 0
-6.3378186 -5.2156153 1.7455763 0
-7.3755231 3.9159374 0.83472228 0
7.6898112 -2.8824368 1.7460823 0
-4.6898437 -6.9244008 0.78604877 0
-4.860074 -6.7502446 1.1735191 0
-6.0039353 -5.548007 1.9351311 0
-6.6648622 -4.871604 1.5568546 0
-5.842761 -5.7183943 1.9352193 0
-6.4955845 -5.0400062 1.7471683 0
-2.9604292 7.8651648 0.15915957 0
-2.960741 7.8655834 -0.14231592 0
-5.360683 -6.2357097 1.7473583 0
-5.2044311 -6.4175448 1.5575222 0
-7.3771315 3.9134665 0.98044884 0
-4.6843505 -6.9162903 0.98050594 0
4.316731 7.0047183 1.7479216 0
-2.9583201 7.8623352 -0.44453335 0
-6.8397079 -4.7044349 1.3666327 0
-3.1469388 7.5590515 1.9369771 0
-6.1710439 -5.3825874 1.9370763 0
-2.9812627 7.783174 1.1743019 0
-2.9611707 7.8661594 0.46026212 0
-5.5187254 -6.0589099 1.9380434 0
7.6933951 -2.8799903 1.8570101 0
-5.691256 -5.8991337 1.9382445 0
-4.5205674 -7.1052661 0.19707322 0
-5.0280995 -6.5771585 1.5590456 0
-7.0685401 -4.5687914 0.39398098 0
-7.0597897 -4.5631351 0.59036398 0
-4.5187774 -7.1024523 0.39390892 0
4.3089375 7.0710115 1.5685606 0
-5.1965351 -6.4078083 1.7505028 0
-2.9591227 7.8634114 0.76157403 0
-6.8308964 -4.6983743 1.5601451 0
-7.3775477 3.9165649 1.1863489 0
-6.3411317 -5.2183418 1.9403939 0
-7.3830633 3.9166133 1.1753734 0
-6.6655235 -4.8720875 1.7512286 0
-3.0753617 7.6125536 1.9607803 0
-2.9632821 7.8689928 -0.74983621 0
-4.6888723 -6.9229665 1.1755505 0
-4.8686018 -6.7620883 1.3688023 0
4.3117099 6.9965711 1.941265 0
-7.0627141 -4.5650253 0.78605008 0
-4.5229506 -7.1090121 0.58990496 0
-5.3597779 -6.2346568 1.941738 0
-4.5158868 -7.0979095 0.78605014 0
-3.0056729 7.7214084 1.6618441 0
7.7030153 -2.8873861 1.9423815 0
-2.9840262 7.7903891 1.3694966 0
-7.3726559 3.9110923 1.3697402 0
-4.8571291 -6.7461538 1.5622064 0
-7.0568299 -4.5612221 0.98165411 0
-5.0269532 -6.5756593 1.7536552 0
-6.5088263 -5.0502806 1.9440613 0
-6.8228011 -4.6928062 1.7541037 0
-4.3368015 -7.2687583 0.19408256 0
-5.1935978 -6.4041862 1.9450583 0
-2.9620733 7.8673711 1.0644829 0
-6.6590428 -4.8673506 1.9454581 0
-4.690413 -6.9252419 1.3710226 0
4.3094096 7.0723772 1.8051999 0
-4.5214314 -7.1066241 0.98213041 0
-2.9821742 7.7855539 1.5644834 0
-7.3651557 3.9071136 1.5644994 0
-7.0579834 -4.5619678 1.1775347 0
-4.3445868 -7.2818069 0.39105466 0
-5.0540886 -6.5347505 1.9598444 0
-4.5148864 -7.0963373 1.1778549 0
-7.3808541 3.9175899 1.5404438 0
-4.8574438 -6.7465911 1.7578961 0
-4.343276 -7.2796097 0.58871973 0
-4.6917133 -6.9271612 1.5672206 0
-2.9802134 7.7804346 1.7600428 0
-2.9611282 7.8661027 1.3687936 0
-5.0352025 -6.5864501 1.951414 0
-3.0071177 7.72329 1.9696057 0
-4.5138645 -7.0947309 1.3741562 0
-4.9560447 -6.6481462 1.962114 0
-7.0635738 -4.5655808 1.3742745 0
-4.8497744 -6.7359385 1.9527578 0
-2.9144421 8.0122032 -0.14707378 0
-6.8406844 -4.7051067 1.9530951 0
-2.9100208 8.0060902 -0.45217049 0
-4.3524113 -7.2949209 0.78605253 0
-7.378592 3.9142413 1.7624822 0
-7.3588147 3.9107585 1.8936282 0
-2.9258814 8.028019 0.15722509 0
-4.509665 -7.08813 1.5704565 0
-4.8539753 -6.7577925 1.9638526 0
-2.9214687 8.0219183 0.46204352 0
-4.6921802 -6.9278507 1.7642081 0
-4.1650286 -7.4591703 0.38808313 0
-2.9107747 8.0071325 -0.75969279 0
-7.0621839 -4.5646825 1.5711904 0
4.3154712 7.3868661 -0.045500636 0
-4.1706424 -7.4692249 0.18775302 0
-4.3555493 -7.3001804 0.98394281 0
4.3159084 7.3881931 0.19137162 0
-7.6497102 3.8471808 0.13060036 0
4.3167944 7.3908801 -0.28363574 0
-2.982168 7.7855372 1.9579527 0
-4.3462849 -7.2846527 1.181205 0
4.3134232 7.3806548 -0.52168554 0
-2.9593568 7.8637261 1.6753954 0
-7.6376719 3.8436375 -0.58688933 0
-2.9208798 8.0211039 0.76704955 0
4.3177423 7.3937554 0.42813063 0
-7.6580224 3.8496275 -0.22849 0
-7.3751278 3.9124036 1.9595662 0
4.3156128 7.3872962 0.66492438 0
-4.6854014 -6.9178424 1.9604931 0
-4.1742992 -7.4757733 0.58673406 0
4.3137641 7.3816881 -0.76290786 0
-4.7546864 -6.8710876 1.9666539 0
-7.6582866 3.8497052 0.48895574 0
-4.1698575 -7.4678187 0.78605419 0
-4.4311156 -7.1848965 1.597829 0
-4.3465204 -7.2850475 1.3793502 0
-7.0673437 -4.568018 1.7697991 0
-2.9197021 8.0194759 1.0730158 0
-4.6424956 -6.9702559 1.9667646 0
4.3162546 7.3892426 0.9028849 0
-4.1679244 -7.4643569 0.98507029 0
-7.6513286 3.8476572 0.84752434 0
-4.5211945 -7.1062512 1.7706733 0
-4.3383999 -7.2714372 1.5766402 0
-7.0514388 -4.5577374 1.9662526 0
-3.9857943 -7.6455112 0.18304479 0
-7.3740277 -4.4716773 0.18291593 0
4.3142781 7.3832474 1.1414208 0
-4.1664648 -7.4617429 1.1841631 0
-4.3272262 -7.2955856 1.600445 0
-3.9828477 -7.6398587 0.58549082 0
-2.960618 7.8654184 1.9861859 0
-7.7365623 3.8238993 0.38404414 0
-4.5397878 -7.0808144 1.9695618 0
-7.7430248 3.8270934 0.18198889 0
4.3099589 7.4650531 0.58539337 0
-4.5177331 -7.100811 1.9690596 0
-3.9920788 -7.6575661 0.38377878 0
4.321528 7.4850907 0.18157983 0
-2.8632703 8.1564465 0.15603341 0
-7.6488862 3.8469381 1.2073121 0
-2.8638759 8.1573095 -0.15172991 0
4.3200431 7.4825187 0.3835744 0
-7.3793607 -4.4749112 0.58515477 0
-2.9238048 8.0251484 1.3818228 0
-3.9837084 -7.64151 0.78605598 0
-7.3927197 -4.4830122 0.38330817 0
-4.4245243 -7.1768026 1.9696529 0
4.311873 7.4683676 0.78605616 0
-7.7333117 3.8222926 0.78605628 0
-2.866591 8.1611786 -0.46101689 0
-4.1694055 -7.4670095 1.3841803 0
-4.3447757 -7.2821236 1.7773588 0
-7.7501621 3.830621 0.58480632 0
4.3155775 7.387188 1.3832252 0
-4.2189641 -7.4016314 1.6025451 0
-2.8746886 8.172719 0.46371359 0
-2.8691316 8.1860933 0.17939234 0
-7.3892207 -4.4808908 0.7860567 0
-2.8678782 8.182518 0.38215584 0
8.0460453 -3.25121 -0.32060391 0
8.0418739 -3.2482154 0.43536377 0
8.0363712 -3.2442644 -0.5734275 0
-2.8681598 8.163414 0.77152079 0
-7.3829832 -4.477108 0.98705697 0
8.055604 -3.2580707 0.18374126 0
-2.8684249 8.1840773 0.58417755 0
-3.9923127 -7.6580143 0.98709857 0
-2.8728189 8.1700544 -0.77328157 0
-7.7449136 3.8280268 0.98717105 0
-2.9176745 8.0166721 1.691015 0
-4.3197818 -7.2861719 1.9727798 0
-4.16992 -7.4679308 1.5846667 0
-3.9850407 -7.6440654 1.1876256 0
8.0660286 -3.2655542 -0.06915608 0
4.3236279 7.488728 0.98735625 0
-4.3436408 -7.280221 1.9776931 0
8.0468922 -3.2518179 0.6873216 0
-2.8700323 8.1886635 0.78605771 0
-3.8012605 -7.8317566 0.38052776 0
-4.0154233 -7.6344414 1.2365918 0
-7.7400231 3.8256097 1.1882496 0
-7.3826065 -4.4768796 1.1882552 0
-7.6615129 3.8506548 1.5710554 0
-2.8650122 8.1743402 0.98769736 0
4.3185329 7.3961539 1.629039 0
-3.8064876 -7.842526 0.17637551 0
-4.1180654 -7.5184269 1.6065079 0
-2.8696928 8.1655989 1.0808893 0
4.3217654 7.4855018 1.1887006 0
-3.8018095 -7.8328876 0.58337367 0
8.047204 -3.2520411 0.94012862 0
-4.16856 -7.4654951 1.7856264 0
-3.9882305 -7.6501842 1.3894386 0
-7.3773937 -4.4737182 1.3894743 0
-3.800859 -7.8309293 0.78605849 0
8.0936146 -3.3015857 -0.23579288 0
8.0969553 -3.3029485 -0.03042531 0
-2.8657765 8.1765213 1.1896641 0
8.0906982 -3.3003957 0.37901714 0
8.097558 -3.303194 0.17442602 0
8.0894175 -3.2998734 -0.44198239 0
4.3192172 7.4810886 1.3902128 0
-4.2211556 -7.4044857 1.9779598 0
8.0376244 -3.2451651 1.1930171 0
-7.7485614 3.8298299 1.3905587 0
-3.9047909 -7.740756 1.2385513 0
-3.9820802 -7.6383867 1.5903449 0
-4.0090413 -7.625617 1.6091944 0
4.3175564 7.3931923 1.8759774 0
-2.8691139 8.1647739 1.3918896 0
8.0954895 -3.3023503 -0.65113664 0
8.1013012 -3.3047209 0.5823822 0
-7.7335873 3.8224287 1.5915227 0
-7.3790703 -4.4747353 1.5918181 0
4.3158684 7.4752884 1.5919952 0
-4.1690869 -7.4664388 1.988097 0
-7.6531644 3.8481975 1.9353915 0
8.1001959 -3.30427 0.78605974 0
-2.8686128 8.1846132 1.3926156 0
-2.8208456 8.3180552 0.15413371 0
-3.8117936 -7.8534579 0.98927665 0
-7.9364772 3.7746925 -0.2414369 0
8.0893364 -3.2998402 0.98943645 0
-2.8269248 8.3269882 -0.15794471 0
-3.8052998 -7.8400788 1.1920216 0
-2.8232751 8.3216257 0.46534169 0
-7.9471498 3.7776687 0.12594359 0
8.0477638 -3.2524436 1.4511009 0
-2.8249249 8.324049 -0.47066724 0
-4.1224937 -7.5243683 1.9836751 0
-7.9342208 3.7740636 -0.61015373 0
-3.8997779 -7.7336121 1.6122098 0
-7.9446483 3.7769713 0.49341112 0
4.3132114 7.470686 1.7945062 0
-3.9886208 -7.6509328 1.7947159 0
-7.9215512 3.7705307 0.86002487 0
-3.6180348 -8.0330582 0.37565267 0
-7.3827457 -4.476964 1.7954086 0
-7.7412434 3.8262129 1.7955346 0
-2.8227162 8.3208036 0.77695274 0
-3.6219411 -8.0417309 0.16922671 0
-3.8035684 -7.862092 1.2422497 0
8.0956497 -3.3024158 1.1933522 0
-3.8053169 -7.8401141 1.395557 0
-2.8722899 8.1951056 1.5968666 0
-3.6183512 -8.0337601 0.58095026 0
-4.0064912 -7.6220922 1.9852778 0
-2.8812399 8.1820555 1.7090009 0
-2.8344092 8.337986 -0.78756368 0
-7.7280569 3.8196952 1.9977903 0
8.0500546 -3.2540872 1.711054 0
-3.6213861 -8.0404987 0.78606176 0
8.0960016 -3.3025594 1.3975782 0
-3.9878128 -7.6493826 1.998628 0
4.3139329 7.4719357 1.9988247 0
-7.7024956 -4.3737006 0.16657782 0
-3.8052406 -7.8399568 1.5997385 0
-2.8698285 8.1880827 1.8003564 0
-7.3826442 -4.4769025 1.9996902 0
4.3229771 7.7346849 0.18557633 0
4.3207664 7.7276425 0.43369484 0
-2.8291554 8.330266 1.0907252 0
4.3231149 7.7351246 -0.31247574 0
-3.6897669 -7.9666166 1.2443039 0
-3.6187739 -8.0346985 0.99119711 0
-3.7960105 -7.8509865 1.6168225 0
-7.9379516 3.775104 1.2298927 0
4.3279305 7.7504673 -0.063840747 0
8.0294714 -3.2393119 1.9682579 0
4.3231506 7.735239 -0.5634973 0
-7.7169967 -4.3819346 0.37266952 0
-3.5821576 -8.0821314 0.87155473 0
-3.8991795 -7.7327595 1.9896915 0
8.0952654 -3.302259 1.6023785 0
-7.719202 -4.3831868 0.57941937 0
-7.7056575 -4.3754959 0.78606296 0
-3.6208067 -8.0392122 1.196786 0
-2.8225865 8.3206129 1.4043835 0
4.3199625 7.7250819 0.93095487 0
-3.8056026 -7.8407025 1.8049189 0
4.3279953 7.7506733 0.6832521 0
-3.6791449 -7.9505177 1.6189868 0
-7.7015023 -4.3731365 0.99223334 0
-3.6172283 -8.0312672 1.4020964 0
-7.9330115 3.7737262 1.6004999 0
4.3199944 7.7251835 1.1816032 0
-3.4315195 -8.2426243 0.16163123 0
-3.5832453 -8.0838327 1.2478274 0
-3.4295499 -8.2378931 0.37039039 0
8.0994091 -3.3039494 1.8086505 0
-3.4275672 -8.2331305 0.57845998 0
-2.7767377 8.4828167 0.46722686 0
-3.7925034 -7.8458328 1.9948194 0
-2.7855864 8.4962273 0.15189271 0
-3.4244826 -8.2257214 0.78606439 0
-2.7889533 8.5013304 -0.16442734 0
-8.1170235 3.7261498 0.57815051 0
-8.1273832 3.7309055 0.36948016 0
-3.4765363 -8.2029934 0.87396687 0
-3.6171212 -8.0310287 1.6084597 0
-2.7858253 8.4965887 -0.48130322 0
-7.7172103 -4.3820562 1.1994697 0
-2.8240371 8.3227444 1.722182 0
-8.1397724 3.7365928 0.15966964 0
-8.1099596 3.7229071 0.78606474 0
-2.780529 8.4885626 0.78302568 0
-3.4273629 -8.2326393 0.99365705 0
-7.7063775 -4.375905 1.4058628 0
-2.7705317 8.4734106 1.0982738 0
-3.4692521 -8.1912346 1.2504674 0
-3.4225693 -8.2211256 1.2008936 0
4.3268805 7.7471209 1.4380425 0
-3.5832257 -8.0838013 1.6262953 0
-8.123517 3.7291307 0.99414623 0
-3.3588891 -8.3064299 0.87538624 0
-7.7080517 -4.3768554 1.6136916 0
-3.6264582 -8.0517597 1.8183993 0
-7.9458671 3.7773108 1.9768652 0
4.3225846 7.7334356 1.6916918 0
-3.4265251 -8.2306271 1.4095918 0
-8.1318417 3.7329521 1.2028801 0
-2.7422526 8.6075783 0.15425903 0
-8.2498608 3.7016175 0.12119117 0
-2.7400072 8.6005306 0.57594109 0
-8.1201296 3.7275755 1.4109521 0
-2.7439506 8.6129084 0.36498204 0
-3.3596616 -8.3077173 1.2541784 0
-7.7080712 -4.3768663 1.8222934 0
-8.2533455 3.7025356 -0.25647527 0
-3.4733801 -8.1978989 1.6309674 0
-2.7871399 8.4985819 1.4201139 0
-8.2605095 3.7044232 0.49840108 0
-2.7287288 8.6474924 0.15021908 0
-8.2546673 3.7028837 -0.63558304 0
4.3226504 7.733645 1.9511614 0
-3.4321952 -8.2442465 1.6198676 0
-2.7447062 8.6152802 0.78606814 0
-2.734931 8.6571922 -0.16973525 0
-8.2491436 3.7014282 0.87564754 0
-2.7313609 8.6516094 0.46926624 0
-2.7322669 8.6530256 -0.49022847 0
-2.7421067 8.6071205 0.99635577 0
-8.1310406 3.7325845 1.6214267 0
4.3225799 8.0090666 0.14955801 0
-3.3569632 -8.3032188 1.6345689 0
-2.7341628 8.6559906 0.78906053 0
-2.7883959 8.5004854 1.7424259 0
-3.4320412 -8.2438774 1.8299761 0
-2.7427199 8.609045 1.2069662 0
4.3279824 8.0190773 0.36158231 0
-8.0638142 -4.2777419 0.14766222 0
-8.2527695 3.7023838 1.2548113 0
-8.066185 -4.2790003 0.36072448 0
-2.7306299 8.650466 1.1093626 0
4.3321571 8.0268116 0.57373673 0
-8.0580463 -4.2746825 0.57372689 0
-8.1400261 3.7367094 1.8331311 0
-3.284904 -8.4866819 0.88155133 0
4.3280721 8.0192423 0.78607017 0
-8.0557175 -4.273447 0.78607035 0
-2.7454326 8.6175604 1.4186122 0
-3.2757103 -8.5518885 0.1455943 0
-3.2766118 -8.5542412 0.35935506 0
-3.2728121 -8.5443211 0.57307577 0
4.3321939 8.0268803 0.99840611 0
-8.0647926 -4.2782612 0.9985922 0
-8.2474155 3.7009728 1.6354214 0
-3.2753267 -8.5508862 0.78607142 0
-3.2871127 -8.4904871 1.2647238 0
4.3284445 8.1091328 0.17929839 0
-2.7370572 8.6605177 1.4334387 0
-2.7487679 8.6280289 1.6315571 0
4.3286057 8.1096735 0.44011149 0
4.3325319 8.122838 -0.08257255 0
-3.2745275 -8.5487995 0.99917871 0
4.3322277 8.1218204 -0.34506029 0
-8.0677843 -4.2798486 1.2115023 0
4.3287773 8.1102495 -0.60773033 0
4.3382545 8.0381088 1.2115672 0
-2.6727533 8.8054438 -0.49874067 0
-2.6815386 8.8196268 -0.1754494 0
-2.7427707 8.6092043 1.8423477 0
-2.7233086 8.6390162 1.7552108 0
8.4612083 -3.686579 -0.09888947 0
4.3318777 8.0262938 1.4239539 0
4.3323994 8.1223936 0.70194829 0
-2.6895084 8.8324919 0.14785078 0
-2.6848063 8.8249016 0.47139341 0
-8.0640507 -4.2778673 1.4245002 0
-3.2786663 -8.5596046 1.2130568 0
-3.286293 -8.4890747 1.6498125 0
-2.6848774 8.825016 0.79518163 0
8.4847698 -3.7040088 0.17310262 0
8.479887 -3.7003968 -0.37442511 0
4.3293357 8.0215845 1.6371616 0
4.3347836 8.1303902 0.96524268 0
-8.0639992 -4.2778401 1.6383853 0
-8.5304127 3.6233759 0.354339 0
8.489933 -3.7078288 0.44640952 0
-2.6775317 8.813158 1.1189345 0
-8.5272465 3.6220307 0.57040364 0
4.3309698 8.1176014 1.2280723 0
-3.2807696 -8.5650959 1.4275408 0
8.4867439 -3.7054694 -0.65147173 0
8.4836235 -3.7031615 0.71975076 0
-8.5447254 3.6294553 0.13679868 0
4.3246708 8.0129414 1.8505261 0
-8.5667458 3.6210225 0.11618111 0
-3.2755663 -8.5515118 1.6410909 0
-8.5661774 3.6208818 -0.27129823 0
-8.5353394 3.6254685 0.78607476 0
-3.2330918 -8.7133617 0.50314987 0
8.4891548 -3.7072523 0.99483371 0
-8.5736141 3.6227276 0.50334245 0
-8.0734005 -4.2828279 1.8544511 0
-8.5721874 3.6223736 -0.66075033 0
4.3344445 8.1292524 1.4962687 0
8.541975 -3.7738011 -0.08584547 0
8.4806118 -3.7009327 1.2699351 0
-3.2753458 -8.5509367 1.8565217 0
-8.550045 3.6317148 1.0023229 0
-2.6884637 8.8308058 1.4479562 0
8.544342 -3.7748466 0.35094056 0
-3.240006 -8.7256746 0.89126158 0
-8.574995 3.6230705 0.89117438 0
8.5509777 -3.7777784 -0.30675745 0
4.3278599 8.107172 1.7614602 0
-8.5426207 3.6285615 1.2184296 0
8.546855 -3.7759569 0.56856251 0
8.4705067 -3.6934578 1.5463527 0
-3.2297883 -8.7074795 1.2787234 0
-2.6327724 8.9958925 -0.18200693 0
8.5756512 -3.7886789 0.13038951 0
8.5632772 -3.7832122 -0.52984083 0
-2.6348062 8.9992828 0.14586186 0
-8.5329428 3.6244507 1.4344583 0
-2.6306591 8.9923697 0.47339743 0
8.5576687 -3.7807343 -0.75179899 0
-2.6323614 8.9952068 -0.51107734 0
-2.6831269 8.8221903 1.7763745 0
8.5632515 -3.7832005 0.78607726 0
8.5447016 -3.7750056 1.0035365 0
-8.5753326 3.6231542 1.2804339 0
-2.6359229 9.0011454 0.80172795 0
-8.4421453 -4.1726432 0.1274696 0
8.4698067 -3.6929395 1.8272362 0
-8.4432945 -4.1732111 0.34734297 0
-8.5409384 3.6278467 1.652495 0
-2.6247835 8.9825735 1.1291885 0
8.5573835 -3.7806082 1.2218785 0
-2.6045556 9.0668526 0.34663516 0
-3.232739 -8.7127342 1.6704003 0
-8.4521627 -4.1775942 0.56659967 0
-8.4408226 -4.1719894 0.78607881 0
-8.5681953 3.6213827 1.6711581 0
-2.6107299 9.0883474 0.12475371 0
8.5556507 -3.7798426 1.4402385 0
-2.6088862 9.0819283 0.56611145 0
-8.4420786 -4.1726098 1.0052967 0
-8.5472908 3.6305449 1.8716785 0
-2.6066964 9.0743055 0.78607953 0
-2.6324716 8.9953909 1.4616332 0
-8.4353237 -4.1692715 1.2244015 0
8.549078 -3.7769389 1.6587286 0
-2.6076472 9.0776157 1.0059438 0
-8.4341154 -4.168674 1.4440639 0
-3.1847067 -8.9566908 0.50645983 0
-2.6095126 9.0841093 1.2263615 0
-3.1761332 -8.9408979 0.89951777 0
-2.6323385 8.9951696 1.7955811 0
-2.6052096 9.0691299 1.4460099 0
-2.588223 9.1866102 -0.18942842 0
-2.5832949 9.1781216 0.47576964 0
-2.5824823 9.1767216 -0.52253628 0
-2.58986 9.1894302 0.14340214 0
8.5634937 -3.7833076 1.8805184 0
-3.1592512 -9.0138521 0.11807287 0
-8.4349012 -4.1690626 1.664588 0
-3.1613684 -9.0198927 0.34084707 0
-3.1612036 -9.0194225 0.56359702 0
4.3377366 8.5350294 -0.10339388 0
-2.5863562 9.1833944 0.80863357 0
4.3378344 8.5353737 0.1721077 0
4.3380165 8.5360193 0.44730404 0
-2.5744758 9.1629295 1.1405411 0
4.3389616 8.539362 -0.38030589 0
-8.9095306 3.5379963 0.11070278 0
-8.8973961 3.5351679 0.50847977 0
-3.1822991 -8.9522552 1.2954625 0
-3.1610184 -9.0188932 0.7860828 0
-8.9091835 3.5379157 -0.28775853 0
-2.6083796 9.0801649 1.6681761 0
-8.8947773 3.5345576 -0.68639302 0
-8.4407663 -4.1719613 1.8867764 0
4.3399248 8.5427704 -0.65911257 0
-3.1598508 -9.0155621 1.0084736 0
-8.8908787 3.533649 0.90617353 0
4.3419886 8.5500689 0.72361302 0
4.33918 8.5401354 0.99977618 0
-2.6094298 9.0838213 1.8909484 0
-8.9779959 3.5130157 0.11182475 0
-2.5818734 9.1756725 1.4775397 0
-3.1656353 -9.0320663 1.2319211 0
4.3403401 8.6251621 0.11078757 0
-3.1861377 -8.9593267 1.6941404 0
-8.991025 3.5181141 0.33633292 0
-8.8970051 3.5350769 1.3059931 0
-8.9834118 3.515135 0.56152105 0
4.3397627 8.5421972 1.2784394 0
-3.1612964 -9.0196867 1.4545279 0
4.3437037 8.6318455 0.33594525 0
4.3445363 8.6335001 0.56109428 0
4.3401608 8.6248055 0.78608567 0
-2.5746355 9.1632051 1.8138572 0
-8.9956255 3.5199142 0.78608578 0
-2.5286908 9.3589821 0.14136145 0
4.3359032 8.6163445 1.0106301 0
-2.5302811 9.3618135 -0.19589657 0
-2.5238876 9.3504286 -0.53319192 0
4.3385715 8.5379839 1.55862 0
-3.1625097 -9.0231485 1.6788168 0
-2.5295005 9.360424 0.47806743 0
-8.9955111 3.5198696 1.0109528 0
-3.1224689 -9.1853628 0.50946987 0
-8.8289175 -4.0529475 0.33354366 0
-8.8257465 -4.0514917 0.56001908 0
-8.9857178 3.5160372 1.2355739 0
-2.5286636 9.3589334 0.8151235 0
4.3380246 8.6205597 1.2356387 0
-8.8433495 -4.0595727 0.10554796 0
-3.1211505 -9.1828499 0.90934831 0
-3.1604383 -9.0172386 1.9030932 0
4.3359528 8.5287199 1.8405895 0
-8.9165859 3.5396411 1.7104003 0
-8.8315811 -4.0541701 0.78608739 0
4.3378968 8.620307 1.4610062 0
-8.9916544 3.5183604 1.4613745 0
-8.8298883 -4.0533929 1.0122619 0
-2.5390954 9.3775101 1.1553093 0
-8.9749336 3.5118175 1.6859369 0
-3.1218724 -9.184226 1.3108786 0
4.3415985 8.6276627 1.6878911 0
-8.8403902 -4.0582137 1.2392206 0
-2.5329986 9.3666525 1.494928 0
-8.8245029 -4.050921 1.4651794 0
-8.9706783 3.5101526 1.9122053 0
4.3400717 8.6246281 1.9147891 0
-3.1184993 -9.1777945 1.7138965 0
-8.8168535 -4.0474095 1.6919069 0
-2.4711657 9.5423183 -0.20268041 0
-2.525763 9.3537683 1.8362298 0
-2.4746184 9.5486794 0.138919 0
-2.4744983 9.5484571 0.48047662 0
-2.4732738 9.5462017 -0.54604584 0
-9.2587566 3.4471467 0.10510519 0
-9.2649632 3.4485002 0.51440573 0
-9.2737617 3.4504187 -0.30538845 0
-2.4589577 9.5884886 0.32497633 0
-3.0578833 -9.4203987 0.10679981 0
-2.4607406 9.5954409 0.093291044 0
-2.4806099 9.5597153 0.82311785 0
-8.8386574 -4.0574188 1.9230192 0
8.9648657 -4.2107244 0.45830977 0
-2.459161 9.589282 0.55564022 0
-9.2689533 3.4493701 -0.7166878 0
-3.0616331 -9.4278049 0.51274514 0
8.9821949 -4.2239308 -0.13763368 0
-9.2636051 3.4482038 0.92424369 0
-2.4741035 9.5477304 1.1655979 0
8.9821548 -4.2239003 -0.43706691 0
-2.4605708 9.594779 0.78609276 0
8.9959011 -4.2343764 0.16040914 0
8.9783792 -4.2210231 -0.7377553 0
8.9838848 -4.2252192 0.75714511 0
-2.4621632 9.6009893 1.016827 0
-3.0685291 -9.4414225 0.92013067 0
-9.2643681 3.4483705 1.3356773 0
-2.4586923 9.5874548 1.2471603 0
-2.4742041 9.5479155 1.5109222 0
-3.0557728 -9.4162312 1.3262722 0
-3.0323684 -9.5182152 0.087444305 0
8.9965858 -4.234899 1.0580544 0
4.3474126 9.0080681 -0.12743247 0
4.3473845 9.0079622 0.1641095 0
4.3458004 9.0020361 0.45518345 0
4.347446 9.0081921 -0.42005289 0
-3.0377283 -9.5350389 0.31992659 0
8.9782219 -4.2209039 1.3571311 0
-3.0362442 -9.5303802 0.55325097 0
-2.4634871 9.6061516 1.4796709 0
-2.4131451 9.7329493 0.13658646 0
-2.4082365 9.7235899 0.48262912 0
4.3486042 9.0125246 -0.71501052 0
-2.4745455 9.5485449 1.859315 0
4.3494081 9.0155325 0.74723744 0
-9.2664814 3.4488311 1.7498567 0
4.3436995 8.9941769 1.0381837 0
-3.0396457 -9.5410576 0.78609586 0
-2.4207878 9.7475204 -0.21092534 0
-2.4145303 9.73559 -0.55824447 0
-3.0353377 -9.5275345 1.0188708 0
-9.2509184 -3.9294178 0.083159983 0
9.0696726 -4.3220158 0.31808335 0
9.0728064 -4.3235092 -0.38880193 0
-9.4629946 3.3931184 0.31779903 0
9.0818539 -4.3278203 0.08249861 0
8.9803095 -4.2224941 1.6612364 0
-9.2573223 -3.932138 0.3175717 0
9.0733929 -4.3237886 0.55212092 0
-3.0320992 -9.5173702 1.2514017 0
-2.4647698 9.6111536 1.7125196 0
-3.0642209 -9.4329147 1.738688 0
9.0895109 -4.3314695 -0.15401572 0
-9.4792213 3.398937 0.081809819 0
9.0754805 -4.3247838 -0.62702203 0
-2.4184437 9.7430515 0.83006084 0
-9.2608938 -3.933655 0.551871 0
-9.4743853 3.3972027 0.5517934 0
9.0768499 -4.3254361 0.78609705 0
-9.4675055 3.3947358 0.78609711 0
-9.265233 -3.935498 0.78609735 0
4.3497562 9.0168352 1.3349584 0
-2.4638772 9.6076727 1.9456003 0
9.0807314 -4.3272853 1.0202627 0
-3.0359273 -9.5293856 1.4855691 0
-9.4700642 3.3956535 1.0202945 0
-9.2609873 -3.9336946 1.0203261 0
8.9824619 -4.2241344 1.9689246 0
-2.4254022 9.756319 1.1796924 0
-9.4681244 3.3949578 1.2546501 0
9.0834837 -4.3285971 1.2548246 0
-3.0030975 -9.6872663 0.1030549 0
-2.9986882 -9.6782398 0.51616979 0
-9.2667866 -3.9361579 1.2551031 0
4.350843 9.0209007 1.6328861 0
-3.0372381 -9.5335007 1.7203143 0
-2.4198222 9.7456799 1.5292017 0
-9.4709539 3.3959723 1.4897734 0
-9.2615004 -3.9339125 1.489841 0
9.0879545 -4.3307281 1.4901714 0
-3.0329442 -9.5200224 1.9541249 0
-3.0035601 -9.6882133 0.93019474 0
4.3494101 9.0155401 1.9325267 0
-9.2498903 -3.9289808 1.7244353 0
9.0837212 -4.3287106 1.7256167 0
-2.3557835 9.9338694 -0.21804577 0
-9.6449547 3.3544054 0.098842114 0
-2.4183822 9.7429342 1.8822902 0
-9.6426468 3.3539367 -0.32326466 0
-9.6423244 3.3538711 0.52051103 0
-9.4845762 3.400857 1.7268748 0
-3.0007219 -9.6824026 1.3449777 0
-2.356575 9.9354324 -0.57146317 0
-2.359303 9.9408207 0.48560834 0
-2.3647051 9.9514885 0.13358298 0
-2.3541799 9.9307022 0.83725977 0
-9.6490688 3.3552408 -0.7475338 0
-9.2564888 -3.9317839 1.9617767 0
-9.6438389 3.3541784 0.9427284 0
9.0928259 -4.3330488 1.9635966 0
4.3506665 9.3009663 0.30777675 0
4.3467956 9.2926912 0.5472818 0
4.3535004 9.307025 0.067497253 0
-9.4944258 3.4043884 1.965216 0
-2.3593097 9.9408331 1.1913928 0
-3.0018587 -9.6847305 1.7629619 0
-9.6356773 3.3525212 1.3657384 0
4.3570094 9.3145256 0.78610355 0
4.3553362 9.3109493 1.0253941 0
-2.3617244 9.9456024 1.5477539 0
4.3509941 9.3016663 1.2644669 0
-2.9377756 -9.9462538 0.099471986 0
-9.6498566 3.355401 1.7935567 0
-2.936192 -9.9428911 0.51986319 0
-2.3590698 9.9403601 1.9057819 0
-2.9298344 -9.9293909 0.93992013 0
4.3587723 9.3182955 1.5055828 0
-9.6895952 -3.7914588 0.3014102 0
-2.3031855 10.154541 0.13088776 0
-2.2985024 10.144955 0.48832604 0
-2.3030667 10.154298 -0.22715878 0
-2.2972314 10.160837 0.057543337 0
-2.2985005 10.144951 -0.58561289 0
4.3560057 9.3123798 1.7460172 0
-9.7122154 -3.8003097 0.056706369 0
-2.2999439 10.172835 0.30026409 0
-2.2977371 10.143388 0.84592247 0
-2.2983277 10.165686 0.54348779 0
-9.708128 -3.7987103 0.54342711 0
-9.7051678 -3.7975523 0.78610754 0
-2.9344649 -9.9392233 1.3627298 0
-2.2986181 10.16697 0.7861076 0
-2.2976413 10.162651 1.0286551 0
-2.2989969 10.145967 1.2051119 0
4.3543329 9.5239897 0.15536061 0
4.35922 9.319252 1.9888452 0
-9.7152176 -3.8014848 1.028966 0
-2.8948216 -10.077313 0.05281961 0
-2.296072 10.155709 1.2711343 0
4.3563399 9.5319529 0.46418273 0
4.3583364 9.5398741 -0.46531653 0
4.3615789 9.5527411 -0.15524864 0
4.3549995 9.5266352 0.77323771 0
-2.8991489 -10.092377 0.29696143 0
4.3558931 9.5301819 -0.77675724 0
-2.9320145 -9.93402 1.7868514 0
-2.2960668 10.139969 1.5655317 0
-2.8991299 -10.092311 0.54166961 0
-2.2950225 10.151067 1.5139735 0
-9.722621 -3.8043814 1.2724582 0
-9.998703 3.264667 0.29613975 0
-2.8983121 -10.089464 0.78610969 0
-10.011611 3.2688816 0.049540758 0
-9.9992895 3.2648585 0.54124326 0
-9.7092361 -3.7991443 1.5152882 0
-2.8974884 -10.086596 1.0304117 0
4.3588343 9.5418501 1.0848949 0
-10.00581 3.2669873 0.78611046 0
-2.2955821 10.153543 1.7580647 0
-2.8953934 -10.079304 1.2746253 0
-10.053522 3.2553887 0.092174962 0
-10.0508 3.2548761 -0.34326059 0
-9.710762 -3.7997413 1.7597357 0
-2.2980862 10.144102 1.9303734 0
-10.052679 3.2552299 0.52721006 0
-10.015298 3.2700851 1.0313702 0
4.3602057 9.5472908 1.3983237 0
-10.052387 3.2551751 -0.78048265 0
-2.8639374 -10.200773 0.095979899 0
-2.2383509 10.360997 0.12812792 0
-10.00697 3.2673662 1.2764875 0
-2.8977284 -10.087433 1.5201386 0
-2.239861 10.364204 -0.235645 0
-2.8636165 -10.200067 0.52340657 0
-10.051096 3.2549319 0.96267641 0
-2.2377529 10.359728 0.49124759 0
-2.2368765 10.357867 -0.60007691 0
-10.000813 3.2653558 1.5218887 0
4.3594189 9.5441685 1.7134467 0
-2.2400594 10.364626 0.8550694 0
-2.8968713 -10.084448 1.7657673 0
-2.8649573 -10.203023 0.9515112 0
-10.051016 3.2549169 1.3997606 0
-2.2346225 10.353081 1.219014 0
-10.001144 3.2654641 1.7684262 0
-2.8689442 -10.211813 1.3819733 0
-2.2379479 10.360142 1.5868205 0
-10.049454 3.2546227 1.8393329 0
9.5903664 -4.8566551 -0.18313405 0
9.587945 -4.854754 -0.51275951 0
9.5987129 -4.8632069 0.14537027 0
-2.8727503 -10.220204 1.815696 0
-2.2369385 10.357999 1.9567307 0
9.6062098 -4.869092 0.47419614 0
9.5991974 -4.8635874 0.8031224 0
-2.1702232 10.571223 -0.24396235 0
9.5811644 -4.8494315 1.1314054 0
-2.1736221 10.578718 0.49424782 0
-2.1799107 10.592583 0.12488645 0
-2.1754336 10.582712 -0.61567831 0
-10.193366 -3.6550055 0.028771996 0
-2.173924 10.579383 0.86383194 0
9.5844345 -4.8519988 1.4634197 0
-10.212207 -3.6617615 0.28074527 0
-10.203283 -3.6585617 0.53378963 0
-2.7993402 -10.490875 0.091811702 0
-2.7955632 -10.48222 0.5274235 0
-2.1737728 10.57905 1.2347265 0
-10.215137 -3.662812 0.78611982 0
9.689024 -4.9630895 -0.23031199 0
-10.205528 -3.6593664 1.0385051 0
9.6941843 -4.9657326 0.27873659 0
9.6982889 -4.9678354 0.024033964 0
9.6898336 -4.9635038 -0.4866029 0
9.6928196 -4.9650335 0.53260171 0
9.5936384 -4.8592234 1.7997798 0
-10.195506 -3.6557727 1.2906685 0
-2.8063893 -10.507028 0.96482015 0
9.6923895 -4.9648132 0.78612089 0
9.6974916 -4.9674273 -0.74541616 0
-10.468296 3.1463163 0.085389271 0
-2.1807337 10.594398 1.6099828 0
-10.475363 3.147542 -0.36415529 0
9.7002554 -4.968843 1.0398351 0
-2.8002172 -10.492885 1.4019964 0
-10.207107 -3.6599326 1.5444907 0
-10.487906 3.1497178 0.53435814 0
9.6916542 -4.9644365 1.2933741 0
-2.1734376 10.578311 1.9841863 0
-10.198812 -3.6569586 1.7977418 0
4.3673048 10.080314 0.017804444 0
-10.487473 3.1496425 0.9841994 0
4.3666964 10.078911 0.53042263 0
-2.1143994 10.781363 0.53036338 0
4.3716984 10.090455 0.27385902 0
-2.1166458 10.792817 -0.2407856 0
-2.1170774 10.795016 0.27367836 0
9.6992159 -4.9683099 1.5482841 0
-2.1184163 10.801845 0.016274095 0
-2.7991729 -10.490491 1.8423452 0
4.3676991 10.081224 0.78612363 0
-2.1145866 10.782316 0.78612369 0
-2.1120939 10.816048 0.12180385 0
-2.1115508 10.814803 -0.2543757 0
-2.1092439 10.809517 0.49747181 0
-2.1066494 10.803572 -0.63088638 0
4.3664794 10.078409 1.0418122 0
-2.104146 10.797835 0.87280548 0
9.6929264 -4.9650884 1.8029685 0
-10.483498 3.148953 1.4353449 0
-2.1152031 10.78546 1.0419816 0
4.3675203 10.128709 0.47434783 0
4.3702888 10.140397 -0.18527469 0
-10.589945 3.1245229 0.27178764 0
-10.597088 3.1266305 0.013400674 0
4.3693647 10.136497 -0.51625174 0
-10.586676 3.1235583 0.52917486 0
-2.7445946 -10.702305 0.2714451 0
4.3725586 10.149979 0.14467064 0
4.364161 10.073058 1.2975066 0
-2.7466762 -10.710423 0.012821078 0
-2.7454624 -10.705688 0.52884328 0
-10.588416 3.1240718 0.78612518 0
-2.7433143 -10.697312 0.78612524 0
-2.1163363 10.791238 1.2983916 0
-2.1049886 10.799766 1.2499231 0
4.371665 10.146207 0.80498767 0
-10.578484 3.1211414 1.0428766 0
-2.7433436 -10.697427 1.0432093 0
-10.469154 3.1464651 1.887681 0
-2.1150732 10.784798 1.554762 0
4.3711634 10.089221 1.555125 0
4.3728008 10.151004 1.1369561 0
-10.585786 3.1232958 1.300262 0
-2.7419579 -10.692023 1.3003124 0
4.359839 10.063082 1.8100997 0
-2.7238522 -10.772776 0.53159386 0
-2.7291794 -10.785477 0.087565735 0
-2.1111889 10.813975 1.6311445 0
-2.1156197 10.787584 1.812541 0
-2.7408357 -10.687648 1.5577884 0
-10.588414 3.1240714 1.5582204 0
4.3733721 10.153416 1.4710037 0
-2.7283244 -10.783438 0.97652894 0
-10.578672 3.121197 1.8159438 0
4.3702965 10.140431 1.8055959 0
-2.7212315 -10.766528 1.4212886 0
-2.7453654 -10.705311 1.8180187 0
-2.0406704 11.044065 -0.26396084 0
-2.0429935 11.049602 0.11853029 0
-2.043426 11.050633 0.50088924 0
-2.0421743 11.047649 -0.64829987 0
-2.0444102 11.052979 0.8838675 0
-2.7272515 -10.78088 1.8716522 0
-10.728986 -3.5031109 0.26037538 0
-10.735966 -3.5053897 -0.003729403 0
-10.73565 -3.5052869 0.52323306 0
-2.0437522 11.051411 1.2680568 0
-10.739857 -3.5066602 0.78613251 0
-2.0375676 11.036667 1.6527274 0
-10.739105 -3.5064149 1.0491168 0
-10.939791 3.0349445 -0.3871997 0
-10.93701 3.0345027 0.54176199 0
-10.950153 3.0365896 0.077405721 0
-10.747088 -3.5090215 1.312778 0
-2.6522536 -11.082016 0.083288729 0
-10.729375 -3.503238 1.5755123 0
-10.940716 3.0350912 1.0066488 0
-2.6512613 -11.079552 0.53606492 0
-10.728151 -3.5028384 1.839855 0
-2.6557937 -11.090806 0.98998284 0
-10.944815 3.035742 1.4735376 0
-1.96877 11.284889 0.11522424 0
-1.9677491 11.282354 -0.27405852 0
-1.9689445 11.285322 0.50418395 0
-1.9684162 11.284011 -0.6649729 0
-2.650351 -11.077292 1.4440781 0
-1.9714317 11.291498 0.8939752 0
-10.927717 3.0330276 1.9409436 0
-1.9687834 11.284923 1.2844589 0
-2.655725 -11.090635 1.9034909 0
-1.9755073 11.301618 1.6799196 0
-11.226336 2.9650068 -0.025928199 0
-11.228601 2.9656048 0.24514169 0
-11.231828 2.9664569 0.51571047 0
-11.223253 2.9641926 0.7861414 0
-1.9109514 11.478496 -0.027689517 0
-1.9130546 11.49113 -0.30153823 0
-1.9142803 11.498492 0.24313408 0
-1.9139931 11.496767 0.51482606 0
-2.5724998 -11.378371 0.2427243 0
-11.235098 2.9673209 1.0566521 0
4.3810883 10.81333 -0.21977669 0
-2.5702696 -11.385031 0.078893498 0
4.3828506 10.821278 0.13320909 0
-1.9134607 11.493569 0.78614265 0
-11.220075 2.9633529 1.3267318 0
-2.5734968 -11.382781 0.51447558 0
4.3822327 10.818493 0.48614115 0
-2.5770373 -11.398441 -0.031160533 0
-2.5713153 -11.387738 0.54055721 0
4.3829422 10.82169 -0.57494861 0
-2.5744944 -11.387194 0.7861433 0
-1.8990417 11.546955 0.11141543 0
-1.9139608 11.496573 1.0574552 0
-1.8986621 11.545971 -0.28558224 0
-1.8937101 11.533149 -0.68285161 0
-1.8975554 11.543106 0.50791258 0
4.3839889 10.826409 0.83987886 0
-2.5715108 -11.388244 1.0028632 0
-2.5744464 -11.386981 1.0579114 0
-1.913352 11.492916 1.3288894 0
-11.239227 2.9684114 1.5991473 0
-1.8993506 11.547754 0.9050824 0
4.3849707 10.830835 1.1951683 0
-1.9119411 11.484441 1.6003988 0
-2.576416 -11.395694 1.3303909 0
-1.8969369 11.541505 1.3030353 0
-11.235801 2.9675064 1.8711941 0
4.381773 10.816418 1.5505829 0
10.337339 -5.633574 0.12690717 0
-2.5743456 -11.395584 1.4675434 0
10.339293 -5.6351538 -0.23925614 0
10.335108 -5.6317706 0.49244279 0
10.333145 -5.6301837 -0.60602653 0
-11.301582 -3.3344891 -0.037949085 0
-2.5753984 -11.391192 1.602931 0
-11.429726 2.9132683 0.069451198 0
-11.43313 2.913759 -0.41181278 0
-11.313042 -3.3378701 0.51156676 0
-1.9144089 11.499265 1.8745993 0
10.341713 -5.6371098 0.85881925 0
-11.326433 -3.341821 0.23603946 0
-11.439276 2.9146445 0.55011725 0
-1.8961687 11.539515 1.7035185 0
4.3843226 10.972207 0.2357325 0
4.3851805 10.974353 -0.040382922 0
4.3802252 10.809442 1.9092299 0
-11.311718 -3.3374796 0.7861467 0
4.3832374 10.96949 0.51115692 0
-2.5760517 -11.394082 1.8768528 0
-2.5723934 -11.39053 1.9339914 0
-11.30799 -3.3363795 1.0606043 0
-11.434767 2.9139946 1.0312994 0
4.3859687 10.976326 0.78614742 0
10.345404 -5.6400938 1.2268057 0
4.3869476 10.978776 1.061371 0
-11.326353 -3.3417976 1.3362525 0
10.343861 -5.6388454 1.5965534 0
4.3839898 10.971374 1.3365217 0
10.42389 -5.7227898 -0.0455181 0
10.423518 -5.7225857 0.232225 0
10.425037 -5.7234192 -0.32426894 0
-11.309175 -3.3367293 1.6107991 0
-11.439373 2.9146583 1.5147331 0
10.419769 -5.7205276 -0.60343969 0
10.425933 -5.7239108 0.50927311 0
4.385499 10.97515 1.612741 0
10.433937 -5.7283053 0.7861498 0
-1.8170748 11.794028 -0.29623109 0
-1.8189692 11.799151 0.10779177 0
10.426305 -5.7241154 1.0630362 0
10.34251 -5.6377549 1.969386 0
-11.317576 -3.3392079 1.8878971 0
-11.425573 2.9126697 1.9991724 0
-1.8226151 11.80901 0.51179171 0
10.423248 -5.7224374 1.3400609 0
-1.8220296 11.807425 -0.70308077 0
4.3889022 10.983667 1.8905281 0
-1.8225088 11.808722 0.91645211 0
-2.4947481 -11.726407 0.073785603 0
-2.4917321 -11.718253 0.54546267 0
10.425738 -5.7238045 1.6179678 0
-1.8192487 11.799907 1.3217795 0
-2.4920392 -11.719083 1.0176096 0
10.427511 -5.7247782 1.8968376 0
-2.4940434 -11.724503 1.4919777 0
-1.8246512 11.814515 1.731999 0
-2.4920454 -11.7191 1.9682415 0
-1.7441163 12.084028 0.10356005 0
-1.741755 12.077352 0.51571637 0
-1.7458715 12.088992 -0.30949873 0
-1.7407796 12.074594 -0.72264373 0
-1.7422595 12.078778 0.92833096 0
-1.7428381 12.080414 1.3425839 0
-2.4063339 -12.056568 0.55050892 0
-2.4120898 -12.072844 0.068589762 0
-1.7459929 12.089334 1.7604462 0
-2.4084167 -12.062457 1.0330416 0
-1.6822822 12.268003 -0.37000561 0
-2.3835142 -12.153584 -0.37021959 0
-1.6837739 12.27888 0.20882142 0
-1.6841651 12.281734 -0.080833972 0
-2.41044 -12.068178 1.5177653 0
-11.993563 -3.1676402 0.20830798 0
-2.3874311 -12.173555 0.20827836 0
-2.3877311 -12.175086 -0.081557214 0
4.3964958 11.601719 0.11983865 0
-2.3862751 -12.167661 0.49751732 0
-12.00209 -3.1698921 -0.082020223 0
-2.3844292 -12.158249 0.78616369 0
-1.6854748 12.291285 0.49735779 0
4.3972378 11.605307 0.49962533 0
4.3992319 11.614948 -0.26105529 0
-12.003076 -3.1701527 0.49716368 0
-1.6846328 12.285145 0.78616399 0
-11.993599 -3.1676495 0.7861641 0
-2.3847501 -12.159886 1.0746263 0
4.4006343 11.621729 -0.64371508 0
4.3981562 11.609748 0.88017702 0
-1.6853666 12.290496 1.0749524 0
-11.996241 -3.1683476 1.0750008 0
-2.383358 -12.152787 1.363065 0
-12.141306 2.8367262 -0.085841238 0
-1.6838924 12.279745 1.3635484 0
-1.6573641 12.355462 -0.32118285 0
-12.135032 2.8352604 0.49606642 0
4.3969965 11.60414 1.2615436 0
-12.146006 2.8378243 0.20512825 0
-1.6572535 12.355135 0.51981735 0
-1.6617541 12.368464 0.099337056 0
-12.140698 2.8365843 0.78616595 0
-12.006464 -3.1710474 1.3646438 0
-1.6630538 12.372314 -0.74504125 0
-1.6595659 12.361983 0.9409436 0
-2.386137 -12.166957 1.6533095 0
-1.6845489 12.284533 1.653363 0
4.3961873 11.600228 1.6450592 0
-11.994802 -3.1679673 1.653825 0
-12.143136 2.8371539 1.0764594 0
-1.6552472 12.349193 1.3623062 0
-2.3839996 -12.156058 1.9427884 0
-11.987837 -3.1661279 1.9438412 0
-12.149312 2.8385968 1.3673637 0
-1.6847479 12.285984 1.944034 0
-12.124825 2.8328757 1.6569924 0
-12.131623 2.8344638 1.9493941 0
-1.6654549 12.379426 1.7908814 0
-2.321116 -12.42141 0.063357875 0
-2.3219671 -12.423931 0.55608863 0
-2.3149781 -12.40323 1.0483218 0
-2.3195581 -12.416796 1.5439955 0
-12.406935 2.8412142 0.0527215 0
-12.397701 2.8400183 0.56651604 0
-12.40213 2.8405917 -0.46160859 0
-12.406569 2.8411667 1.0812432 0
-1.5809984 12.680616 0.094603598 0
-1.5784948 12.672835 0.52465373 0
-1.5842295 12.690659 -0.33666682 0
4.4066963 12.017782 -0.10904723 0
4.4068117 12.018096 0.18988383 0
-1.5781741 12.671839 0.95503074 0
4.4059377 12.015713 0.48825002 0
-12.394651 2.8396232 1.5966499 0
-1.5860143 12.696206 -0.7698437 0
4.4007239 12.001493 1.0837481 0
4.4094524 12.025297 0.78617567 0
-1.5806715 12.679601 1.3877176 0
4.4006538 12.001302 1.3816348 0
4.405592 12.01477 1.6811771 0
-1.582808 12.68624 1.823483 0
4.4051561 12.01358 1.9809077 0
-2.222611 -12.774713 0.058039218 0
-2.2255411 -12.783818 0.56152779 0
-2.2298021 -12.797062 1.0665268 0
-2.2288613 -12.794138 1.5728651 0
11.285273 -6.6175866 0.10322046 0
11.277819 -6.6113811 0.51601028 0
11.27154 -6.6061549 -0.72365808 0
11.289957 -6.6214852 -0.31056178 0
11.300533 -6.6328821 0.17578918 0
11.295343 -6.6298366 -0.43669736 0
11.278568 -6.6120048 0.92918515 0
11.304478 -6.6351976 -0.13055587 0
11.301584 -6.6334996 0.48112345 0
11.292103 -6.627934 0.78618377 0
11.298513 -6.6316967 -0.74534535 0
11.276865 -6.6105876 1.3436643 0
11.30353 -6.6346412 1.0912977 0
11.307428 -6.63693 1.3969533 0
11.283907 -6.6164498 1.7619257 0
-2.1687055 -13.026746 0.17100751 0
-2.1690164 -13.028613 -0.1375488 0
-2.1678603 -13.021668 0.47888345 0
11.302382 -6.6339674 1.7027578 0
-2.1717727 -13.04517 -0.44858932 0
-2.1697459 -13.032995 0.78618717 0
-2.1702328 -13.03592 1.0938275 0
-2.1678674 -13.021712 1.4011302 0
4.4162769 12.530602 -0.30829215 0
4.4151583 12.524772 0.5154264 0
4.4192543 12.546113 0.10359432 0
4.4170694 12.53473 -0.72233355 0
4.4153867 12.525963 0.92744464 0
-2.169915 -13.034011 1.7103095 0
-1.5693729 13.245305 -0.36416805 0
-1.5678096 13.240196 0.53404695 0
-2.1255226 -13.16259 0.56731313 0
-2.1292548 -13.174787 0.051864266 0
-1.5719318 13.253667 0.085107207 0
4.4193134 12.546418 1.3427747 0
-1.5691242 13.244493 0.98352355 0
-2.1318493 -13.183264 1.084301 0
4.4157887 12.528056 1.7572565 0
-1.5687637 13.243315 1.434462 0
-1.5674911 13.239156 1.887695 0
-2.1370754 -13.20034 1.6043681 0
-13.438748 -3.1398642 -0.1789875 0
-13.44229 -3.1406918 0.14315486 0
-13.438549 -3.1398175 0.46494284 0
-13.445389 -3.1414156 0.78620416 0
-13.43728 -3.1395209 1.1074352 0
-13.44343 -3.1409578 1.4293096 0
-13.433281 -3.1385868 1.7510065 0
-1.5565834 13.861051 -0.39490122 0
4.4302454 13.245823 -0.19061953 0
-1.5623946 13.881059 0.074660107 0
4.4287491 13.241349 0.4611792 0
4.4325919 13.252839 0.1352337 0
4.4267726 13.23544 0.78620839 0
-2.0940413 -13.8115 0.57801068 0
-2.0998354 -13.831447 0.041026741 0
-1.5675304 13.898742 0.54506135 0
4.4281087 13.239435 1.1111914 0
-1.5628793 13.882728 1.0154842 0
-2.096848 -13.821163 1.1158141 0
-1.5567188 13.861517 1.485992 0
4.4294977 13.243588 1.4367313 0
4.426394 13.234309 1.7621914 0
-2.0956163 -13.816922 1.6550269 0
-1.5582571 13.866814 1.9612252 0
4.4355822 13.6071 -0.36395729 0
4.4350529 13.604113 0.53401703 0
4.4388838 13.62574 0.084999636 0
4.4351988 13.604936 0.98324209 0
4.4349585 13.60358 1.4339794 0
-14.101739 2.8708234 0.11584228 0
-14.105253 2.8715386 -0.22050679 0
-14.11432 2.8733845 0.45091447 0
-14.106575 2.8718078 0.78622097 0
-1.5489389 14.34144 0.1142664 0
-1.5494215 14.345909 -0.22293687 0
-1.5501611 14.352757 0.45016128 0
-14.11215 2.8729429 1.1214768 0
4.4374084 13.617412 1.8892765 0
-1.5500772 14.35198 -0.56159937 0
-1.5501381 14.352544 0.7862221 0
-1.5485272 14.337629 1.1219288 0
-14.119675 2.8744745 1.4574543 0
-14.103796 2.871242 1.7928486 0
-1.5503932 14.354906 1.4588103 0
-1.5513774 14.364018 1.7966591 0
12.359589 -7.7395649 -0.23367059 0
12.366172 -7.7436872 0.10654759 0
12.370772 -7.7465682 0.44644481 0
12.373216 -7.7480984 -0.5768615 0
-1.5421619 14.534311 0.063783377 0
12.375718 -7.7496657 0.78622687 0
-1.5417686 14.532881 0.55559075 0
-1.545927 14.548004 -0.42939407 0
12.372388 -7.7475801 1.1260535 0
-1.5459962 14.548255 1.0488077 0
12.37385 -7.7484956 1.4663296 0
-1.5433927 14.538787 1.5426948 0
12.381223 -7.7531123 1.8079133 0
12.493406 -7.8757477 0.54646134 0
12.506084 -7.8866119 0.072647229 0
12.508831 -7.8889647 -0.40222615 0
12.508192 -7.8884172 1.0215821 0
-2.1130948 -14.7105 0.026198179 0
12.510239 -7.8901701 1.4983397 0
-2.1149516 -14.717253 0.59332407 0
-14.598989 2.8812182 -0.57615131 0
-14.611372 2.882642 0.014438629 0
-2.1119108 -14.706196 1.1606631 0
-14.61931 2.8835552 0.60510087 0
12.509577 -7.8896036 1.9777703 0
-14.602934 2.8816717 1.1957593 0
-2.1124058 -14.707994 1.7304468 0
-14.62064 2.8837082 1.790432 0
-1.5299459 15.289566 0.051102281 0
-1.5293856 15.287409 -0.46660721 0
4.4564066 14.71449 0.42834562 0
4.4611268 14.730076 0.069296539 0
-1.5337155 15.304084 0.56855953 0
4.461936 14.732746 -0.29034722 0
-1.5304351 15.291451 1.0862261 0
4.4600921 14.726659 0.78624928 0
4.4606357 14.728454 1.1444927 0
-1.5307982 15.292849 1.606146 0
4.4646187 14.741605 1.5037656 0
4.4597015 14.725368 1.8623111 0
-15.25284 -3.1051638 -0.30237961 0
-15.251234 -3.1048367 0.42393851 0
-15.267727 -3.1081944 0.06044668 0
4.4627695 14.921985 -0.4321354 0
4.4639373 14.929172 0.062495366 0
-15.252224 -3.1050384 0.78625435 0
4.4633312 14.925443 0.55683869 0
-15.24142 -3.1028388 1.1483371 0
