# .PCD v0.7 - Point Cloud Data file format
VERSION 0.7
FIELDS x y z intensity
SIZE 4 4 4 4
TYPE F F F F
COUNT 1 1 1 1
WIDTH 1433
HEIGHT 1
VIEWPOINT 0 0 0 1 0 0 0
POINTS 1433
DATA ascii
-7.6280503 3.9942095 1.5722201 0
7.8397546 3.5843027 1.5208118 0
0.83798039 -8.6999798 0.4797942 0
7.9732423 3.447722 1.0828049 0
4.3687267 7.5484061 -0.7907114 0
-4.1587849 7.447989 1.9851261 0
-7.8947024 3.7630439 0.49250603 0
7.6516552 3.7879384 1.9581065 0
-7.8886189 3.7613475 -0.60601193 0
7.9171805 3.5213273 1.3035326 0
0.81577224 -8.7233391 0.17330551 0
-7.8708816 3.7564015 0.8572681 0
8.0400143 3.3778744 0.86356169 0
-7.783639 3.8471675 1.1905174 0
0.83982515 -8.6868458 0.81970251 0
7.7486887 3.6925209 1.7894915 0
4.3561325 7.5450273 0.98887146 0
7.4053984 -4.356082 1.755441 0
-4.0532508 7.7749047 0.17284346 0
-7.5052466 4.1089821 1.9252415 0
4.3693666 7.5503473 0.91772592 0
0.81674635 -8.7337561 -0.032958627 0
7.5298638 -4.3294787 1.2314072 0
7.92346 3.5005441 1.3918817 0
7.7034588 3.7154243 1.961628 0
-7.7712369 3.8410375 1.3923285 0
4.3631816 7.5315857 1.1605986 0
4.4085608 7.3592577 1.8752754 0
7.7899389 3.6592591 1.7451955 0
-4.0572119 7.7863631 -0.17576057 0
7.414866 -4.3521781 1.7911577 0
-4.0580587 7.7872891 0.14798941 0
-4.052186 7.7808661 0.4712587 0
7.9059906 3.5163004 1.5270154 0
-7.5992632 4.0313044 1.7916915 0
7.6529174 -4.2987485 0.44189322 0
8.040535 3.3780904 1.0870774 0
4.3546338 7.5424314 1.1917646 0
7.9788861 3.450161 1.3079309 0
-4.0611606 7.7900772 0.37682179 0
0.8180145 -8.7473164 0.37680492 0
7.6650138 -4.3103776 -0.088081449 0
7.6641641 -4.3095608 0.1772345 0
-4.0569797 7.7820578 0.58176231 0
7.650857 -4.2967672 -0.6198386 0
7.8406258 3.5847089 1.7483763 0
-4.1067643 7.6455641 1.4385329 0
0.81736892 -8.7404127 0.58170485 0
-7.7462335 3.875591 1.581899 0
7.7433152 3.6899602 1.9917556 0
7.6688309 -4.3140473 -0.35481292 0
-4.0654931 7.7954202 -0.50179338 0
-7.8734269 3.7571113 1.2240322 0
-4.0544519 7.7833443 0.79494619 0
-4.0576315 7.7833085 0.78606057 0
7.7750077 3.6520312 1.9713135 0
-7.6169248 3.9907613 1.9364276 0
4.3625793 7.5297589 1.4070016 0
7.9304242 3.5036209 1.5955598 0
8.0391731 3.3775251 1.312235 0
0.83779514 -8.7012987 1.1623664 0
7.5331984 -4.332778 1.4993877 0
8.1629925 3.3298864 -0.24454987 0
8.164917 3.3306715 0.16934025 0
8.1670294 3.3309634 -0.027315468 0
7.6637473 -4.3091602 0.70738935 0
0.8180669 -8.7478762 0.78606081 0
-8.0157185 3.6796455 0.16921228 0
7.6465549 -4.2926311 0.97150946 0
8.1622105 3.3295677 0.37542152 0
8.1665363 3.3307667 -0.25286144 0
4.3564 7.5454912 1.3954158 0
8.1705761 3.3329802 -0.037846863 0
7.4146495 -4.3520513 1.9945604 0
7.9039631 3.5153897 1.7550093 0
-8.0046453 3.6745622 0.58102548 0
7.9794579 3.4504082 1.5349189 0
8.1636677 3.3301618 -0.45325196 0
-8.017683 3.6805472 0.3750996 0
8.1747475 3.3340399 0.19730777 0
-7.7873883 3.8490207 1.5971278 0
8.1607513 3.3289723 0.58088934 0
8.1699352 3.3321214 0.42200181 0
-7.6016855 4.0325894 1.995623 0
0.8173753 -8.7404814 0.99041826 0
8.1708927 3.3325036 -0.48039383 0
8.1574221 3.3271341 -0.70717502 0
7.835196 3.5821757 1.9778445 0
4.3150206 7.7093368 -0.31011105 0
4.3144121 7.7073994 0.43332452 0
-4.0630908 7.7937803 0.99066716 0
-8.0069056 3.6755996 0.78606153 0
-4.051868 7.772253 1.194364 0
8.1696148 3.3319941 0.64686137 0
4.3190436 7.7221541 -0.062285542 0
4.3188825 7.7216406 0.18581498 0
-4.1017313 7.6402154 1.764661 0
7.9262209 3.5017638 1.7990531 0
-4.0601177 7.7895412 1.1204965 0
-7.861033 3.7536552 1.5913248 0
4.3159261 7.7122216 -0.56053519 0
0.81727409 -8.739399 1.1949471 0
8.1800709 3.336853 -0.66614974 0
8.1717844 3.3334727 0.78606194 0
4.3640018 7.5340738 1.6572673 0
0.83866811 -8.6950836 1.5055903 0
8.0481033 3.3812332 1.5419596 0
7.5304236 -4.3300323 1.769008 0
-8.0739899 3.6552784 -0.24675488 0
8.1706028 3.3323874 0.87264448 0
4.3608184 7.553143 1.6003916 0
-7.785975 3.8483219 1.8013692 0
7.9791155 3.4502602 1.7648233 0
4.3188062 7.7213979 0.68164402 0
8.1646471 3.3305614 0.99133217 0
0.81622034 -8.7281313 1.3991539 0
-8.0179586 3.6806736 0.9914391 0
7.7822618 -4.2725172 -0.2517854 0
7.6660299 -4.3113546 1.241823 0
8.1620598 3.3289824 1.0986261 0
7.9136705 3.5197504 1.9899998 0
-7.7546668 3.8780735 1.95215 0
4.3162785 7.7133451 0.92987865 0
7.7890387 -4.277585 0.17603633 0
-8.0808926 3.6570971 -0.61986089 0
-8.1020336 3.6626675 0.12385957 0
7.7954564 -4.2835813 -0.092077434 0
-4.0143886 7.9377742 0.14654849 0
8.0379658 3.3770237 1.7707378 0
7.7884631 -4.2759218 -0.46284401 0
-4.0567012 7.7858047 1.4469776 0
-8.0955677 3.6609638 0.49542373 0
7.7994781 -4.2819691 0.1637845 0
8.1658926 3.3310695 1.1968882 0
-4.0165043 7.9401555 -0.18031955 0
7.7946987 -4.2828732 -0.36092973 0
-8.0175123 3.6804688 1.1970165 0
7.7944345 -4.2826262 0.44349259 0
4.3607616 7.5530453 1.8056264 0
7.8079648 -4.2866282 -0.045597851 0
-4.0145164 7.9379177 -0.5080685 0
7.7946467 -4.2793164 0.5790652 0
-4.0169778 7.9406881 0.47291958 0
7.807117 -4.2861629 0.37118006 0
7.7936902 -4.2819309 -0.63131511 0
-4.05407 7.7764773 1.6048896 0
-4.0702662 7.8075447 1.401855 0
7.97613 3.4489701 1.9976671 0
7.6629705 -4.3084135 1.5114084 0
-8.0897522 3.6594315 0.8670091 0
7.7915592 -4.2776213 0.78606373 0
4.318388 7.7200656 1.1809447 0
0.81745929 -8.7413797 1.605799 0
4.3675623 7.5448732 1.9128495 0
-4.0117226 7.934773 0.79934227 0
-8.0148363 3.6792405 1.4028459 0
7.801125 -4.2888765 0.71188402 0
8.180048 3.3361526 1.3304329 0
0.83805871 -8.6994228 1.8530182 0
8.1707678 3.3330581 1.4032278 0
8.3096914 3.286948 -0.033441782 0
7.7912145 -4.2796178 0.97991258 0
8.3199759 3.2908773 0.19522019 0
-7.8805165 3.759088 1.9661198 0
8.323925 3.2923863 -0.26446819 0
7.8037438 -4.2843108 0.99330467 0
0.81687778 -8.7351618 1.8116792 0
8.3090401 3.2866991 0.65280527 0
7.6559396 -4.3016539 1.7826235 0
4.3183899 7.7200713 1.4335523 0
8.3237972 3.2923374 0.42425126 0
-4.0114799 7.9344997 1.1270685 0
7.787921 -4.2756238 1.1999288 0
-4.0588951 7.7857318 1.8124914 0
-8.015913 3.6797345 1.6095952 0
8.1670609 3.3315461 1.6096206 0
-4.0653071 7.795217 1.7787373 0
-8.0946751 3.6607285 1.2405078 0
8.3303747 3.2948506 -0.49695492 0
8.1815186 3.3367386 1.5627214 0
8.3185205 3.2903214 -0.72882473 0
4.2670345 7.9032159 -0.070561737 0
7.7973995 -4.2853961 1.2513384 0
4.2678804 7.9060526 0.18299742 0
8.3177929 3.2900434 0.88329393 0
7.9225988 -4.2508106 0.17463799 0
4.2681465 7.9082103 0.36744741 0
-3.9576044 8.0767221 -0.18367061 0
4.3159389 7.7122636 1.6873783 0
-3.9622765 8.0821352 0.14525194 0
4.271615 7.9185753 -0.32650483 0
4.2757692 7.9223332 0.15644819 0
-8.0156927 3.6796336 1.817134 0
7.9331875 -4.2604232 -0.096565038 0
8.3108406 3.2873869 1.1137874 0
7.9266834 -4.2545185 0.44485831 0
4.2718916 7.9195018 0.43664759 0
7.801465 -4.2830596 1.4085045 0
-4.0133185 7.9365692 1.4571626 0
4.2652755 7.9028902 0.78606635 0
8.1761227 3.3352425 1.8183383 0
4.2692332 7.9105887 0.69036496 0
7.9368534 -4.2637506 -0.36894518 0
7.9255629 -4.2535014 -0.64086139 0
8.1824751 3.3371198 1.7981687 0
-3.9662447 8.0867329 0.47425407 0
4.2727509 7.9223847 -0.58365947 0
-8.0860271 3.6584501 1.6149293 0
7.7931366 -4.281414 1.5234309 0
4.2764053 7.9235125 0.57646596 0
-3.9691586 8.0901098 -0.51547176 0
7.9359226 -4.2629056 0.71615863 0
4.2692175 7.9105358 0.94517088 0
8.3113728 3.28759 1.3470126 0
0.64912021 -9.0077295 0.48559034 0
0.64687908 -9.0221806 0.13355444 0
7.8028293 -4.2838087 1.6171837 0
4.316402 7.713738 1.9463444 0
-3.9526978 8.1437635 0.15296668 0
4.2742243 7.9194717 0.99556136 0
8.4573288 3.2411692 -0.27383119 0
7.9353905 -4.2624226 0.98817235 0
-3.9792261 8.1017742 0.80480492 0
8.4654388 3.2441354 -0.040301532 0
8.4523058 3.239332 -0.50859082 0
4.2685418 7.9089422 1.2047255 0
-3.9571915 8.1530218 0.36390275 0
-3.9529016 8.1441832 0.57532841 0
-4.0131354 7.9363632 1.7898116 0
4.2706504 7.9153409 1.202157 0
0.6480422 -9.0146799 0.83816868 0
7.7984762 -4.2864022 1.8006946 0
8.3138618 3.2885411 1.5832796 0
8.4770069 3.2483668 0.19291261 0
-3.967762 8.0884914 1.1346848 0
8.4736271 3.2471306 0.42642459 0
7.9273915 -4.2551613 1.2605646 0
7.8040853 -4.2844982 1.8268303 0
8.4591055 3.2418189 -0.74699092 0
-3.9474566 8.1329651 0.99651814 0
4.2672749 7.9065948 1.4144371 0
8.4720383 3.2465491 0.66006982 0
-3.958056 8.1548033 0.7860688 0
-8.0951729 3.6608596 1.9948623 0
8.4629002 3.243207 0.89375025 0
8.0694733 -4.2326922 -0.10091871 0
8.0706253 -4.2337074 0.17291152 0
8.0678101 -4.2312255 -0.37558597 0
0.64740622 -9.0187817 1.1922798 0
8.0693836 -4.2326121 0.44645959 0
-3.9662409 8.086729 1.4672258 0
4.2746792 7.9288507 1.4631468 0
0.58867401 -9.1063471 0.14786172 0
4.213089 8.094121 0.18011165 0
7.9275393 -4.2552958 1.5362879 0
-3.9203043 8.2419424 0.14360194 0
-3.9209266 8.2426853 -0.1890502 0
8.3200302 3.2908983 1.8238729 0
8.0724354 -4.2353044 -0.65281075 0
-3.9560695 8.1507101 1.2081161 0
4.2720547 7.9154515 1.6258974 0
8.0700274 -4.2331805 0.72035742 0
4.2179174 8.1111994 -0.080311358 0
-8.4108143 3.5823157 0.11898547 0
8.4720535 3.2465553 1.1305728 0
0.58939946 -9.117569 0.36045876 0
4.2165737 8.1064482 -0.34094644 0
-3.9219151 8.2438641 -0.52303976 0
0.58989507 -9.1252346 -0.067720413 0
-8.4099083 3.5820906 -0.26286 0
4.2685175 7.9081888 1.7210984 0
-3.9276729 8.2507315 0.47599828 0
-8.4057541 3.5810592 0.50032353 0
0.58921427 -9.1147032 0.57344675 0
-8.4202709 3.576592 0.35991004 0
8.5695601 3.2122002 -0.28379202 0
0.64965045 -9.0043106 1.5465443 0
4.2198267 8.1179543 0.43972069 0
4.2159677 8.1043034 0.69933581 0
-3.9523799 8.1431093 1.4191217 0
-8.4086323 3.581774 -0.64600694 0
0.58891833 -9.1101255 0.78607064 0
-3.9208655 8.2426128 0.80844522 0
8.5807495 3.2163947 0.14517689 0
-8.4204512 3.5766687 0.5731014 0
-8.4365463 3.5835052 0.14501536 0
8.465929 3.2443147 1.3675416 0
8.0724621 -4.2353287 0.9955287 0
8.5833464 3.2173679 0.35906532 0
8.5732794 3.2135944 0.57293403 0
8.5900068 3.2198644 -0.070461094 0
0.58832419 -9.100935 0.99837345 0
7.9244099 -4.2524548 1.8142316 0
8.5794134 3.2158935 -0.50181508 0
4.2233067 8.1302643 -0.6064781 0
8.5663328 3.2109907 0.78607118 0
-8.421792 3.5772383 0.78607124 0
4.2739911 7.9190397 1.8380489 0
8.615572 3.1953712 0.19094673 0
8.6176596 3.196101 -0.04696542 0
-8.4201508 3.5846329 0.88281304 0
8.5827656 3.2171502 -0.7206198 0
8.0653067 -4.2290168 1.2710438 0
-8.4141245 3.5739815 0.99888104 0
8.6130466 3.1944883 0.4284066 0
-3.9735932 8.0952473 1.8046184 0
4.2685332 7.9082413 1.9860501 0
8.6250992 3.1987019 -0.28640068 0
0.58860058 -9.1052103 1.2111068 0
-3.9560552 8.1506815 1.6319972 0
8.5745115 3.2140563 0.99923968 0
8.1996155 -4.1965346 0.17163801 0
4.2241602 8.1332817 0.96278602 0
-3.9321933 8.2561235 1.1438394 0
8.4746723 3.2475128 1.6097659 0
8.6207924 3.197196 0.66653931 0
8.2060213 -4.2034388 0.14124775 0
4.2173562 8.1092148 1.2231923 0
-8.4144335 3.5741127 1.2119378 0
8.6167107 3.1957688 -0.76803887 0
-8.4049854 3.5808682 1.2650781 0
0.65008891 -9.001483 1.9046991 0
8.2098446 -4.2053003 -0.10552886 0
8.2052078 -4.2013264 -0.38294172 0
8.2131901 -4.2071109 -0.075536191 0
8.2012396 -4.2009892 -0.50915921 0
8.6389427 3.203542 -0.52868867 0
8.2101746 -4.2055659 0.35636067 0
8.212616 -4.2068167 -0.29262328 0
8.5706682 3.2126155 1.2124481 0
0.58863395 -9.1057272 1.4242384 0
8.0655079 -4.2291942 1.5498159 0
8.6255627 3.1988637 0.90584368 0
8.2034874 -4.1998534 0.72449017 0
-8.4087448 3.571696 1.4250171 0
-3.9565833 8.1517687 1.8453503 0
-3.9226751 8.244771 1.4785405 0
8.2168121 -4.2089663 0.5711599 0
8.4648495 3.2439201 1.8513916 0
8.2155151 -4.2101588 -0.66404366 0
8.2261581 -4.2192793 0.44837219 0
8.5651646 3.2105527 1.4258044 0
-3.8779006 8.405549 0.14187191 0
8.6251583 3.1987226 1.1462958 0
4.2206221 8.1207676 1.4899497 0
8.2238245 -4.2125583 0.7860738 0
-3.8883495 8.4183807 -0.19506097 0
8.0548611 -4.2198033 1.8288963 0
-3.8823943 8.411068 0.47765231 0
-3.8822813 8.4109287 -0.53209865 0
8.2108383 -4.206152 1.0029905 0
8.2115059 -4.2062483 1.0008485 0
0.58930528 -9.1161118 1.6390133 0
-8.413558 3.5737407 1.6395693 0
-8.4101582 3.5821524 1.6511644 0
4.1754913 8.2975721 0.13642544 0
8.1941891 -4.1918859 1.2799954 0
-3.87955 8.4075747 0.81373066 0
4.1753044 8.2972012 0.3533859 0
8.572257 3.2132113 1.640839 0
8.2079039 -4.2044029 1.2156682 0
0.58838153 -9.1018219 1.8523182 0
4.1765089 8.2995949 0.56978536 0
4.2191563 8.1155825 1.7571363 0
-3.9260097 8.2487478 1.8182535 0
4.1669679 8.3330326 0.17630406 0
8.641201 3.2043314 1.391548 0
4.1662798 8.3304586 -0.35867697 0
4.1680279 8.336998 -0.091028392 0
4.1755242 8.2976379 0.78607517 0
-8.4160242 3.5747883 1.8550022 0
8.7827301 3.1484959 -0.054345518 0
-3.8819776 8.4105558 1.1514566 0
8.3493786 -4.1739058 -0.11005422 0
8.7864666 3.1497426 0.18838134 0
8.7852058 3.1493218 -0.29825979 0
4.1701059 8.3447723 0.44330806 0
8.6217346 3.1975257 1.6334103 0
8.2164335 -4.2087722 1.4317198 0
0.44795191 -9.3310184 0.12767658 0
4.1681919 8.3376102 -0.62923199 0
8.3484516 -4.1731339 0.44948334 0
4.1673932 8.3346233 0.71029961 0
8.3574095 -4.1805902 0.16971324 0
8.578023 3.2153723 1.8569984 0
8.7846661 3.149142 -0.54346168 0
-3.8406439 8.5273123 0.13199574 0
4.1805701 8.3076658 1.002576 0
8.3424549 -4.1681423 0.72898209 0
8.7982426 3.1536717 0.43123537 0
8.3610229 -4.1835971 -0.39235598 0
0.4469806 -9.3367395 0.49182475 0
8.2144184 -4.209219 1.5655398 0
-3.8433537 8.533329 0.35010949 0
8.7960281 3.1529326 0.6744802 0
8.7889519 3.1505716 -0.79154086 0
8.212285 -4.2066469 1.6475925 0
8.3651171 -4.1870055 -0.67624336 0
-3.8801622 8.4083261 1.4906968 0
4.1810555 8.30863 1.2193619 0
0.44772887 -9.3323326 0.85628426 0
-3.8462052 8.5396605 0.56804985 0
8.7908258 3.1511972 0.9181782 0
4.1717405 8.3508873 0.97992706 0
-3.8259726 8.5617304 0.479087 0
-3.8442531 8.535326 0.78607726 0
-3.8351769 8.57337 -0.1996519 0
8.3542233 -4.1779375 1.010982 0
-3.8377595 8.5766354 0.13998133 0
8.6348324 3.2021048 1.8850923 0
-3.8326955 8.5702324 -0.54025352 0
8.7855701 3.1494434 1.1629786 0
8.2088108 -4.2044144 1.8495179 0
8.207984 -4.2044439 1.8641688 0
-3.8448055 8.5365524 1.0040257 0
4.183918 8.3143187 1.4370391 0
4.1718521 8.351305 1.2503724 0
-8.7346878 3.497242 0.50556356 0
0.44762969 -9.3329163 1.2222104 0
-8.7487774 3.5005264 0.11358394 0
-8.7469463 3.5000994 -0.27902806 0
8.3516159 -4.1757674 1.2934866 0
-3.8373156 8.5760736 0.81923258 0
-8.7333221 3.4969239 -0.67188889 0
4.1776638 8.3018894 1.6538293 0
-3.844552 8.5359898 1.222182 0
4.1681886 8.3375978 1.5208617 0
8.489603 -4.1398616 -0.11460456 0
8.7928486 3.1518719 1.4115915 0
-3.8861985 8.4157391 1.8346263 0
8.4865475 -4.1373916 -0.39828312 0
8.4870243 -4.1377769 0.45096207 0
8.4983721 -4.1469498 0.16818327 0
-8.7436371 3.4993281 0.89825004 0
-3.8352447 8.5734549 1.160013 0
8.3545952 -4.1782479 1.5793374 0
8.4901829 -4.1403294 0.7340436 0
0.44810343 -9.3301258 1.5900004 0
8.946209 3.0961344 0.43338016 0
-3.8468053 8.5409927 1.4412106 0
8.4960594 -4.145081 -0.68540937 0
8.963171 3.1015253 -0.062574953 0
8.9628181 3.1014132 0.18571565 0
8.9621363 3.1011965 -0.31167459 0
4.1824007 8.3113031 1.8737743 0
8.954854 3.0988822 -0.5614199 0
4.1685171 8.338829 1.7963688 0
4.1107864 8.5576639 -0.10146812 0
8.800415 3.1543965 1.6635678 0
8.9528599 3.0982485 0.68140799 0
-8.7372322 3.4978352 1.2916402 0
0.34067404 -9.4949207 0.12159842 0
-3.8423724 8.5311508 1.6596892 0
4.111649 8.5610867 -0.37700593 0
-8.8492374 3.4626336 0.34342116 0
-3.776938 8.7259245 -0.20408243 0
-3.8351493 8.5733347 1.5030392 0
4.1135192 8.5685062 0.44683987 0
-8.8603363 3.4669766 0.12065756 0
8.9490147 3.0970266 0.92987007 0
4.1159477 8.5781431 0.17238668 0
8.3474264 -4.1722808 1.8660735 0
0.34125525 -9.5111189 -0.10253233 0
-3.7755003 8.7240515 0.48078045 0
4.1112661 8.5595675 -0.65385401 0
8.5044594 -4.1518712 1.0196983 0
0.34120974 -9.5098505 0.34279731 0
9.0081272 3.0848904 0.12015289 0
0.340929 -9.5020256 0.56474149 0
4.1119165 8.562149 0.72111058 0
-3.7877173 8.7399635 0.13826941 0
-3.7806339 8.7307377 -0.5485307 0
9.0155201 3.0874221 -0.10367876 0
9.0028973 3.0830994 0.56455457 0
-8.8630209 3.4680274 0.56452686 0
9.0145369 3.0870852 0.34221482 0
8.7953291 3.1526995 1.9164698 0
-3.8410707 8.5282602 1.8795075 0
-8.8550282 3.4648995 0.78608143 0
9.0217962 3.0895715 -0.32871199 0
9.0134954 3.0867288 -0.55311728 0
8.9533806 3.0984139 1.1806302 0
9.0052185 3.0838943 0.78608173 0
9.0073156 3.0846126 -0.77895451 0
-3.7835312 8.7345114 0.82404983 0
0.34143543 -9.5161409 0.78608185 0
8.5063925 -4.1534338 1.3064408 0
0.44585609 -9.3433628 1.9633344 0
4.1139116 8.5700655 0.99721605 0
-8.857892 3.4660201 1.0075084 0
9.0009804 3.082443 1.0075618 0
-8.7440052 3.4994142 1.6886421 0
8.6442537 -4.1192889 -0.10797757 0
-3.8377442 8.5766163 1.8496962 0
4.1105828 8.5568571 1.2729108 0
8.9495964 3.0972111 1.4325167 0
0.34161806 -9.5212307 1.0078696 0
8.6491385 -4.1177864 0.16644207 0
8.6445637 -4.1194367 -0.33335936 0
8.6492119 -4.1216516 0.11600298 0
8.6462708 -4.1155348 0.4528943 0
-3.7817464 8.7321873 1.1680906 0
8.6505995 -4.1223125 0.3396951 0
0.34099007 -9.5037279 1.2290816 0
-8.8579235 3.4660325 1.2291774 0
8.6522493 -4.1202283 -0.40868658 0
8.6449738 -4.1196318 0.56315506 0
8.5033855 -4.1510029 1.5948212 0
8.6624451 -4.128232 -0.12130985 0
8.6522646 -4.1231065 -0.56113756 0
8.6500101 -4.1184707 0.7398814 0
8.6545801 -4.1220579 -0.69887197 0
9.0184584 3.0884285 1.2301437 0
4.0734057 8.708231 0.33824101 0
-8.8598814 3.4667988 1.4514742 0
8.6602278 -4.1269011 0.78608388 0
4.0785251 8.7191753 0.11286724 0
0.34131438 -9.5127668 1.4518161 0
8.6456261 -4.1199427 1.0090289 0
-3.7784438 8.7278852 1.5137285 0
9.1355829 3.0474124 -0.070366204 0
4.0741978 8.7099237 0.56224048 0
9.132432 3.0464606 -0.32448816 0
8.9623356 3.1012597 1.6902963 0
8.6522417 -4.1202226 1.0280858 0
9.1415958 3.0492291 0.18300457 0
8.4956264 -4.1447306 1.8849499 0
9.0154667 3.0874038 1.4525561 0
4.1165581 8.5805645 1.5560544 0
-3.7319813 8.9003973 0.13662297 0
4.076582 8.7150211 0.78608465 0
9.151001 3.0520704 0.43656695 0
9.1438808 3.0499194 -0.5818097 0
-3.7342439 8.9034328 -0.21015179 0
4.0719509 8.705121 1.0098052 0
9.1436501 3.0498497 0.6902079 0
-3.7322927 8.900815 0.48278615 0
8.6478634 -4.116785 1.3172234 0
0.34144002 -9.5162687 1.6751819 0
8.6599874 -4.1267862 1.232958 0
8.953392 3.0984175 1.947287 0
4.1115203 8.5605764 1.8353052 0
9.1358547 3.0474944 0.94420093 0
9.0178337 3.0882144 1.6760761 0
-3.7387018 8.9094143 -0.55878443 0
4.0505118 8.7903624 0.16905946 0
-8.8785782 3.4741147 1.6762731 0
8.6439371 -4.1191378 1.4557579 0
-3.7214904 8.9391432 0.33502778 0
4.0531912 8.8016729 -0.1131739 0
-3.7254386 8.9486275 0.1081686 0
-3.7207916 8.9374647 0.56072146 0
0.22915637 -9.6942444 0.1207673 0
4.0759902 8.7137566 1.2342135 0
4.0529065 8.8004713 0.45052192 0
-9.0806408 3.4083085 0.10828725 0
0.34119391 -9.509409 1.898472 0
-3.7870531 8.7390985 1.8650608 0
-3.7434034 8.9157228 0.83035511 0
-8.8644991 3.4686055 1.8988731 0
0.22919238 -9.6940498 0.49862927 0
9.1410503 3.0490644 1.2008467 0
4.0525336 8.7988977 -0.68068808 0
8.6352873 -4.115016 1.6792214 0
8.8078146 -4.0910311 0.16453695 0
4.0567803 8.8168268 -0.39760113 0
9.0126181 3.0864282 1.8997495 0
4.0527215 8.7996912 0.73246723 0
8.8046951 -4.0886536 0.45479459 0
-3.7236526 8.9443369 0.78608656 0
8.8168888 -4.0979466 -0.1267412 0
8.8121719 -4.0943513 -0.4183687 0
-3.7344861 8.903758 1.1775672 0
-9.0948048 3.411397 0.51136583 0
-9.1086235 3.4144099 -0.29653054 0
8.6640482 -4.1294904 1.6126015 0
0.22975791 -9.6909857 0.8767854 0
9.129303 3.0455151 1.45728 0
-9.0917149 3.4107232 -0.70081711 0
4.0789542 8.7200928 1.4593759 0
8.8085556 -4.0915961 -0.7115382 0
8.8065767 -4.0900874 0.7454617 0
-3.7260363 8.9500628 1.0117697 0
4.0542455 8.8061247 1.0160389 0
-9.0884323 3.4100075 0.91484761 0
8.8007584 -4.0856533 1.0365133 0
-3.7241206 8.8898497 1.5255647 0
-3.721817 8.9399281 1.2371858 0
8.6457958 -4.1151628 1.9042002 0
0.23061144 -9.6863594 1.2559712 0
4.0520711 8.7969456 1.2998418 0
4.0787549 8.7196665 1.684902 0
8.6532402 -4.1235709 1.9066575 0
-3.6803041 9.0710993 -0.21556181 0
9.3241577 2.9934831 -0.079049081 0
-3.6831436 9.0750246 0.13467044 0
8.8033047 -4.0875945 1.3301276 0
9.1495543 3.0516336 1.7222016 0
9.3284502 2.9947131 -0.33966172 0
-3.7263303 8.9507694 1.4641699 0
-3.682951 9.0747585 0.48472384 0
4.050971 8.7923012 1.5861652 0
4.0769978 8.71591 1.9109589 0
-3.6830688 9.0749216 -0.56757593 0
-9.1027851 3.4131372 1.3212085 0
9.3271523 2.9943411 -0.60147053 0
9.3453407 2.9995534 0.17983766 0
9.3400145 2.9980271 0.43946564 0
9.3301144 2.9951899 0.6987738 0
0.23059392 -9.6864548 1.6377411 0
-3.7219625 8.9402771 1.6902838 0
-3.6854672 9.0782375 0.83542353 0
9.1382332 3.0482132 1.9846172 0
8.9551544 -4.0519738 0.45651034 0
-3.7364392 8.9063787 1.8813547 0
8.9570417 -4.05337 -0.42635137 0
9.3272696 2.9943748 0.95895433 0
8.9662113 -4.0601525 -0.13180989 0
8.8061829 -4.089787 1.626561 0
8.9723969 -4.0647292 0.16251531 0
4.050508 8.7903471 1.8758757 0
-9.0895023 3.4102409 1.727616 0
8.959589 -4.055254 -0.72368848 0
8.9593344 -4.0550656 0.75076163 0
-3.7246301 8.9466848 1.9189935 0
3.9873528 9.0381498 0.16509005 0
-3.6929383 9.0885668 1.1884494 0
8.7948637 -4.081161 1.9230764 0
9.3445225 2.9993191 1.2230892 0
3.9893799 9.0472898 0.45447338 0
3.9900355 9.0502453 -0.41620111 0
8.9675999 -4.0611801 1.0469003 0
9.3201799 2.9923429 1.4839046 0
3.9934609 9.0656891 -0.12596101 0
-9.3280554 3.3447337 0.093036592 0
-3.6810884 9.0721836 1.540484 0
8.9559155 -4.052537 1.3425275 0
3.9908571 9.0539503 0.74473083 0
-9.3281746 3.3447766 0.55540478 0
9.4781513 2.9449053 -0.14060324 0
3.992594 9.06178 -0.71050501 0
-7.8410482 -6.0839686 0.32377595 0
-7.8331466 -6.0778379 0.55529225 0
-3.6262584 9.2438087 -0.22129029 0
-9.345314 3.3509221 0.32361916 0
9.4819088 2.9460726 -0.37463033 0
9.4906397 2.9487853 0.091036975 0
-3.6319451 9.2519131 0.13267425 0
3.9894981 9.047823 1.0353842 0
0.071347207 -9.9452066 -0.1425029 0
9.4817209 2.9460142 -0.60953736 0
0.071366601 -9.9479103 0.090339363 0
-3.631886 9.2518291 0.48672399 0
-3.629241 9.2480593 -0.57718062 0
9.3302784 2.9952371 1.7528068 0
9.502944 2.9526083 0.32254127 0
0.071407415 -9.953599 0.32241172 0
-3.6244435 9.2412224 0.84052473 0
-9.3497314 3.3525062 0.78609353 0
9.5153008 2.9353139 -0.35401285 0
9.5009394 2.9519856 0.55449194 0
8.9560757 -4.0526552 1.6420147 0
9.1112738 -4.0253143 -0.37834704 0
9.5161438 2.9355426 0.44213414 0
-7.8348122 -6.0791302 1.0169432 0
-7.8515983 -6.0921545 0.78609371 0
3.9631889 9.147562 0.088869631 0
9.4918995 2.9491768 0.78609377 0
9.1202564 -4.0292826 -0.1448555 0
-7.6960926 -6.3333874 0.32179847 0
9.5281277 2.9387922 0.17704915 0
9.5312519 2.9396393 -0.088745862 0
9.1106129 -4.0250225 0.55423266 0
-8.0427675 -5.878768 0.55418372 0
3.9645984 9.150815 0.32153276 0
9.119997 -4.0221248 0.45852894 0
9.1223745 -4.0302181 0.32152128 0
-8.0517559 -5.8853383 0.32150349 0
9.5166388 2.9356768 -0.62194735 0
0.071478374 -9.9634895 0.55414844 0
-7.6935735 -6.3313141 0.55414802 0
0.071367219 -9.9479952 0.78609401 0
9.1287251 -4.0330243 0.088119149 0
-7.8251457 -6.0716295 1.2474737 0
-3.6883492 9.082222 1.8992968 0
-9.3500881 3.3526337 1.0173239 0
3.9634988 9.1482773 0.55400372 0
3.9915364 9.0570126 1.3293054 0
9.1362896 -4.0338202 -0.13820091 0
9.136467 -4.0339479 0.1605172 0
9.1216545 -4.0299001 -0.61562908 0
0.071323022 -9.9418344 1.017536 0
-7.6943374 -6.3319426 0.78609449 0
9.5284557 2.9388809 0.70799398 0
3.9620519 9.1449375 0.78609449 0
9.1367445 -4.0341473 -0.43806726 0
-3.6256347 9.2429199 1.1960313 0
9.1262913 -4.0266433 -0.73816204 0
-9.344243 3.350538 1.2485158 0
9.5052214 2.953316 1.0178009 0
-8.0528173 -5.8861136 0.78609473 0
9.1318588 -4.0306406 0.75731516 0
0.071256422 -9.9325523 1.2487968 0
9.1302576 -4.0337009 0.78609496 0
9.4935446 2.9496877 1.2491894 0
-9.328948 3.3450537 1.4792182 0
9.5317154 2.9397652 0.9749009 0
9.1248913 -4.0313301 1.0183201 0
-7.8365955 -6.080514 1.4798048 0
3.9913528 9.0561848 1.6247932 0
8.9664469 -4.0603275 1.9473161 0
-8.0590868 -5.8906965 1.0184765 0
-7.7080112 -6.3431954 1.018477 0
9.5155096 2.9353707 1.2412038 0
3.9702466 9.1638517 1.0185814 0
-9.4692726 3.3187237 -0.31399298 0
-8.2687702 -5.6873617 0.31859362 0
9.1360893 -4.0336771 1.0573968 0
-9.4650269 3.3178613 0.51735312 0
-9.4785118 3.3206003 0.1018067 0
9.1163483 -4.0275559 1.2503623 0
-7.6979942 -6.3349519 1.2505066 0
-8.269186 -5.6876473 0.55245984 0
-7.6778612 -6.3183837 1.481519 0
-3.5967288 9.3899698 0.082853377 0
-3.5951443 9.3858328 0.31789768 0
-8.0573597 -5.8894339 1.2510107 0
-9.467804 3.3184252 -0.73135138 0
9.5021992 2.9523768 1.4820001 0
3.9683785 9.1595402 1.2511011 0
-3.5948565 9.3850813 0.55214274 0
-0.00299263 -10.066344 0.11362469 0
-7.8379626 -6.0815744 1.7123778 0
3.9886487 9.043993 1.9212456 0
-7.5847979 -6.6157103 0.31725463 0
9.1314602 -4.030354 1.3583434 0
-3.6398506 9.2631788 1.5566463 0
-9.3445206 3.3506374 1.7129784 0
0.071485564 -9.9644928 1.4830116 0
-9.4667034 3.3182018 0.93325561 0
-3.5712409 9.4207039 0.13085279 0
-3.5942423 9.3834791 0.78609687 0
-8.2797346 -5.6949029 0.78609687 0
9.4862547 2.947423 1.7135874 0
-7.5889091 -6.6192961 0.55167603 0
9.12533 -4.0315242 1.4838138 0
3.9665873 9.155406 1.4839205 0
-0.004691124 -10.074863 0.50592697 0
-7.8205729 -6.0680814 1.943269 0
-8.2704105 -5.6884899 1.0197681 0
-7.5809479 -6.6123524 0.78609717 0
-3.5801225 9.4337549 -0.22810531 0
-8.0615911 -5.8925271 1.4844668 0
9.5452642 2.9434388 1.5161647 0
-3.5787225 9.4316978 -0.58788538 0
-3.5969882 9.3906469 1.0201902 0
-7.6917329 -6.3297992 1.7161825 0
0.071467936 -9.9620352 1.7162673 0
-3.5846405 9.4403934 0.48896295 0
9.1268587 -4.027051 1.6614875 0
-0.0045101643 -10.073956 0.89881104 0
-7.5842438 -6.6152267 1.020375 0
3.9642808 9.1500816 1.7171683 0
-3.5762467 9.4280596 0.84714431 0
-8.0511837 -5.8849201 1.7172353 0
9.1223421 -4.0302038 1.7172626 0
-3.6306195 9.2500238 1.9156377 0
-8.2748308 -5.6915302 1.2539434 0
3.9263606 9.3286705 0.16035457 0
-8.4977427 -5.4925647 0.31475627 0
-9.3513975 3.3531034 1.947449 0
3.9268966 9.3312607 -0.13883933 0
3.9254258 9.3241501 -0.43844873 0
9.5248394 2.9379005 1.7862432 0
9.3026352 -4.0006046 -0.14431435 0
-3.5955005 9.3867636 1.2543439 0
9.2995949 -3.9984877 -0.44789982 0
9.4959669 2.9504406 1.9485464 0
3.9232302 9.3135347 -0.73894632 0
3.9268641 9.3311033 0.45908886 0
0.071357526 -9.9466448 1.9489129 0
-8.5006304 -5.494431 0.55047518 0
9.3053303 -4.0024819 0.46097249 0
9.313302 -4.0080333 0.15825796 0
9.2926769 -3.9936702 0.76307845 0
-9.487854 3.3224978 1.3525414 0
-0.0019247532 -10.060987 1.2919952 0
-8.4942894 -5.4903321 0.78609872 0
-7.5877733 -6.6183057 1.2551253 0
3.9261775 9.3277845 0.7580533 0
-3.5911949 9.3755226 1.488261 0
-7.6910453 -6.3292332 1.9505019 0
9.7335558 2.8790808 -0.098189861 0
9.7280073 2.8776612 -0.37072337 0
9.7345963 2.8793468 0.17382847 0
-8.0448189 -5.8802671 1.9510024 0
-8.2763777 -5.6925945 1.4886336 0
-8.4857121 -5.4847879 1.021309 0
3.9621181 9.1450901 1.9512042 0
9.7220697 2.8761423 -0.64447677 0
-7.4589224 -6.8925047 0.31300595 0
9.1247435 -4.0312653 1.9522655 0
9.7399654 2.8807209 0.44566831 0
-3.5832405 9.4383364 1.207988 0
3.9246068 9.3201895 1.0574949 0
9.1271286 -4.0272446 1.9687715 0
9.3164425 -4.0102201 -0.75606215 0
-7.4659243 -6.8989754 0.54945934 0
-7.589848 -6.6201153 1.4904689 0
-9.4711933 3.319114 1.7711717 0
9.7503891 2.8833876 0.71850049 0
-8.2774124 -5.693306 1.7241189 0
9.3116608 -4.0068898 1.0685861 0
-8.4986296 -5.4931374 1.2574919 0
-7.5746851 -6.6068892 1.7245724 0
-8.7169523 -5.2860389 0.31120941 0
9.7343178 2.8792758 0.99069333 0
-8.7211695 -5.2885962 0.072774768 0
3.9242473 9.3184519 1.3589629 0
-3.5968328 9.3902416 1.7249765 0
-7.4752584 -6.9076004 0.78610057 0
-3.5824213 9.4371328 1.5702091 0
-8.2608376 -5.6819057 1.9581901 0
-8.7102003 -5.2819443 0.7861008 0
-0.0050213337 -10.076519 1.690231 0
9.3054562 -4.0025702 1.3738184 0
-8.4933767 -5.4897423 1.493391 0
-7.4722161 -6.904789 1.0229411 0
-8.7324543 -5.2954392 0.54836226 0
-7.4601693 -6.8936567 1.2592742 0
9.7422495 2.881305 1.2664343 0
3.923768 9.3161345 1.662809 0
-3.5258427 9.6181707 -0.23455071 0
-3.5977316 9.3925877 1.9619097 0
-3.5284114 9.6220636 0.12834913 0
-8.720355 -5.2881021 1.0235114 0
-8.4894514 -5.4872055 1.7299159 0
-3.5290012 9.6229582 0.49106961 0
-3.5260978 9.618557 -0.59890342 0
-7.5913057 -6.6213865 1.9636889 0
9.3059044 -4.0028815 1.6824329 0
9.7372713 2.8800313 1.5430139 0
-8.7175474 -5.2863998 1.2610264 0
-3.5800915 9.4337091 1.9350224 0
-3.5254316 9.617548 0.85391158 0
-8.9452105 -5.0793505 0.066671312 0
-7.3486118 -7.1921921 0.30711195 0
-7.4771795 -6.9093757 1.4981246 0
-8.9397793 -5.0762663 0.5467844 0
-8.4923229 -5.4890614 1.9681996 0
-3.5212812 9.6112576 1.2175384 0
3.9261293 9.3275509 1.9725947 0
-8.9633675 -5.0896606 0.30594328 0
-7.3615818 -7.204886 0.54631543 0
-8.7270555 -5.2921658 1.499912 0
9.7375288 2.8800974 1.8233595 0
9.2997932 -3.9986255 1.9929649 0
-8.9466124 -5.0801463 0.78610373 0
-7.4708323 -6.9035106 1.7358639 0
-7.3571944 -7.200592 0.7861039 0
9.5232639 -3.9999888 0.15531485 0
-8.7098036 -5.2817035 1.7371727 0
9.9443188 2.8152297 0.17054512 0
9.9465961 2.8157778 -0.10822695 0
-7.352756 -7.1962481 1.0256052 0
9.532361 -4.0061321 -0.15440738 0
-8.9515543 -5.0829525 1.0257385 0
9.5288248 -4.0037441 0.46420228 0
9.9485884 2.8162572 -0.38815951 0
9.9347172 2.8129191 -0.66794789 0
9.9488049 2.8163092 0.44893545 0
3.8545651 9.6042309 0.1558824 0
3.8545814 9.6043158 -0.1521326 0
9.5346222 -4.0076594 -0.46531183 0
-7.4710431 -6.9037051 1.9752802 0
3.8552463 9.6077795 0.46358067 0
3.8553205 9.6081648 -0.46161848 0
3.8466001 9.6265011 0.061088681 0
-7.3557096 -7.1991386 1.2655593 0
9.9546566 2.8177173 0.72806144 0
-3.5295849 9.6238422 1.5856425 0
9.5353889 -4.0081763 -0.77809131 0
-8.9530811 -5.0838194 1.2657151 0
-8.7099304 -5.2817812 1.9769026 0
3.8491771 9.6329517 0.30287436 0
9.5417824 -4.0124946 0.77440321 0
3.8553066 9.6080942 -0.77278566 0
-9.865037 3.2210236 0.30268586 0
9.9986134 2.7947531 0.060020447 0
3.8556378 9.6098194 0.77182633 0
-9.1732502 -4.8662825 0.059864521 0
9.523737 -4.000308 1.0835626 0
-9.8733912 3.2237513 0.059705675 0
-9.8739185 3.2215796 0.095365033 0
9.9484558 2.8162253 1.0075476 0
-9.8640614 3.2197244 0.52385992 0
10.004394 2.7963686 -0.18379611 0
3.851685 9.5892258 1.0793313 0
3.8503628 9.6359186 0.54454672 0
-9.8748569 3.2217562 -0.33387786 0
-9.8710108 3.2229743 0.54438078 0
-3.4668117 9.8017464 -0.24093366 0
-9.8610668 3.2191603 -0.76345038 0
-9.1852417 -4.8726439 0.30175054 0
3.8488412 9.6321106 0.78610611 0
10.013082 2.7987971 -0.42930746 0
-7.3587575 -7.2021217 1.5062367 0
-3.4724178 9.8105135 0.12612295 0
-9.8672438 3.2217443 0.78610635 0
10.008008 2.797379 -0.67457139 0
-9.1874285 -4.8738041 0.54400223 0
10.026282 2.8024869 0.30114883 0
-8.9614906 -5.0885944 1.5068488 0
-3.4684134 9.8042517 -0.6097787 0
9.9466534 2.8157916 1.2888553 0
10.008019 2.7973821 0.78610665 0
-3.4754424 9.8152437 0.49337506 0
-9.18295 -4.8714285 0.78610677 0
-3.5237107 9.6149387 1.9538969 0
10.026962 2.8026769 0.54374284 0
-8.9387474 -5.0756807 1.7458742 0
-7.2366643 -7.5009894 0.30058151 0
-9.87253 3.221318 0.95315373 0
3.8515363 9.638855 1.0277398 0
-0.22435783 -10.425678 0.30033377 0
-9.8720036 3.2232983 1.0278568 0
3.8533826 9.5980701 1.3909324 0
-9.1747704 -4.8670893 1.0278779 0
-0.22453657 -10.433985 0.05620718 0
9.5355082 -4.0082574 1.3975091 0
-7.3547888 -7.1982379 1.7469811 0
-0.22460778 -10.437293 -0.18863612 0
3.8463323 9.6258316 1.2689818 0
10.010571 2.7980955 1.0280752 0
-3.474679 9.8140497 0.861099 0
-7.2453642 -7.5100069 0.54318458 0
9.9435654 2.8150482 1.5722462 0
-0.22462323 -10.438011 0.54306537 0
-3.4581509 9.8666601 0.054897666 0
-9.8671827 3.2217243 1.2696332 0
-3.4582074 9.8668222 0.29906696 0
-3.4555907 9.8593559 0.54290342 0
-7.3420558 -7.1857753 1.9870816 0
-9.8650494 3.2199101 1.3832049 0
-7.2502165 -7.5150366 0.78610808 0
-0.22472352 -10.442672 0.7861082 0
10.014928 2.7993131 1.2705173 0
3.8475118 9.6287832 1.5112979 0
-0.22435564 -10.425576 1.0288612 0
-9.18857 -4.8744097 1.27064 0
9.5321465 -4.0059867 1.7122633 0
-8.9481678 -5.0810294 1.9890459 0
-7.2428455 -7.5073962 1.028947 0
-3.4577446 9.8655014 0.78610843 0
9.9920397 2.7929158 1.5117177 0
-3.4767113 9.8172283 1.2305262 0
-0.25711775 -10.484942 0.10557085 0
3.8548787 9.6058645 1.7056795 0
-9.1748657 -4.8671398 1.5124792 0
-9.8731232 3.223664 1.5124905 0
-7.2363601 -7.5006742 1.2716144 0
9.9444809 2.8152688 1.8593669 0
-0.25773883 -10.487841 0.51388091 0
-3.4593821 9.8701735 1.0295806 0
-9.422617 -4.6572542 0.051009953 0
-0.2244883 -10.431742 1.2721655 0
3.8460598 9.6251497 1.7538908 0
-0.2543354 -10.471959 0.9218896 0
-9.4258814 -4.6588678 0.29631644 0
-9.4183779 -4.655159 0.5415405 0
-9.8641949 3.2207487 1.7549708 0
-3.4709229 9.808176 1.6006997 0
-3.4563692 9.861577 1.2728922 0
10.167732 2.7486575 -0.11871538 0
-9.1785908 -4.8691158 1.7562268 0
-7.2430115 -7.5075684 1.5156976 0
10.175005 2.750298 0.16688079 0
-9.4243431 -4.6581073 0.7861101 0
-9.8750362 3.2217898 1.817541 0
-0.22453924 -10.434108 1.5160203 0
10.1808 2.7516053 -0.40666145 0
10.166195 2.748311 -0.69382763 0
10.179008 2.7512012 0.45259088 0
10.022709 2.8014882 1.7577906 0
-3.4561296 9.8608932 1.5168946 0
-3.4097152 9.9951239 -0.24791688 0
-7.1135006 -7.8097849 0.047298253 0
9.7737036 -4.0126452 0.1515523 0
-9.4275551 -4.6596947 1.0309184 0
9.7666616 -4.0080352 0.46770081 0
10.176825 2.7507086 0.73860389 0
-9.8651466 3.2210596 1.999285 0
9.7755013 -4.0138221 -0.16524157 0
3.8515301 9.6388397 1.9995394 0
-9.1696177 -4.8643556 1.9995525 0
-3.4104133 9.9962502 0.49544442 0
-7.1181722 -7.8149137 0.29369131 0
-0.25771427 -10.487726 1.3330897 0
-7.2412915 -7.5057859 1.7598977 0
-0.22438851 -10.427104 1.7599055 0
-3.4642596 9.7977562 1.9730501 0
-3.4186664 10.009574 0.12368205 0
9.7751913 -4.0136194 -0.48312706 0
10.173182 2.749887 1.0253782 0
-3.4535499 9.8535328 1.7609986 0
-3.4167786 10.006526 -0.62234968 0
-9.4276485 -4.6597414 1.275997 0
9.7774334 -4.0150871 0.78476262 0
-7.1278086 -7.8254929 0.53970206 0
-7.1210279 -7.818049 0.78611189 0
-3.414135 10.002258 0.86775672 0
9.7625141 -4.0053201 1.1012015 0
3.7811489 9.9128304 -0.16733471 0
3.7802544 9.9077797 0.46849284 0
3.7806253 9.909874 -0.48639101 0
3.7836401 9.9268932 0.15056837 0
9.842205 -4.0148787 0.042701185 0
10.183254 2.7521586 1.3153749 0
-9.4326077 -4.6621923 1.5219929 0
-9.6586761 -4.4338512 0.29103881 0
9.8424721 -4.0149875 0.29093954 0
-9.6644878 -4.4365191 0.042383015 0
-7.1287069 -7.8264794 1.0325537 0
-0.25825071 -10.490229 1.7462741 0
9.8411741 -4.0144582 -0.45637548 0
9.849164 -4.0177174 -0.20706141 0
9.8440027 -4.0156121 0.53862208 0
-9.6635342 -4.4360814 0.53858578 0
-7.1177931 -7.8144975 1.2785074 0
3.7828047 9.9221773 0.78723216 0
-9.4172468 -4.6546001 1.7669322 0
9.7684975 -4.0092373 1.421398 0
-3.4211617 10.013602 1.2424779 0
10.168949 2.7489321 1.6046354 0
-9.6580706 -4.4335732 0.78611338 0
3.7805381 9.9093828 1.1057473 0
9.8559027 -4.0204668 -0.71009541 0
9.8518238 -4.0188026 0.78611374 0
9.8405581 -4.0142069 1.0335186 0
-7.122035 -7.8191547 1.5258145 0
-9.6677132 -4.4379997 1.0337489 0
-3.4158626 10.005047 1.6175566 0
-9.6547394 -4.432044 1.2809874 0
9.7698383 -4.0101151 1.7439752 0
3.7810431 9.9122324 1.4272552 0
10.170933 2.7493794 1.8993292 0
9.8454113 -4.0161867 1.2814367 0
-7.1201496 -7.8170848 1.7733727 0
-6.9883766 -8.1290922 0.28674158 0
-6.9996772 -8.1422377 0.03516531 0
9.8426886 -4.0150757 1.5295651 0
-3.357388 10.203927 -0.25583327 0
10.410172 2.680145 -0.13036472 0
-3.3560538 10.201702 0.49801266 0
-3.3621669 10.211894 0.12117994 0
-10.290556 3.115485 0.08853808 0
-9.6735239 -4.4406672 1.5305427 0
10.412825 2.6807036 0.16308363 0
10.406496 2.6793711 -0.42460805 0
-7.0031304 -8.1462545 0.53603774 0
-6.9933863 -8.1349201 0.78611624 0
-10.292864 3.1158855 -0.35444814 0
-3.3493991 10.190608 0.87441933 0
9.8286381 -4.0093446 1.7772236 0
-3.4180913 10.008645 1.9974239 0
-3.3596816 10.20775 -0.63478178 0
3.7835059 9.9261351 1.7535129 0
10.401962 2.6784167 0.74932516 0
10.419975 2.6822095 0.45644397 0
-10.283499 3.1142612 -0.79818618 0
-10.302038 3.1174769 0.53106534 0
10.414196 2.6809926 -0.72181904 0
-6.9973879 -8.1395741 1.0359906 0
10.010449 -4.0092759 0.14811058 0
-9.6715851 -4.4397774 1.7797465 0
10.023695 -4.0176797 -0.17628461 0
3.7190359 10.142419 0.030594349 0
10.41312 2.6807661 1.0446004 0
3.7185402 10.141067 0.28295773 0
-3.3532548 10.197036 1.2530887 0
10.023623 -4.017633 0.47156173 0
-10.303743 3.1177726 0.97442687 0
-6.9987321 -8.1411381 1.2862322 0
10.028257 -4.0205736 -0.50206715 0
10.026951 -4.0197449 0.7958867 0
3.7199779 10.144988 0.78611845 0
10.413612 2.6808698 1.3411459 0
-9.9720449 -4.2357235 0.28142077 0
-9.9756775 -4.2372661 0.028111219 0
-6.9958982 -8.1378412 1.5366652 0
3.728405 10.16797 0.53400797 0
-9.9687767 -4.2343349 0.53398919 0
-10.29495 3.1162474 1.4186029 0
10.025409 -4.0187669 1.1211721 0
3.7214296 10.148947 1.0377585 0
-3.3570776 10.203409 1.6345962 0
-9.9774055 -4.2380004 0.78611946 0
-9.9702454 -4.2349586 1.0382867 0
3.6999578 10.225529 0.47372645 0
-6.9998465 -8.1424351 1.7886842 0
10.422495 2.68274 1.6416385 0
-3.304251 10.371619 0.27905118 0
3.7022529 10.239658 -0.18352965 0
-10.444844 3.0817118 0.024497509 0
-3.3058751 10.376718 0.024454653 0
10.019758 -4.015182 1.4477259 0
3.7231355 10.153599 1.2899024 0
-10.444256 3.081538 0.2788592 0
3.7028441 10.243298 0.14535935 0
10.571473 2.6303933 0.27865261 0
3.701827 10.237035 -0.51345682 0
-3.3043013 10.371778 0.53271937 0
-10.44139 3.0806923 0.53269678 0
3.6995583 10.223067 0.8020488 0
-9.9665747 -4.2333994 1.2905421 0
10.584044 2.6335213 0.023324609 0
-6.8677611 -8.468585 0.27820826 0
10.395157 2.6769836 1.9389166 0
-6.8712497 -8.4728861 0.023175776 0
-10.437463 3.0795338 0.78612065 0
-3.3050692 10.374188 0.78612083 0
10.581036 2.6327729 0.53229499 0
3.7210944 10.148032 1.5420637 0
-6.8692274 -8.4703932 0.53224808 0
10.593534 2.6358829 -0.23314369 0
10.585542 2.6338937 -0.48907948 0
-3.2984614 10.410035 -0.26356649 0
-3.2998977 10.412509 0.11871652 0
-3.2957563 10.405375 0.50053954 0
10.582084 2.6330335 -0.74668396 0
10.579918 2.6324947 0.78612125 0
-10.44174 3.0807958 1.0395536 0
-3.2970834 10.407661 -0.64706123 0
-10.316208 3.1199348 1.8686211 0
3.7010031 10.231962 1.1324072 0
-6.8739309 -8.4761925 0.78612155 0
-9.9711208 -4.2353306 1.5437841 0
-3.3070831 10.380509 1.039736 0
10.028534 -4.0207496 1.7793286 0
-3.2958994 10.405622 0.88269907 0
-10.431735 3.0778439 1.2927754 0
10.582148 2.6330495 1.0399746 0
-6.8693213 -8.4705086 1.0399984 0
3.7247968 10.15813 1.7963295 0
-3.3061452 10.377565 1.2934825 0
10.65477 2.6055472 -0.1421493 0
-9.9668579 -4.23352 1.7971891 0
10.662022 2.606966 0.159077 0
3.7013612 10.234168 1.4645896 0
10.643002 2.6032448 -0.74745131 0
10.583638 2.6334202 1.294175 0
-3.2931285 10.400849 1.2657721 0
-6.870029 -8.4713812 1.2942035 0
-10.438965 3.0799768 1.5473183 0
10.670351 2.6085956 0.46047115 0
10.673082 2.6091301 -0.44624203 0
10.662712 2.6071012 0.76197338 0
10.583941 2.6334953 1.5489137 0
-6.8703904 -8.4718266 1.5489748 0
-3.3118026 10.395323 1.5491564 0
3.700577 10.229341 1.798661 0
10.276339 -4.0171609 -0.18750131 0
-3.3057888 10.376446 1.8029426 0
-3.2966762 10.40696 1.6523517 0
-10.447707 3.0825562 1.8031907 0
10.274982 -4.0163269 -0.52018011 0
10.574732 2.6312041 1.8035827 0
10.679607 2.6104071 1.0662239 0
10.280148 -4.0195022 0.47537714 0
10.657999 2.606179 1.3687276 0
-6.8744788 -8.4768686 1.8051566 0
10.301104 -4.0323792 0.14359356 0
10.281294 -4.020206 0.80720615 0
-3.2330017 10.613201 0.11625336 0
10.656643 2.6059136 1.675561 0
10.281836 -4.0205388 1.1402839 0
-3.2380662 10.62222 -0.27165395 0
-3.2352014 10.617119 0.50322509 0
-3.238029 10.622153 -0.66079581 0
-6.7552514 -8.8364124 0.52720106 0
-6.7672462 -8.8521023 0.0068440437 0
-6.7660832 -8.8505812 0.26716387 0
-3.2406573 10.626834 0.89133132 0
10.288666 -4.0247359 1.476354 0
10.666645 2.6078708 1.9879597 0
-6.7620502 -8.8453054 0.78612787 0
-10.756819 3.005897 0.080822662 0
-10.758488 3.0061619 -0.37757897 0
-3.2373834 10.621004 1.2800806 0
3.6141405 10.564809 -0.54061943 0
3.6159217 10.576862 -0.20030004 0
-10.754707 3.0055618 0.53854007 0
3.6168718 10.583292 0.13972469 0
-6.7643452 -8.8483076 1.0454034 0
10.281965 -4.0206189 1.8133656 0
3.6167755 10.58264 0.47966385 0
-10.743053 3.0037115 0.99615997 0
-6.7611623 -8.8441439 1.3047159 0
10.92247 2.5285611 0.15486239 0
3.6170571 10.584546 0.8201071 0
10.933256 2.5305119 -0.15576506 0
10.925549 2.5291181 -0.4666543 0
-3.2370071 10.620334 1.6714705 0
10.932756 2.5304215 0.4647201 0
10.918621 2.5278652 -0.77899766 0
10.927187 2.5294142 0.7748419 0
3.6167665 10.582579 1.1615911 0
-6.7627397 -8.8462076 1.5648961 0
-10.474097 -4.0984282 -0.00048875809 0
-0.5645873 -11.2358 -0.26426661 0
-0.56459278 -11.235909 0.26206613 0
-0.56517786 -11.247553 -0.0014920831 0
-10.477886 -4.0999107 0.52420855 0
3.6140935 10.56449 1.5030277 0
-0.56504679 -11.244946 0.52403015 0
-10.494604 -4.106452 0.26116639 0
-0.56436735 -11.231422 0.78613102 0
-10.767694 3.0076234 1.4578475 0
-6.7593517 -8.8417759 1.8252826 0
-3.167387 10.824787 0.11357382 0
-10.481009 -4.1011324 0.78613132 0
-10.463387 -4.0942369 1.0476913 0
10.948082 2.5331929 1.0880576 0
-3.1675525 10.825091 0.50583225 0
3.5816894 10.708757 -0.0035971403 0
-0.56435591 -11.231195 1.0479121 0
3.5819743 10.709609 0.2600798 0
-3.1759372 10.840536 -0.28009623 0
10.561913 -4.0290751 0.13972771 0
10.932615 2.5303957 1.4001436 0
10.565712 -4.0313349 -0.20086312 0
3.5850186 10.718712 0.52302527 0
10.562147 -4.0292139 0.47967702 0
3.5808072 10.70612 0.78613228 0
-3.1765175 10.841605 -0.67500228 0
-10.74301 3.0037048 1.9179804 0
-3.1713901 10.83216 0.89899677 0
-10.475188 -4.0988545 1.3101265 0
3.6152365 10.572226 1.8502568 0
10.573792 -4.0361423 -0.54344809 0
3.5813994 10.707891 1.0489744 0
10.921219 2.5283351 1.7144703 0
-0.56538415 -11.251658 1.3109326 0
10.569284 -4.0334606 0.82048106 0
-10.470592 -4.0970564 1.5724907 0
-0.56443924 -11.232854 1.5727284 0
10.566235 -4.0316463 1.1620789 0
3.5835536 10.714332 1.3124185 0
-3.1790686 10.846304 1.2948701 0
-3.1413567 10.935539 -0.0096049309 0
-3.1398053 10.930139 0.52140188 0
-3.1432712 10.942204 0.25579804 0
-10.469731 -4.0967197 1.8358554 0
-0.56454128 -11.234885 1.836449 0
10.558481 -4.0270338 1.5048498 0
3.5814281 10.707976 1.5758073 0
-3.168509 10.826853 1.6896036 0
-3.1460745 10.951962 0.78613532 0
-3.1417506 10.936911 1.0510319 0
3.584326 10.716641 1.8412224 0
-11.070741 2.923912 -0.014677525 0
10.55801 -4.0267529 1.8512818 0
-11.080075 2.9263775 0.25229335 0
-11.072923 2.9244883 0.51953173 0
-3.1447699 10.947421 1.3167264 0
11.204081 2.448776 -0.01595068 0
11.206926 2.4471123 -0.16914982 0
11.208 2.4472904 0.15019411 0
11.202947 2.4485281 0.51918781 0
11.212758 2.4506724 0.25148153 0
-11.076043 2.9253125 0.78613704 0
-3.1066847 11.055268 -0.28831607 0
-3.1082282 11.058211 0.11046529 0
11.209373 2.4499328 -0.55519199 0
11.220578 2.4523816 -0.28624582 0
10.755981 -4.031755 0.25104678 0
10.756371 -4.0319009 -0.28640914 0
10.760932 -4.0336103 -0.017594039 0
11.219204 2.4491515 0.46940416 0
11.204951 2.4489663 0.7861374 0
11.225029 2.450119 -0.49128926 0
-3.1454623 10.949831 1.5829182 0
-11.076339 2.9253907 1.0528249 0
10.761967 -4.0339985 -0.55743539 0
-3.1124301 11.066222 0.50909263 0
10.764774 -4.0350509 0.51851881 0
3.5257123 10.954541 0.13352868 0
11.218248 2.4489927 0.78915131 0
3.5257149 10.95456 -0.21924478 0
-3.1106272 11.062785 -0.6893605 0
10.756752 -4.0320439 0.78613794 0
3.525353 10.951843 0.48582384 0
3.5234096 10.93725 0.83772963 0
3.5261197 10.957601 -0.57357991 0
-3.1098928 11.061385 0.90807807 0
-11.072942 2.9244936 1.3196385 0
11.213037 2.4481273 1.1096258 0
-0.6644392 -11.512357 0.086522773 0
-3.1442914 10.945756 1.849465 0
10.758572 -4.0327258 1.0536035 0
11.226887 2.4537604 1.0536585 0
11.203802 2.448715 1.3203678 0
-0.664819 -11.514013 0.53290695 0
-11.065565 2.9225452 1.58658 0
-3.1085281 11.058783 1.3083651 0
11.21006 2.4476328 1.4319725 0
3.524869 10.948208 1.1921508 0
10.759414 -4.0330415 1.3214014 0
10.84194 -4.0294881 -0.21330822 0
10.838737 -4.0276442 0.48382992 0
10.850004 -4.0341306 0.13534319 0
-0.66556096 -11.517249 0.9800393 0
10.849043 -4.033577 -0.56411809 0
10.83634 -4.0262632 0.83236957 0
11.219093 2.4520571 1.5893039 0
-11.230253 2.8845215 0.07296899 0
-11.221619 2.8832774 0.54627877 0
10.760697 -4.0335226 1.5898559 0
-11.080701 2.9265428 1.8562114 0
3.5254998 10.952945 1.5487483 0
-11.241302 2.8861141 -0.40165573 0
11.214851 2.4484284 1.7581308 0
-3.1128516 11.067026 1.7124035 0
10.750971 -4.0298772 1.8581522 0
-0.66752386 -11.525808 1.4295213 0
11.226591 2.4536958 1.8591021 0
10.855417 -4.0372481 1.1841618 0
3.5236158 10.938798 1.9057348 0
-11.24012 2.8859434 1.020993 0
10.848612 -4.033329 1.535985 0
-6.8285618 -9.4843121 -0.031207919 0
-11.228262 2.8842347 1.4960725 0
-6.8288884 -9.484766 0.24170876 0
-0.66642261 -11.521007 1.8806905 0
-6.8300347 -9.4863577 0.51402795 0
-3.0459471 11.296826 0.107261 0
-3.0411239 11.287301 0.51195264 0
-6.8228841 -9.4764261 0.78614336 0
-3.0460968 11.297122 -0.29812825 0
-11.021203 -3.9518406 0.51358712 0
-3.047637 11.300163 -0.70529652 0
-3.0412846 11.287619 0.91697001 0
10.849792 -4.034009 1.8917471 0
-11.026137 -3.9536102 0.78614438 0
-11.052551 -3.9630811 -0.035037756 0
-11.052194 -3.9629529 0.23920208 0
-6.8364282 -9.4952383 1.0585148 0
11.512262 2.3610876 -0.18424743 0
11.504313 2.3598838 0.47407502 0
11.505823 2.3601124 -0.51431775 0
-11.028457 -3.9544415 1.0588813 0
-11.232965 2.8849125 1.975279 0
-3.0414076 11.287862 1.3234901 0
-6.8326254 -9.4899559 1.330878 0
11.52923 2.3636568 0.14488511 0
11.517414 2.3618677 0.80392051 0
-6.8274369 -9.4827499 1.6033638 0
-11.045146 -3.9604261 1.3327408 0
11.518515 2.3620343 1.1348408 0
-3.039556 11.284205 1.7319843 0
-11.029361 -3.954766 1.6056077 0
-6.8248439 -9.4791489 1.8767393 0
11.506422 2.360203 1.4662288 0
3.4330637 11.335541 -0.042197526 0
3.4261394 11.341361 -0.23870605 0
3.4350905 11.342234 0.23409098 0
3.4329114 11.335038 0.51044381 0
3.4262424 11.342231 0.49236876 0
3.4276645 11.354218 0.12682053 0
-11.02693 -3.9538944 1.879908 0
11.153378 -4.0394344 -0.22776812 0
11.155973 -4.0408797 0.13063769 0
11.155167 -4.0404301 0.48874623 0
3.4277909 11.355283 -0.6070264 0
3.4366243 11.347298 0.78614849 0
11.505915 2.3601263 1.801469 0
3.4269137 11.347889 0.85845059 0
11.163513 -4.0450788 -0.58855522 0
-2.9705329 11.520606 0.10434987 0
-2.9690366 11.517543 -0.30667275 0
11.160276 -4.0432763 0.84758198 0
-2.9679666 11.515352 0.51494813 0
3.4366577 11.347407 1.0621539 0
-2.9704957 11.52053 -0.71955311 0
3.4336331 11.337421 1.3379728 0
3.4282012 11.358742 1.2267311 0
-2.9634054 11.555538 -0.048172414 0
11.161736 -4.0440893 1.2077773 0
3.430269 11.326313 1.6138225 0
-2.9752827 11.530329 0.92681849 0
-2.967114 11.57 0.22974265 0
-2.9655807 11.564021 0.50824094 0
-2.9645855 11.560141 0.78615069 0
3.4280751 11.357678 1.5965612 0
-2.9722037 11.524026 1.3392936 0
11.164322 -4.0455289 1.5704554 0
-2.9649961 11.561741 1.0640062 0
3.4330926 11.335636 1.8920248 0
3.4254284 11.335367 1.9661123 0
11.152178 -4.0387664 1.9337945 0
-2.9690881 11.577697 1.3429313 0
-2.9735904 11.526865 1.7550545 0
-2.9624491 11.551809 1.6202075 0
11.828697 2.2682314 -0.1999678 0
11.832674 2.2687755 0.13987875 0
11.830557 2.2684855 -0.54129487 0
11.834175 2.268981 0.47954774 0
11.829868 2.2683916 0.8194297 0
-11.757271 2.7570617 0.06415613 0
-2.9628122 11.553226 1.8997748 0
-11.760592 2.7477751 0.22355431 0
-11.770996 2.7502062 -0.059255838 0
-11.756956 2.757021 0.55523837 0
-11.762491 2.7577381 -0.42780656 0
11.829741 2.268374 1.1606228 0
-11.761409 2.7479661 0.78615481 0
-11.750956 2.7562437 1.046597 0
11.908155 2.246824 0.22164828 0
-11.792582 2.7552493 0.50424302 0
-2.9019752 11.770229 0.10093875 0
11.903755 2.2459939 0.50415897 0
11.898122 2.2449307 -0.62929845 0
11.909823 2.2471387 -0.34547162 0
11.918726 2.2488184 -0.06212306 0
-2.9063292 11.779476 -0.31762868 0
-11.775139 2.751174 1.0676513 0
-2.9048996 11.776441 0.51858109 0
11.831776 2.2686527 1.5041664 0
-2.9035902 11.77366 -0.7369895 0
11.922615 2.249552 0.78615636 0
-11.771533 2.7503316 1.3492805 0
-2.9057684 11.778285 0.93695974 0
11.475842 -4.0463138 0.12569469 0
