# .PCD v0.7 - Point Cloud Data file format
VERSION 0.7
FIELDS x y z intensity
SIZE 4 4 4 4
TYPE F F F F
COUNT 1 1 1 1
WIDTH 1448
HEIGHT 1
VIEWPOINT 0 0 0 1 0 0 0
POINTS 1448
DATA ascii
4.6423807 6.673182 1.519742 0
4.2243299 7.1081753 0.16464573 0
4.3916173 -6.8256187 1.5895032 0
7.0562096 4.2926469 0.43451548 0
6.592721 4.6956558 1.700943 0
4.6915169 6.6275244 1.5733981 0
6.7156181 -4.5227909 1.6896871 0
-4.0209794 7.1866794 0.77111012 0
4.1168699 -7.1306133 0.78604507 0
4.006299 -7.2235708 0.45583722 0
6.8662024 -4.3863215 1.4331276 0
-4.1103983 -7.097877 1.0800676 0
4.2243676 7.1105227 0.19647495 0
6.9418039 -4.3469524 1.1675856 0
7.0663977 4.3036304 -0.065835953 0
3.9286075 -7.2790971 0.20754784 0
6.8850927 4.4206557 1.2340103 0
4.29175 7.0212822 0.87169749 0
4.8653913 6.4368682 1.8366085 0
-4.0239997 7.2066016 0.59390199 0
4.3231277 7.0172191 0.74190414 0
4.5071464 6.8159037 1.3084283 0
7.0317059 4.3192148 0.61868691 0
4.8228621 6.4998212 1.7322137 0
4.2220783 7.1035776 -0.48586369 0
4.2234955 7.1048651 0.45469469 0
6.8609133 -4.4027691 1.4382312 0
4.1035895 -7.1144447 1.0347688 0
6.9329982 4.3522296 1.2337596 0
7.0694604 -4.3069324 -0.066071987 0
6.2314267 5.0758047 1.9843432 0
4.775701 6.5369639 1.730662 0
6.3003907 4.9929924 1.977495 0
7.0197287 4.3108745 0.82424068 0
7.0690727 -4.3065143 0.18455441 0
6.9471607 4.350307 1.1678802 0
6.5155087 4.7620964 1.8539013 0
4.682797 -6.5448537 1.9505333 0
7.0702429 4.3077765 0.18452437 0
6.5649877 -4.6958742 1.8522649 0
6.8142233 4.4818912 1.4392076 0
7.0680442 4.3054056 -0.31742525 0
4.5782008 -6.6478114 1.8576046 0
4.1233912 -7.0988193 1.100996 0
-4.0334668 7.223556 0.40064621 0
5.0400534 6.2843065 1.9298103 0
4.4793286 -6.745379 1.747988 0
3.9747403 -7.2510247 -0.49429005 0
4.3156252 7.0029244 0.97753596 0
6.9587064 4.337327 1.1836624 0
4.5726762 6.7379484 1.5261105 0
4.2190018 7.0942459 -0.71497142 0
4.9862504 6.3320217 1.9189328 0
6.4186802 4.8973622 1.8590525 0
7.0607457 4.2975368 -0.56911111 0
6.7911177 -4.4540496 1.6442952 0
7.040628 -4.325428 0.61925673 0
3.8946233 -7.3142023 -0.035543978 0
6.6649351 4.6219764 1.6984164 0
7.0712824 -4.308897 -0.31784183 0
4.6162162 -6.6094313 1.9192541 0
-4.0219955 7.2030125 0.78604549 0
6.4708724 4.832973 1.8576522 0
4.0048113 -7.2168627 0.74810809 0
6.8230786 4.4784079 1.4411786 0
4.3421049 -6.8902144 1.5375769 0
-4.0333867 7.1991315 -0.77348173 0
7.027781 -4.3164816 0.82509911 0
4.1030192 -7.1066232 1.1683083 0
4.3672466 6.9597192 1.0943905 0
7.0633907 -4.3003888 -0.56958866 0
4.2211213 7.0954437 0.74452865 0
4.1481037 7.1775503 -0.032371163 0
6.4421248 4.8520694 1.9196858 0
4.4887528 6.8366661 1.3580379 0
-4.1146369 -7.0267582 1.5583634 0
4.1405387 7.1534495 0.65044737 0
6.375083 4.9196482 1.9735388 0
4.1472363 7.1747875 -0.26109451 0
4.9739828 6.3450012 1.9359897 0
4.2229166 7.1061201 0.64940846 0
3.9335589 -7.2882714 0.40024361 0
3.9741077 -7.2487879 0.65274298 0
3.9724388 -7.2428837 -0.72605717 0
6.7466865 -4.4992423 1.7340416 0
4.3072734 6.9893723 1.168493 0
4.4357696 6.8823147 1.3141679 0
4.1227155 7.1951914 0.16359143 0
4.9047713 6.4009042 1.9409754 0
6.5083218 -4.7538791 1.9608939 0
6.7799592 4.5214319 1.5469384 0
4.4519715 -6.7806454 1.7343028 0
4.2755489 -6.9378934 1.5469584 0
3.9010463 -7.3062792 0.45686388 0
4.7091079 6.6039867 1.7384037 0
6.5752187 4.7046409 1.8558751 0
3.8964243 -7.32094 0.19459045 0
6.881639 4.4039507 1.436839 0
4.6150093 -6.6092172 1.9590751 0
4.3203325 7.0067635 1.0302675 0
6.7055807 4.5976543 1.6492341 0
7.0148411 4.3074708 1.0310925 0
3.8932207 -7.3089552 -0.49849457 0
4.2046566 -7.0301156 1.3201745 0
4.5411363 -6.6612225 1.9642687 0
4.4075651 -6.8076987 1.7554408 0
6.6190224 4.693893 1.7346407 0
6.6253672 -4.6389308 1.8547807 0
4.14994 7.1834016 0.19566189 0
7.0758572 -4.3138289 0.43501976 0
7.064292 -4.3013606 0.68507373 0
4.121314 7.1892748 0.45570245 0
6.939126 -4.3452754 1.3586535 0
6.7937431 -4.4578161 1.6897657 0
4.1477146 7.176312 0.42360842 0
3.9321771 -7.2857108 0.59331709 0
6.4469233 4.8432117 1.9689598 0
4.4840422 -6.730876 1.8676882 0
4.1456347 7.1804347 0.39981344 0
4.2673788 -6.950768 1.5438311 0
4.4146023 6.9069209 1.3122172 0
6.8493581 -4.3942213 1.6467539 0
3.9711652 -7.238379 0.88142377 0
4.3608594 6.9420609 1.3189278 0
4.6380191 6.6629896 1.7443243 0
6.8811641 4.4177494 1.4431275 0
6.5774961 -4.6761174 1.95638 0
4.0677013 7.2348218 -0.2640807 0
6.9265575 -4.3476062 1.4422286 0
4.6034184 6.7281528 1.5842965 0
6.5906997 -4.6738076 1.9217606 0
-4.0209079 7.2010646 0.97804171 0
3.8987393 -7.3296003 -0.26803893 0
7.0232816 -4.3133488 1.0323554 0
4.1427851 7.1754994 0.59316707 0
4.1521788 7.1917696 0.20525801 0
3.9058795 -7.3296471 0.16211961 0
6.679955 -4.5769386 1.8555546 0
-4.022522 7.1882277 1.0801615 0
7.0704126 4.3079591 0.68554538 0
4.7813482 6.5378671 1.849671 0
4.1210294 -7.0912943 1.3291734 0
6.740334 4.552702 1.6972294 0
4.5054092 6.8115001 1.5344881 0
4.2220411 7.1034665 0.87655914 0
6.7631922 4.5373092 1.6509565 0
6.931613 4.3512354 1.4434383 0
4.0710273 7.2459731 -0.03461805 0
4.1018295 -7.1070147 1.3263487 0
4.8410778 6.4695826 1.9500191 0
3.8946218 -7.3141975 0.65494376 0
3.8986287 -7.3291869 0.42495859 0
7.1254954 4.2807326 -0.0022000074 0
7.1233597 4.2792902 -0.21075511 0
4.819416 6.4951768 1.9229109 0
4.295516 7.0321774 1.0998418 0
6.9511423 4.3527999 1.3596455 0
4.1508741 7.1863785 -0.49286401 0
4.0712881 7.2468476 0.19500466 0
4.2195826 7.0893383 1.0350447 0
7.1275358 -4.2821102 -0.0023290217 0
6.813633 4.471209 1.6508309 0
4.0506234 -7.1775565 1.107626 0
4.068018 7.2358823 -0.49569917 0
3.8162293 -7.3889427 -0.038302779 0
4.0693641 7.240396 0.42427784 0
6.6475115 -4.6002645 1.9526706 0
4.5067024 6.8068604 1.5917343 0
4.1469936 7.174015 -0.72350526 0
4.7711391 6.5270948 1.9559772 0
3.8162336 -7.3889589 0.19379306 0
4.6586671 6.6702113 1.737165 0
3.933738 -7.2886033 0.78604645 0
3.8949263 -7.3153362 -0.73386681 0
4.3023701 -6.9395652 1.6031568 0
7.1137466 4.2727981 0.620857 0
6.7708945 4.5153866 1.7374439 0
4.3382173 -6.8794656 1.7654276 0
4.4884214 6.8361616 1.5496147 0
4.4749832 -6.7343631 1.975826 0
4.1220431 7.1923532 0.74822938 0
7.1259632 -4.2810483 -0.42111009 0
7.132575 -4.2855134 -0.21172798 0
6.5261374 4.7774296 1.9677114 0
6.6450534 4.6553168 1.8616437 0
7.0651183 -4.3022513 0.93644887 0
6.8690023 -4.3895192 1.6892741 0
6.7862005 -4.4503021 1.8569952 0
7.0653977 4.3025522 0.93648475 0
7.1275439 -4.2821155 0.41362536 0
4.6898723 6.6225352 1.8595763 0
7.1345048 4.2868166 0.20562807 0
4.3094425 6.9928918 1.360526 0
3.892719 -7.3070788 0.8853994 0
3.9032898 -7.3171244 0.7521311 0
7.1295753 4.2834878 0.41366813 0
4.0068579 -7.2260895 1.0423979 0
-4.019907 7.1992722 1.1701508 0
6.8694286 4.4090686 1.6525176 0
6.9617715 4.3407278 1.4377822 0
6.9626117 -4.34166 1.4379809 0
6.9370842 -4.343997 1.5502677 0
3.7985377 -7.412343 0.16107033 0
4.1093979 -7.117671 1.360852 0
7.1386881 -4.2896414 0.20553996 0
3.8160934 -7.3884025 -0.50555652 0
4.1469865 7.1827765 0.78604674 0
3.9713404 -7.2389989 1.1121557 0
6.5952373 4.698885 1.9630437 0
6.7459908 -4.5238061 1.8605233 0
3.8177104 -7.3948197 0.42571247 0
4.0225806 7.296977 0.16225035 0
6.9400859 4.3458767 1.5505984 0
6.8167872 4.4849048 1.6966786 0
-4.0280542 7.0175695 1.9989271 0
4.2766137 -6.939621 1.7389803 0
3.8198373 -7.4032578 -0.27254152 0
6.7205591 -4.5287704 1.9505208 0
4.4510832 -6.7792931 1.9260083 0
3.7331152 -7.4503756 0.19309616 0
6.8762531 4.3978 1.6914135 0
4.1983614 -7.0316377 1.5544333 0
4.2015271 -7.0176992 1.6111209 0
3.9323599 -7.2860498 0.97878486 0
4.2641211 -6.9413419 1.7731922 0
7.1269226 -4.2816958 0.62169027 0
4.1484356 7.1786094 0.88084495 0
6.6171823 4.6925879 1.926325 0
4.3206635 7.0079994 1.3211259 0
3.815249 -7.3850532 0.65749252 0
6.9223337 -4.3445745 1.6536196 0
7.1279759 -4.2824078 -0.63338429 0
4.1182671 -7.0824933 1.559075 0
6.7045026 4.5967827 1.8640125 0
7.1284523 4.2827291 -0.63347524 0
6.7511406 -4.502213 1.9266745 0
4.223074 7.1065974 1.1056541 0
-4.126133 -7.1132226 1.3935586 0
4.6473203 6.653965 1.9268912 0
4.0484414 -7.1702399 1.3377656 0
4.0221391 7.2949867 0.45711407 0
7.0296664 4.3177943 1.2431127 0
4.2943563 7.0288229 1.3283716 0
6.6647258 4.6217155 1.9590204 0
6.7861581 -4.4488997 1.9461206 0
4.5782437 6.7514925 1.7578285 0
7.1437111 4.2930341 -0.42373967 0
6.8483939 -4.393508 1.861184 0
4.0739684 7.2558355 0.65455741 0
7.1735959 4.2674055 -0.068303287 0
4.4134016 6.9026747 1.602186 0
4.3963785 -6.8424602 1.8837646 0
7.0341983 -4.3209505 1.2439874 0
3.7516992 -7.455409 0.20233476 0
4.1458874 7.1808724 0.97907084 0
3.8000851 -7.4204044 0.45847297 0
4.5987053 6.7131381 1.8709137 0
4.4423871 6.8998218 1.5460902 0
7.1757579 4.269671 0.18374664 0
4.0736094 7.254631 -0.73231351 0
4.4086695 -6.8106198 1.9884859 0
3.9970107 7.3298001 -0.2703355 0
3.9982567 7.3342085 -0.03799507 0
6.7617464 4.5361738 1.8658904 0
7.0627227 4.2996683 1.188868 0
3.81743 -7.3937058 -0.7427963 0
7.1745934 4.2684507 -0.32145876 0
3.7356539 -7.4610939 0.42649615 0
3.9945953 7.3212566 -0.50325143 0
3.9025369 -7.3134851 1.047962 0
7.1280451 4.2824545 0.83064979 0
3.9680483 7.3521748 0.20174241 0
-4.1094604 -7.2754784 -0.15827972 0
4.7137585 6.6144385 1.9709408 0
6.7661881 4.512248 1.9292173 0
3.930774 -7.2831116 1.171577 0
6.9386644 4.356297 1.6582606 0
3.9992478 7.3377132 0.19383225 0
-4.026576 7.1922965 1.391697 0
4.0211039 7.2903185 0.75205123 0
6.9505582 -4.3282862 1.6909045 0
3.7385983 -7.4735246 -0.27682573 0
3.8155804 -7.3863678 0.89041764 0
3.7398119 -7.4786472 -0.041918665 0
7.1700082 4.2636471 -0.57527429 0
4.0050745 -7.21805 1.336982 0
-4.0316572 7.1576767 1.5647807 0
4.2972307 -6.9203386 1.8932511 0
4.4894481 6.8377252 1.7422873 0
7.1852336 -4.2795982 -0.069186658 0
-4.0229025 7.2046371 1.363155 0
7.165349 4.2587662 0.6870774 0
3.9709187 -7.2375069 1.3445722 0
4.368187 6.9623179 1.5524812 0
-4.1136894 -7.0255599 1.920156 0
7.1848984 -4.2792463 0.18351556 0
6.8172998 4.4740033 1.8674725 0
7.1799121 -4.2740231 0.43575841 0
-4.1166792 -7.2827229 0.15365501 0
4.6427355 6.6740122 1.9779595 0
6.9360719 -4.3433628 1.7427465 0
3.9992139 7.337594 0.4255656 0
6.859859 -4.3790774 1.9450349 0
4.5099874 6.8231063 1.7672782 0
7.1372619 -4.2886786 0.83162278 0
4.2212 7.100915 1.3354836 0
6.9556293 4.3339124 1.6923769 0
4.1114993 -7.1213112 1.5538199 0
3.8965225 -7.3213072 1.1194644 0
7.0231137 4.3132315 1.4536964 0
4.1942868 -7.0192785 1.7850827 0
7.0738912 -4.3117094 1.1908846 0
6.9384251 4.3448362 1.7430711 0
4.1033239 -7.1133251 1.6221405 0
4.1258078 7.2082481 1.0432026 0
7.1866508 -4.2810822 -0.32298648 0
4.4337559 6.8769865 1.7725419 0
4.1449218 7.1792006 1.1722145 0
3.800334 -7.4217014 0.75645107 0
4.1506267 7.1855888 1.1121624 0
4.0752831 7.2602434 0.88580161 0
3.9965591 7.3282037 0.65706807 0
6.7451701 4.5585546 1.9594407 0
3.7547436 -7.4614592 0.5916006 0
7.0275083 -4.3162918 1.4547373 0
3.9179449 7.4014478 -0.040276855 0
3.9168105 7.3972039 -0.27416116 0
3.9732671 7.3618445 0.39635143 0
7.1859665 4.2803655 0.43591148 0
4.3383889 -6.8799405 1.9993752 0
-4.1145272 -7.2805634 -0.47216547 0
3.7609754 -7.4738426 0.39629674 0
3.9684033 7.3528323 0.59154367 0
4.2249432 7.1106081 1.3303666 0
3.6937265 -7.519331 0.15956582 0
3.6551814 -7.5405345 -0.044088691 0
4.5073471 6.8090224 1.8835393 0
3.7404599 -7.4813828 -0.51444167 0
4.32025 7.0104289 1.5549161 0
3.7385793 -7.4734445 0.66103852 0
7.1791425 -4.2732162 0.6881243 0
3.6924171 -7.51194 0.45970318 0
3.921948 7.4073353 0.16073486 0
-4.1201549 -7.286211 0.46583098 0
7.1306524 4.284215 1.0412049 0
4.3192182 7.0025945 1.6134902 0
3.9177115 7.4005747 0.4262484 0
4.0490389 -7.1722441 1.5718195 0
3.7525287 -7.4570575 0.78604829 0
4.1196413 7.1822128 1.3358372 0
4.5745878 6.7425985 1.9878436 0
3.9207416 7.4119105 0.19294681 0
-4.1178823 -7.105176 1.7059848 0
6.9255195 -4.3468614 1.8705246 0
4.2961221 7.0339322 1.5609348 0
7.1895847 -4.2841563 -0.5787555 0
7.2310066 4.2480016 -0.2170819 0
3.9670012 7.3502345 0.78604841 0
4.2833672 -6.9505796 1.9336697 0
3.656523 -7.5465832 -0.28145087 0
3.9995911 7.3389282 -0.74186528 0
4.4815741 6.8257327 1.9338191 0
-4.1092105 -7.2752275 0.7776612 0
4.0729232 7.2523313 1.1172068 0
6.8841639 4.4199686 1.8731059 0
3.6577349 -7.5520473 0.19166043 0
7.1389322 -4.2898064 1.0424316 0
7.063272 -4.3002605 1.4439 0
3.7396641 -7.4780235 -0.75284469 0
3.9968848 7.3293548 0.88969505 0
-4.0216346 7.3684964 -0.15853208 0
7.2398586 4.2494569 -0.19532335 0
3.9198458 7.4085588 -0.51115376 0
7.2405133 4.2542253 -0.0064503253 0
4.0013418 -7.2012196 1.6320994 0
7.2391801 4.2533526 0.20443001 0
7.244277 4.2520504 0.0017539859 0
-4.1146998 -7.2807364 -0.78762662 0
6.8228197 4.4919968 1.9591833 0
3.9367702 -7.2942214 1.3657492 0
7.2271719 4.2420106 0.59096813 0
3.8958707 -7.3188686 1.353846 0
4.5030317 6.8054714 1.9963082 0
7.2409396 -4.2545042 -0.21812057 0
7.2412443 -4.254704 0.20438695 0
4.1491203 7.1807895 1.3440299 0
-4.0250058 7.2084031 1.5569046 0
7.234437 4.250247 -0.43010706 0
4.1227093 -7.0966468 1.7970247 0
7.2459879 -4.2530546 0.0015688539 0
3.9184554 7.4033575 0.6597805 0
-4.0182924 7.3650451 0.46556669 0
7.1760225 -4.269948 0.94103986 0
3.6579759 -7.5531335 0.42775899 0
6.9381094 4.3558984 1.8746772 0
7.2371149 4.2520003 0.41492695 0
4.219821 7.0967307 1.5677559 0
3.8002419 -7.4212217 1.0554559 0
3.9195371 7.3956795 0.75633514 0
3.9170532 7.3981123 -0.7474376 0
7.1239748 4.2797055 1.2520196 0
3.6571021 -7.5491943 -0.52026963 0
4.3660803 6.9564943 1.7843386 0
4.1108079 -7.1201138 1.7471718 0
-4.0179853 7.1836748 1.7034811 0
3.7389011 -7.4748025 0.89634061 0
4.0243416 7.3049173 1.0494621 0
7.2415624 4.2504573 -0.39423454 0
-4.03021 7.3773522 0.15353429 0
3.9249549 7.4218731 0.45892429 0
7.1798215 4.2739282 0.94152123 0
4.2040071 -7.0275397 1.9088662 0
7.0733628 4.3111396 1.4462501 0
3.8205662 -7.4061494 1.1272037 0
7.2449188 4.2524271 0.39471769 0
7.0241666 4.3139648 1.6687366 0
7.2511601 -4.2611952 -0.0071172416 0
4.1496286 7.1873527 1.3664815 0
3.755311 -7.4625864 0.98052597 0
6.8892341 4.4126239 1.9553293 0
4.0686264 7.2379227 1.3489519 0
3.9688656 7.3536892 0.98057628 0
3.8407712 7.4863172 -0.043565512 0
3.9737506 -7.2475238 1.58179 0
3.6572952 -7.5500646 0.66400027 0
6.9495368 -4.3271523 1.9498234 0
4.4151239 6.9087672 1.8971586 0
7.2563796 4.2591543 0.1975919 0
7.2360744 4.2513194 -0.64491504 0
3.8412569 7.488245 0.19200581 0
7.2580318 -4.2601237 0.19745797 0
3.9068966 -7.3345633 1.3484447 0
3.7353778 -7.459928 1.1311345 0
7.2800617 4.2284827 -0.070719302 0
4.3208752 7.0114436 1.7488453 0
7.2596068 -4.2610483 -0.1979996 0
4.2226887 7.1016617 1.6248351 0
3.6952732 -7.5280628 0.76093352 0
-4.0308456 7.3780088 -0.47311723 0
7.1376605 -4.2889481 1.2546352 0
3.9305723 -7.2827377 1.5587459 0
7.2509046 -4.2610283 -0.43252379 0
7.2517476 -4.26158 0.41523221 0
6.9473267 -4.3504105 1.9382552 0
3.8418682 7.4906702 -0.28042829 0
3.5721703 -7.6161985 0.42852154 0
3.8168802 7.5079031 0.15937187 0
3.9971828 7.3304095 1.1238194 0
7.2439094 4.2564487 0.62606311 0
-4.1092105 -7.2752271 1.0909064 0
4.0475092 -7.1671143 1.807501 0
3.7511382 -7.4542947 1.1747819 0
7.1703482 4.2640033 1.1947348 0
-4.0251074 7.149147 1.9269726 0
7.246294 -4.2580099 0.62621248 0
-4.0193524 7.1982784 1.7498393 0
3.5754328 -7.6319737 -0.04789871 0
-4.0199938 7.3668017 0.77780849 0
3.5745544 -7.627727 -0.28688985 0
3.5752387 -7.6310353 0.19061401 0
3.8406234 7.4857316 -0.51788068 0
7.2461758 -4.2579327 -0.64682734 0
7.2623506 -4.2626591 0.39377668 0
-4.0208802 7.3677173 -0.78717327 0
7.2529421 -4.2571363 0.59027338 0
4.1457644 7.1700983 1.5769228 0
6.9604216 4.3392296 1.9535769 0
3.842504 7.4931927 0.42748326 0
3.5717106 -7.6356945 0.19648993 0
7.1737738 -4.2675924 1.195344 0
3.9207268 7.4118552 0.89488798 0
7.0425801 -4.3267875 1.6739168 0
3.7976103 -7.4075108 1.354605 0
4.1034021 -7.1136541 1.9204834 0
4.2959442 7.0334172 1.7956831 0
7.243032 4.2513194 0.78604978 0
3.5875669 -7.633563 0.15791015 0
6.9583168 4.3572927 1.9400783 0
3.8943532 -7.3131919 1.5900058 0
3.7885361 7.5286117 0.39344236 0
7.2924256 -4.2410698 0.18268864 0
4.3170328 6.9944186 1.9081563 0
7.2928352 4.2414865 0.18267845 0
7.2942209 -4.242897 -0.071778208 0
7.2404523 4.2541852 0.8374697 0
7.2702594 -4.2673006 -0.39891076 0
7.2807651 4.2291985 -0.5816958 0
3.8200219 -7.4039903 1.3638761 0
3.5749977 -7.6298695 -0.52784312 0
3.6614881 -7.5689678 -0.764117 0
3.8416026 7.4896164 0.66314387 0
3.5739629 -7.6405096 0.3931177 0
-4.1125731 -7.3652282 0.39309219 0
7.0648665 4.30198 1.7021242 0
7.2455139 -4.2574992 0.83799899 0
7.2951775 -4.2438712 -0.32725275 0
7.2955298 4.2442298 -0.32729673 0
3.9937537 7.3182793 1.3578668 0
3.9730258 7.3613977 1.1757236 0
3.7962248 7.543891 0.19541001 0
3.8406885 7.4859891 -0.7578696 0
3.6595812 -7.5603704 0.90208644 0
4.1109471 -7.1203547 1.9417481 0
4.0243216 7.3048258 1.3478956 0
3.5742161 -7.6260905 0.66698384 0
3.9175806 7.400085 1.1294768 0
7.0677238 -4.3050599 1.7029408 0
7.13236 -4.285368 1.4681463 0
3.7888668 7.5292692 0.58983564 0
4.3143768 7.0008988 1.9419798 0
3.8198504 7.5233765 0.46030316 0
4.152576 7.1924577 1.5614929 0
-4.1189256 -7.376605 0.19516903 0
7.2955728 4.2442737 0.43678975 0
4.2199354 7.0970783 1.803995 0
3.5883274 -7.6382456 0.46157268 0
3.9269929 -7.2761059 1.7526194 0
3.9228153 7.4115286 1.0567211 0
3.5724871 -7.6373544 0.58977157 0
3.7609119 7.5677276 0.1909911 0
-4.1111646 -7.3627052 0.58974504 0
7.13627 4.2880087 1.4690635 0
3.7617288 7.5711761 -0.046902061 0
7.2854896 4.2340078 0.69052523 0
3.6955643 -7.529705 1.0631276 0
7.2423816 4.2509379 0.98154163 0
7.0232334 4.3133149 1.886714 0
3.7608328 7.5673943 -0.28526551 0
3.9033422 -7.317379 1.6468365 0
4.1362553 7.1641898 1.7531229 0
7.2615595 -4.2621942 0.78605038 0
7.235148 -4.2507129 1.0496114 0
4.1239667 7.2004738 1.6363255 0
3.7601871 7.5646682 0.42835405 0
3.7523403 -7.4566832 1.3698639 0
3.5859537 -7.6236315 0.76491261 0
4.0705643 7.2444205 1.5864598 0
3.8175182 7.5112267 0.76122856 0
7.1656322 4.2590628 1.4502579 0
3.5750241 -7.6299977 -0.77069914 0
3.8408628 7.4866815 0.89946842 0
3.5707631 -7.6336689 0.78605056 0
7.2416878 4.2549939 1.0505712 0
3.9677887 7.3516936 1.3703187 0
3.7606707 7.5667086 -0.52520823 0
3.4914486 -7.7124901 -0.051176399 0
-4.1098428 -7.3603382 0.78605068 0
3.6574218 -7.5506358 1.1398509 0
4.0025382 -7.2066154 1.933714 0
3.9749031 -7.2516007 1.821557 0
7.3414569 4.2160196 0.20328242 0
7.1709638 -4.2646484 1.451481 0
7.0339327 -4.3207655 1.8902076 0
7.2552071 -4.2584658 0.98188829 0
7.3024759 -4.2513013 -0.58549994 0
3.4919181 -7.7149363 0.18946214 0
3.7819698 7.515563 0.98190826 0
3.7105055 7.614049 0.15788677 0
7.3437982 4.2175045 -0.22393119 0
7.3103118 -4.2592783 0.43715692 0
-4.0265002 7.3735213 1.0919707 0
3.7921453 7.5357842 0.78605086 0
3.7400074 -7.4794736 1.3724808 0
4.1445794 7.1663237 1.8138847 0
7.3001819 -4.2489657 0.69162405 0
3.5751064 -7.6303949 0.90652823 0
3.4910939 -7.7106414 0.42986155 0
7.3497872 4.2213044 -0.010329425 0
3.7609732 7.5679865 0.6661303 0
3.7590756 7.5599756 -0.76618373 0
3.8184485 -7.3977475 1.6022063 0
4.2215309 7.0970688 1.9228039 0
3.4763608 -7.7323904 0.15650293 0
3.9202213 7.3989868 1.3565222 0
3.4937897 -7.7246861 -0.29382747 0
7.3475451 4.2198815 0.41624346 0
3.491662 -7.7136025 -0.53592521 0
7.2341371 4.250051 1.2639483 0
7.3551335 -4.2246962 -0.22510564 0
-4.0267124 7.2114596 1.9470389 0
3.9181237 7.4021168 1.3674941 0
7.1295037 4.2834392 1.6848071 0
3.7111831 7.6178751 0.46158105 0
7.3495007 4.2211223 -0.4400453 0
3.4906318 -7.7082348 0.67034936 0
3.572607 -7.6376104 0.9823367 0
3.679081 7.6482868 0.18993974 0
7.3594298 -4.2274218 0.2029109 0
3.6787333 7.6467199 -0.29042464 0
3.6774366 7.6408734 0.42932773 0
3.4764206 -7.7327948 0.46290421 0
3.6762609 7.6355729 -0.53113329 0
3.7515135 -7.45504 1.5652854 0
-4.1229868 -7.289053 1.4084681 0
-4.1123676 -7.3648605 0.98241425 0
7.3441281 4.2177143 0.6293782 0
3.8964119 -7.3208942 1.8321775 0
7.3551502 -4.2247066 -0.44086683 0
4.0225744 7.2969484 1.6476297 0
7.3649387 -4.2309165 -0.011269778 0
-4.112011 -7.262332 1.5809815 0
7.2962294 4.2449417 0.94678408 0
7.2549853 -4.2583356 1.177927 0
3.9270575 -7.2762256 1.9482781 0
7.136436 -4.2881207 1.6867383 0
3.6809714 7.6568103 -0.05033052 0
7.0614805 4.2983294 1.962352 0
3.8422804 7.4923062 1.1381133 0
3.7604923 7.5659566 0.90453625 0
7.2574301 4.2597709 1.1780592 0
3.996218 7.3269963 1.5978433 0
3.8185215 7.5164537 1.0639397 0
7.2458858 -4.2577424 1.2661724 0
3.7999973 -7.4199467 1.659568 0
3.676146 7.6350541 0.66856265 0
3.9682069 7.3524685 1.5661466 0
3.4049041 -7.7889314 -0.054292977 0
7.3017731 -4.250586 0.94747627 0
3.6962984 -7.5338497 1.3676028 0
7.2370353 4.2477999 1.3729415 0
-4.1060762 -7.3535929 1.1783893 0
3.5879579 -7.635972 1.0707181 0
7.2805629 4.2289925 1.2010603 0
-4.1003981 -7.4498382 0.1517731 0
4.1399088 7.1705174 1.9498917 0
7.0687251 -4.3061399 1.9648116 0
3.7382083 -7.4718781 1.6125004 0
3.5925922 7.7149377 -0.05233869 0
3.4058032 -7.7940068 -0.29839474 0
3.7118087 7.6214066 0.76590168 0
3.4909465 -7.7098742 0.91190797 0
3.4934659 -7.7229996 -0.78261936 0
7.3616219 -4.2288122 0.63046396 0
7.359838 4.2276807 -0.65936375 0
7.40272 4.2036929 -0.07433641 0
-4.0232282 7.370142 1.4069877 0
3.9022274 -7.3119888 1.9496562 0
3.5773156 -7.6410761 1.1486483 0
4.0727568 7.2517724 1.8278964 0
7.3490701 4.2208495 0.84387743 0
3.3850191 -7.8130698 0.19054276 0
3.5937123 7.7203536 0.18902197 0
3.4076359 -7.8043518 0.18819425 0
7.4051099 4.2060571 0.18173322 0
7.3770981 -4.2386308 0.41685438 0
3.4773176 -7.7388649 0.77000797 0
3.6612644 -7.5679593 1.3833535 0
7.1742897 4.2681327 1.7119086 0
3.8398523 7.4826713 1.3767277 0
3.6101303 7.7178288 0.1901508 0
4.12467 7.2034435 1.9384193 0
3.7602243 7.5648246 1.1443706 0
7.2560287 -4.2589483 1.3744824 0
3.3614762 -7.8212671 0.46415445 0
3.7956324 7.5427136 1.1793957 0
3.6798015 7.6515355 -0.77751231 0
7.239809 4.2537642 1.4821371 0
7.1247644 4.2802386 1.9041381 0
3.6091597 7.715754 0.38925043 0
3.4066277 -7.7986598 -0.54430103 0
3.3866501 -7.816834 0.3892138 0
3.578907 -7.6510787 1.1795288 0
3.8189116 -7.3995848 1.845265 0
3.9184999 7.4035249 1.6081811 0
7.340003 4.215097 1.0580643 0
3.4082456 -7.8077946 0.43126681 0
-4.1194081 -7.469471 -0.1658982 0
-4.1105356 -7.2765574 1.7242485 0
7.3011355 -4.2499371 1.2046652 0
7.4133615 4.2142205 -0.33271348 0
7.4099107 -4.2108064 0.43778467 0
3.966538 7.3493767 1.7623552 0
7.4189839 -4.2197828 -0.075535387 0
-4.1140628 -7.4639502 0.46796981 0
3.6023247 7.7244234 0.46309662 0
7.3787665 -4.2396894 -0.66291416 0
7.4187403 -4.219542 0.18139854 0
7.3661323 -4.2316737 0.84564525 0
3.5970788 7.7366285 -0.29661912 0
7.4055738 4.2065158 -0.59053987 0
3.6044817 7.7377043 0.15606853 0
3.5959854 7.7313428 0.43057394 0
3.7550704 -7.4621086 1.7626132 0
3.4068332 -7.7998199 0.67427254 0
7.1338849 -4.2863979 1.907087 0
3.9945595 7.3211303 1.8382382 0
3.7110569 7.6171618 1.0708983 0
7.4184246 -4.2192297 -0.33333665 0
7.3494186 -4.2210703 1.0594335 0
3.6803408 7.6539674 0.91047412 0
3.4056573 -7.7931833 -0.79102719 0
3.9213638 7.4045115 1.6609291 0
3.5721457 -7.6366248 1.3756857 0
3.5869827 -7.6299658 1.3769914 0
7.4165316 4.2173567 0.43794727 0
3.365402 -7.8507471 0.15472646 0
-4.1106091 -7.361711 1.3757422 0
3.6044185 7.7056184 0.78605288 0
-4.1192145 -7.4692712 -0.48423129 0
7.1908293 -4.28546 1.7165648 0
7.256125 -4.2644458 1.4859277 0
-4.0127091 7.5456061 0.15162075 0
7.4135404 -4.2143974 -0.59191585 0
3.6581254 -7.5538073 1.6245439 0
3.5769153 -7.6391401 1.3915778 0
3.5971208 7.7368317 -0.5412544 0
3.6138992 7.7258863 0.58749914 0
7.2483153 4.2544208 1.5707872 0
3.6950536 -7.526824 1.6731986 0
3.3195152 -7.8832307 -0.058416337 0
7.4123878 4.2132573 0.69444913 0
3.4776263 -7.7409525 1.078315 0
3.7590623 7.5599194 1.3855746 0
3.821589 7.5324345 1.3702236 0
3.3197334 -7.8845739 0.18707052 0
3.5968933 7.7357326 0.67285156 0
3.3877206 -7.8193054 0.7860533 0
-4.1140471 -7.4639339 0.78489435 0
3.3944969 -7.8349462 0.58728194 0
-4.0208359 7.5542431 -0.16554496 0
7.417037 -4.2178569 0.69479191 0
7.2574563 -4.2597861 1.5717771 0
3.7981784 7.5477734 1.3769987 0
3.6782651 7.6446085 1.1516697 0
3.4947872 -7.7298822 1.1573607 0
4.0236216 7.3016701 1.9526396 0
7.4574127 4.1848626 -0.44892633 0
7.4661789 4.1902499 -0.23175025 0
7.294662 4.2433462 1.4626861 0
3.7396951 -7.4781542 1.8585433 0
3.4076688 -7.8045382 0.9187305 0
7.3450847 4.2183208 1.2759964 0
3.8001838 -7.4209185 1.9665434 0
3.5966802 7.7347021 -0.78763378 0
7.4030724 4.2040415 0.95084727 0
7.4709344 4.193172 -0.014934003 0
3.6039343 7.734333 0.77079022 0
3.3641827 -7.8415909 0.77451468 0
-4.0262084 7.3951778 1.5876342 0
7.4702425 4.1927471 0.20159078 0
3.5093677 7.8058434 0.43155363 0
7.2410593 4.2545829 1.7025648 0
-4.1117101 -7.26194 1.9494957 0
3.3213212 -7.8943501 -0.30581278 0
-4.0215282 7.5549788 0.46800393 0
3.8414874 7.4891591 1.6205305 0
-4.0228548 7.3697567 1.7250478 0
3.3209748 -7.8922172 0.43246466 0
3.9646292 7.34584 1.9593998 0
7.2454414 -4.2574515 1.703774 0
3.4909279 7.8309717 0.15476352 0
7.3539653 -4.2239552 1.2776623 0
3.3188972 -7.879427 0.67761445 0
3.5125246 7.8222904 0.18755406 0
7.4794383 -4.1983976 -0.015457094 0
7.3040581 -4.2529116 1.4648098 0
3.5965302 7.7339768 0.91578227 0
3.4745672 -7.7202511 1.3858309 0
7.47929 -4.1983066 0.20140541 0
7.4727139 4.1942658 0.41785988 0
3.491178 -7.7110801 1.4000971 0
3.3883049 -7.8206539 0.9844628 0
-4.1120811 -7.3643465 1.573586 0
3.3210135 -7.8924551 -0.55389583 0
7.4137168 -4.214572 0.95215726 0
3.5128636 7.8240566 -0.30268002 0
7.480793 -4.1992307 -0.23325092 0
3.6122041 7.7222619 0.98451489 0
3.5089526 7.8036809 0.67544281 0
3.9197721 7.4082832 1.8530611 0
3.7567923 -7.4655304 1.9608136 0
-4.0303721 7.5643773 -0.48488337 0
7.4764218 -4.1965442 -0.45166582 0
3.5113015 7.815918 -0.54871732 0
3.7940876 7.5396438 1.5741314 0
3.5850117 -7.6178312 1.6844923 0
3.5757027 -7.6332774 1.6362914 0
3.8168526 7.5077591 1.67373 0
7.4802203 -4.1988788 0.41801369 0
7.1813455 4.2755246 1.9774818 0
3.5153317 7.8369141 -0.057816237 0
3.712024 7.6226206 1.3786721 0
7.2493362 4.2550201 1.7687143 0
3.4069276 -7.8003535 1.1639122 0
7.514627 4.1657968 -0.077148467 0
3.4919758 7.8380642 0.46476164 0
3.677772 7.6423855 1.3954279 0
3.6072454 7.7116618 1.1826464 0
3.5805244 -7.6545367 1.5750756 0
7.4599724 4.1864357 0.85051292 0
3.2303662 -7.9676304 -0.062071383 0
-4.1173887 -7.4673853 1.1034017 0
7.4785476 -4.1978502 0.63480234 0
7.4788771 4.1980529 0.63482261 0
7.2852163 4.2337303 1.722104 0
3.6584673 -7.5553493 1.8717231 0
7.4044518 4.2054062 1.2097461 0
3.4220934 7.8859639 -0.30656517 0
3.2507825 -7.9631929 0.15302894 0
3.231066 -7.9723654 0.18579337 0
3.7604959 7.5659719 1.6312965 0
3.3199434 -7.8858681 0.92446101 0
7.4817953 4.1998463 -0.67341346 0
7.1949387 -4.2897649 1.9820267 0
3.6001215 7.6964316 1.3803053 0
3.3900177 -7.8246069 1.1832885 0
3.4909797 7.8313217 0.77490604 0
3.5969019 7.7357745 1.1605217 0
7.5194988 4.1704807 0.43866271 0
3.2313633 -7.9743781 -0.31152564 0
3.5097971 7.8080812 0.9206568 0
-4.0332189 7.5674028 0.78589201 0
3.6056609 7.7449636 1.0803785 0
3.5124938 7.8221297 -0.79860675 0
7.3539853 4.2239676 1.4976547 0
3.3656328 -7.8524799 1.0866148 0
7.2685971 -4.266325 1.7713258 0
3.2506106 -7.9617443 0.46634561 0
7.4139099 -4.2147627 1.2113796 0
7.4881339 -4.2037416 -0.67459178 0
3.4251781 7.903378 -0.060384244 0
3.4210663 7.8962712 0.38518348 0
7.5263691 4.1770854 -0.33752334 0
3.5721209 -7.6365714 1.7716256 0
3.6949568 -7.5262775 1.9829715 0
3.9232011 7.413394 1.9697845 0
7.5310059 4.1815434 0.18045871 0
7.2968383 -4.2455621 1.7253277 0
7.5339613 -4.1843848 -0.078554064 0
7.236815 4.2476707 1.9655695 0
7.2426405 4.2556181 1.9267868 0
7.479094 -4.1981864 0.85247648 0
-4.1126976 -7.3654513 1.772228 0
3.2322135 -7.9801316 0.43374369 0
3.7925408 7.5365701 1.7723603 0
3.4261639 7.9089427 0.18634018 0
3.4912305 -7.7113533 1.6479647 0
7.5301147 -4.1806865 0.43891972 0
3.2316508 -7.9763241 -0.56239063 0
3.427861 7.9119544 0.18300885 0
7.5236921 4.1745119 -0.59817928 0
7.5390048 -4.1892338 0.18026502 0
7.3664331 -4.2318649 1.5005201 0
-4.0198994 7.5532475 1.1029463 0
7.2502255 -4.2605839 1.929216 0
7.5364285 -4.1867566 -0.33874416 0
3.3186574 -7.8779492 1.1714914 0
3.249805 -7.9549541 0.77966064 0
3.4070325 -7.8009453 1.4116757 0
7.5652409 4.1533709 0.18246549 0
3.6018028 7.7212114 1.3883417 0
3.4266691 7.9117951 0.43311042 0
3.5943122 7.7232533 1.405182 0
-4.1093488 -7.4590821 1.4221888 0
3.7101836 7.6122332 1.6869366 0
3.84484 7.5024619 1.8697588 0
3.5755029 -7.6323113 1.8850832 0
7.528132 4.1787801 0.69753027 0
7.5722561 4.1572223 -0.02049911 0
3.4248247 7.9013824 0.67967808 0
3.5098133 7.8081651 1.167148 0
7.5664215 4.1540189 0.3839632 0
7.4764118 -4.196538 1.0710645 0
7.535893 -4.1862421 -0.6002574 0
7.256875 -4.2594452 1.9688398 0
3.3774292 7.941061 0.46626392 0
7.5764375 4.1527848 0.20036551 0
3.427299 7.9153509 -0.5588519 0
3.4286208 7.9137087 0.5852862 0
3.2333467 -7.9878001 0.68253994 0
3.3793235 7.9552851 0.15288565 0
7.5727568 4.1505947 0.41895977 0
7.3477283 -4.2199979 1.7189395 0
7.5791836 4.1544185 -0.23858833 0
7.4824882 4.2002721 1.0719401 0
3.3940051 -7.8338108 1.3831472 0
7.5847964 4.1577582 -0.019079983 0
7.5800333 4.1614923 -0.22482264 0
3.3647017 -7.8454876 1.3991824 0
7.5806785 -4.1618462 -0.22490859 0
-4.0301495 7.400465 1.9592 0
3.7599909 7.5638394 1.8788726 0
3.4773908 -7.7393599 1.7009013 0
7.3544917 4.2242889 1.7207886 0
3.210603 -8.0348549 0.18091416 0
7.5221248 4.1730051 0.95640826 0
7.414784 4.2156281 1.4730054 0
7.5781622 4.1604648 -0.42912829 0
3.8174391 7.5108147 1.9843364 0
7.4149637 -4.215806 1.4730455 0
-4.1092353 -7.3592501 1.9708369 0
3.4272838 7.9106221 0.7860561 0
3.4931612 7.8460855 1.0876129 0
7.5888844 -4.1601901 -0.23957592 0
3.2492723 -7.9504633 1.0938487 0
3.6821358 7.6620603 1.6460974 0
7.5914011 -4.1616879 0.20006159 0
7.5898762 -4.1668959 0.18050075 0
3.2324471 -7.9817119 0.93157423 0
3.2109196 -8.0356474 0.38295311 0
3.2069221 -8.0256433 0.58486462 0
3.335701 7.9828835 0.43406799 0
3.3375325 7.9941583 -0.064305991 0
7.4705682 4.1929469 1.2907264 0
7.5469828 -4.1969032 0.6989007 0
3.5871234 -7.6308327 1.9995002 0
7.2920432 4.2406802 1.9894809 0
3.3375077 7.9940071 -0.31464589 0
3.338141 7.9979043 0.1850664 0
7.5822659 4.1627178 0.58469838 0
3.7951033 7.5416622 1.9727961 0
7.5822864 4.1562648 0.63832694 0
7.600749 -4.1728654 -0.023533106 0
3.424823 7.904943 0.9866038 0
3.3900576 -7.8246994 1.5822618 0
7.5944695 4.1635132 -0.46197045 0
7.5937324 -4.169013 -0.43162453 0
3.5787747 -7.6507959 1.9733191 0
3.6139166 7.7259235 1.5824363 0
3.407337 -7.8026648 1.6624601 0
7.5836673 4.1570864 -0.683716 0
7.6070557 -4.1710019 -0.020437419 0
3.3203235 -7.888206 1.4230031 0
7.599194 -4.1663246 0.41949672 0
7.5745764 4.1584964 0.7860567 0
7.299139 -4.2479043 1.9918187 0
3.4276118 7.9171157 0.92873305 0
7.5984716 -4.1658945 -0.46254224 0
3.3370237 7.9910274 -0.56615758 0
7.5913277 -4.1676927 0.58445799 0
3.3795745 7.9571705 0.78062534 0
7.6019125 -4.1735039 0.38207829 0
3.3361213 7.9854708 0.68324476 0
7.5758147 4.1524143 0.85764539 0
7.5423708 -4.1924696 0.9588654 0
7.4871283 -4.2031236 1.2938049 0
3.2091844 -8.0313053 0.78605688 0
7.5960202 -4.1644359 0.63916445 0
7.4596171 4.1862173 1.5111847 0
7.5220308 4.1729145 1.2172964 0
3.6773458 7.6404638 1.8918507 0
7.5845079 -4.1639485 0.786057 0
3.5965192 7.7339234 1.6562691 0
-4.031559 7.565639 1.425058 0
3.6022072 7.7237005 1.7014802 0
7.4048314 4.2057815 1.7346673 0
3.2322326 -7.9802599 1.1822791 0
7.6405106 4.1388264 0.17958423 0
7.6416693 4.1399093 -0.081047863 0
-4.0172749 7.7058969 0.17828399 0
7.570416 4.1562123 0.98710072 0
3.4249902 7.902317 1.1766267 0
3.4917605 7.836606 1.4002726 0
3.5132456 7.8260469 1.4186385 0
-4.111135 -7.460927 1.7451479 0
7.6009378 -4.1673617 -0.68689895 0
-4.1176496 -7.6571326 -0.17294896 0
-4.1088748 -7.6478071 -0.49490577 0
-4.1184635 -7.6579976 0.14892702 0
7.644897 -4.1429248 0.17947945 0
3.3773015 7.9401016 1.0943484 0
3.4955525 -7.733871 1.904469 0
3.6075406 7.7122927 1.7814007 0
7.6431837 4.141324 -0.34278923 0
3.3864317 -7.81633 1.7818751 0
7.5944614 -4.1635084 0.85954368 0
7.4143753 -4.2152233 1.7372768 0
3.3643761 -7.8430414 1.7146738 0
7.6437283 4.1418328 0.43989265 0
7.4754214 -4.1959295 1.5147904 0
7.3581924 4.2266364 1.9486055 0
3.4293523 7.9153967 1.1879005 0
-4.1185498 -7.6580896 0.4704752 0
7.3635616 -4.2300429 1.9503094 0
7.588594 -4.1661921 0.98758399 0
3.3375533 7.994287 0.93407077 0
3.2126689 -8.0400257 0.98761004 0
3.250567 -7.9613781 1.4115504 0
7.5425768 -4.1926675 1.2207959 0
-4.1077204 -7.6465802 0.79158962 0
3.3198705 -7.8854189 1.6754735 0
3.4231477 7.8919168 1.4263085 0
-4.022397 7.7157216 0.5835017 0
7.6433949 4.1415215 0.70057166 0
-4.0282359 7.726922 0.3801375 0
7.6654406 -4.162117 -0.082752734 0
-4.1191735 -7.5199137 1.6067357 0
-4.0169854 7.7423673 -0.17263636 0
3.4071207 -7.8014431 1.9161055 0
7.5778284 -4.1602817 1.1887572 0
3.5106802 7.8126812 1.6680202 0
3.2318728 -7.9778256 1.4348831 0
7.6635351 -4.160337 -0.34522587 0
7.6527691 4.150279 -0.60763615 0
7.5935788 4.1629834 1.0812433 0
7.6606383 -4.1576309 0.44029659 0
-4.0115924 7.7364683 -0.49480492 0
-4.019341 7.7098594 0.78605819 0
7.6564121 -4.1536822 -0.60824829 0
-4.0262122 7.6493587 1.2382026 0
7.583591 4.1634455 1.1890637 0
7.5984998 -4.1659112 1.0819464 0
3.5951991 7.727541 1.907534 0
7.4646449 4.1893072 1.7380824 0
7.703979 4.1227736 -0.02354449 0
-4.0191908 7.7447791 0.47040522 0
3.2126405 -8.0399551 1.1893783 0
7.5314097 -4.181932 1.4825034 0
7.6399889 4.1383395 0.96180677 0
7.7059627 4.1239157 0.19866884 0
3.6076357 7.7124958 1.9828957 0
3.4314442 7.9202247 1.3897364 0
-4.0282335 7.5621047 1.7476737 0
-4.0319457 7.758729 0.14866489 0
7.6616683 -4.1585927 0.70188224 0
7.7082453 4.1252298 -0.24704337 0
3.3383071 7.998929 1.1865405 0
7.5739207 4.1581364 1.3903425 0
-4.0197577 7.7106595 0.98848236 0
7.6933002 4.1166253 -0.69546485 0
7.5401936 4.1903763 1.4844333 0
7.7080917 4.1251416 -0.47163081 0
-4.015326 7.7405519 0.79190749 0
3.492764 7.8433971 1.717558 0
3.4237823 7.9025402 1.5901849 0
7.5940437 4.16326 1.3050284 0
7.7132082 4.1280875 0.42087713 0
7.7190204 -4.131434 -0.24813122 0
3.3915422 -7.828126 1.9852422 0
3.2300525 -7.9655066 1.6881818 0
7.4867539 -4.2028937 1.7440734 0
-4.0125604 7.6968536 1.1904006 0
7.7245383 -4.1346111 -0.024787754 0
7.7177525 -4.1307039 0.42096865 0
-4.1166029 -7.6560202 1.1152924 0
3.3187237 -7.8783569 1.9301963 0
3.2108464 -8.0354643 1.3912482 0
3.3804445 7.9637032 1.4138256 0
7.4524436 4.1818089 1.9636654 0
7.6027613 -4.1684465 1.306635 0
7.7286601 -4.1369839 0.19821167 0
7.6378589 4.1363492 1.2245308 0
3.4243884 7.8989201 1.6814615 0
3.2505944 -7.9616079 1.7310551 0
7.7261081 -4.1355147 -0.47418344 0
7.5960956 -4.1703105 1.3921125 0
7.7599912 4.1032 0.17847134 0
7.5249419 4.1757135 1.7473012 0
7.7231178 4.1337929 0.64410186 0
7.6714187 -4.1677022 0.96556979 0
7.7234783 -4.1340003 0.64412367 0
7.585073 4.1579227 1.5292066 0
7.7204757 -4.1322718 -0.70043147 0
3.3381202 7.9977779 1.4405849 0
7.7090178 -4.1256747 0.86652142 0
3.1588063 -8.1993885 -0.073577821 0
7.7668519 -4.1094279 -0.08479172 0
3.5125966 7.8226657 1.925343 0
-4.0236382 7.6457996 1.6122526 0
7.7650008 4.1077476 -0.34863913 0
-4.1144829 -7.5136204 1.981552 0
3.1595912 -8.2052822 0.18194076 0
7.581696 -4.162405 1.5936224 0
3.2743044 8.1614704 0.14954373 0
7.6553602 -4.1526999 1.2274716 0
7.765172 4.107903 0.44105083 0
-4.0196962 7.7453313 1.1152556 0
7.4777751 -4.1973758 1.9716321 0
7.5378447 -4.188118 1.7507803 0
7.777266 4.1188817 -0.085528851 0
7.5994172 -4.1664572 1.532451 0
3.1599746 -8.2081604 -0.33091176 0
7.5878019 4.1657572 1.594273 0
7.7222915 4.1333175 0.86786145 0
7.7777033 -4.1192784 0.17805381 0
3.2132154 -8.0413933 1.5945992 0
3.4283748 7.9131403 1.7942121 0
-4.115582 -7.6549354 1.4401128 0
-4.0220742 7.7151031 1.3945611 0
7.7705898 4.1128211 -0.61516231 0
7.778966 -4.1204247 0.44137597 0
7.8104792 4.0779152 -0.25278687 0
3.1613514 -8.2185001 0.43769202 0
7.6406178 4.138927 1.4903728 0
3.159143 -8.2019167 0.69311154 0
7.7862525 -4.1270394 -0.35115021 0
7.7163291 4.1298842 1.0921979 0
3.1606176 -8.2129879 -0.58995438 0
7.7709813 4.1131768 0.70448405 0
3.23122 -7.9734082 1.9487858 0
3.2667415 8.1753473 0.58111638 0
7.7215776 -4.1329064 1.0929415 0
3.2724557 8.1896477 0.37523252 0
7.5764179 4.1595073 1.7964607 0
7.6492119 -4.1469555 1.4922355 0
3.1578217 -8.1919937 0.9488849 0
7.8280387 4.0876932 -0.028296232 0
3.381577 7.9722061 1.735312 0
7.7804375 -4.1217604 0.70515335 0
3.1515601 -8.2506161 0.14823438 0
7.7858438 -4.126668 -0.61769181 0
3.2777376 8.1904116 0.47036499 0
-4.0166826 7.7047606 1.5973358 0
7.8306742 4.0891604 0.19707349 0
3.3392444 8.0046988 1.6989628 0
3.2665536 8.2125273 -0.075045198 0
3.2793682 8.2069473 0.16795844 0
7.5957861 4.1642966 1.7610029 0
7.7665739 4.1091757 0.968225 0
3.4237225 7.9024024 1.9966229 0
7.7089677 4.1256456 1.3177282 0
3.4274433 7.9161644 1.9430033 0
3.2763252 8.1785049 0.79145861 0
7.6014919 -4.1676917 1.7625357 0
7.5943246 -4.1693382 1.7988495 0
3.1520064 -8.2549019 0.47124085 0
-4.0228019 7.7487283 1.4408092 0
3.2672653 8.2173443 -0.33301318 0
7.773972 -4.1158915 0.96909916 0
7.8332434 4.0905914 -0.48291236 0
3.2654381 8.204978 -0.59077054 0
3.2162375 -8.0489559 1.7993401 0
7.8268476 4.0870299 0.64762485 0
3.2687054 8.227088 0.1812989 0
7.8460689 -4.0977335 -0.25635076 0
7.8493433 -4.0995569 -0.029574215 0
7.8407145 4.0947514 0.42252713 0
3.2733676 8.1919298 0.78606182 0
7.8273196 4.0872927 -0.71164668 0
3.268146 8.2233028 0.43803436 0
7.5667005 4.1541724 1.9994134 0
7.6376143 4.1361208 1.7579041 0
7.8548565 -4.1026268 0.19659035 0
3.2664995 8.2121611 0.69442582 0
7.7288799 -4.1371107 1.3213674 0
3.1513853 -8.2489376 0.79440236 0
7.5768313 4.153019 1.9881947 0
-4.1165943 -7.8513103 0.14647523 0
3.1593323 -8.2033367 1.208159 0
7.8564887 -4.1035357 0.42284226 0
-4.0284305 7.6524258 1.991207 0
-4.1223421 -7.8575964 -0.18081895 0
7.8551803 -4.102807 -0.48599535 0
3.2646952 8.1999502 0.95087492 0
7.5878844 -4.1595955 1.9916409 0
7.881403 4.0668139 0.44208449 0
-4.1134419 -7.7699642 1.2512248 0
7.7726502 4.1146913 1.2349041 0
7.8907385 4.075048 0.17709826 0
7.7120976 4.1274481 1.5475237 0
-4.1214952 -7.8566704 0.47305158 0
3.2761817 8.1989727 0.99159956 0
7.6565132 -4.1537766 1.7629313 0
7.8520231 -4.1010489 -0.71612513 0
-4.0084877 7.9311314 0.14670359 0
7.8402042 4.0944676 0.8751635 0
-4.0241976 7.7191758 1.8037149 0
-4.1307869 -7.6710944 1.7713765 0
7.8609776 -4.1060352 0.64967215 0
7.8948665 4.0786886 -0.35541099 0
7.7822204 -4.1233792 1.236491 0
7.9013176 4.0843787 -0.089168012 0
-4.112102 -7.8877931 0.16394347 0
7.9171185 4.0554519 0.16394037 0
-4.1290846 -7.8649712 -0.51003832 0
3.2716103 8.1875324 1.1967859 0
-4.0157208 7.7409835 1.7670984 0
3.2784448 8.1963711 1.1155137 0
7.9040017 -4.0867462 -0.089355588 0
7.8877883 4.0724459 -0.62258047 0
3.3405874 8.0129671 1.9616808 0
7.756249 4.0998025 1.4996471 0
7.9063768 -4.088841 0.17673428 0
7.7292237 -4.1373086 1.5513651 0
7.9019332 -4.0849214 0.44256231 0
7.8342552 4.0911546 1.1024547 0
7.9054179 -4.0879951 -0.35664189 0
-4.1208963 -7.8560152 0.8001067 0
7.9269981 4.0605125 -0.25511765 0
7.8595462 -4.1052384 0.87710035 0
-4.1162872 -7.8958211 0.37127012 0
-4.0176902 7.9414902 0.4729383 0
3.1527486 -8.2620277 1.1200054 0
-4.0262403 7.9511142 -0.18108776 0
7.8956285 4.079361 0.70817053 0
7.9349389 4.06458 -0.046354949 0
3.1599789 -8.2081928 1.4694319 0
-4.0207715 7.9449587 -0.50889248 0
7.7072902 4.12468 1.7785997 0
7.8193388 4.0828485 1.3295999 0
3.2758932 8.1748638 1.437947 0
7.9516959 4.0494275 -0.033017606 0
7.9358473 4.0650454 0.37070987 0
7.9510417 4.0490751 0.19556661 0
7.7112398 -4.1269541 1.779652 0
7.9339681 4.0640826 -0.46695721 0
7.9065666 -4.0890083 0.70893484 0
7.9128203 -4.0945239 -0.62667871 0
3.2681561 8.2233715 1.2124536 0
7.8888378 4.0733714 0.97410774 0
7.7802181 -4.1215615 1.5047743 0
7.9565325 4.0520306 -0.26290751 0
7.8574553 -4.104074 1.105715 0
7.9346733 4.0644436 0.57853031 0
-4.1213431 -7.905519 0.57852513 0
7.9484568 -4.0715041 -0.2579354 0
7.9524407 4.0498281 -0.49334627 0
-4.1115494 -7.7673473 1.6306713 0
7.9554253 -4.0750737 -0.048503458 0
3.2758932 8.1982508 1.4035134 0
-4.1192884 -7.8542566 1.1281682 0
7.9460559 4.0463915 0.65208197 0
7.8975396 -4.0810461 0.97512281 0
-4.023942 7.9485278 0.80030644 0
7.9573069 -4.0760379 0.36958739 0
-4.1208739 -7.9046192 0.78606451 0
3.1514902 -8.2499456 1.4454186 0
7.9727407 -4.0607548 0.19513646 0
7.9649906 -4.0799732 0.16018015 0
7.9380503 4.0661736 0.78606462 0
7.9748001 -4.0618634 -0.26472253 0
7.9715323 4.0601044 0.42423961 0
7.9223418 4.0581274 0.99327606 0
-4.0211296 7.9065542 1.2562715 0
7.9449592 4.0458012 0.88115764 0
7.8529778 -4.1015806 1.3356982 0
3.2711639 8.1864147 1.6091852 0
7.9741688 -4.0615234 -0.49637604 0
7.9660845 -4.080534 -0.47202826 0
7.7660522 4.1087022 1.7726588 0
7.9619179 -4.0783997 0.57781857 0
7.9885802 -4.0692801 -0.035212845 0
7.9625888 4.0552902 -0.72800505 0
3.1601861 -8.2097483 1.733308 0
7.98139 -4.0654101 0.42443502 0
-4.1198993 -7.90275 0.99353141 0
7.8917012 4.0758967 1.2426212 0
7.8283849 4.0878859 1.5634041 0
7.9530935 -4.0738792 0.7860651 0
7.9728537 -4.0608158 0.65367687 0
3.2682354 8.2239084 1.4742819 0
-4.0179391 7.9417701 1.1279193 0
8.0123701 4.0360909 -0.091900021 0
7.7741165 -4.1160226 1.7747759 0
-4.1144924 -7.8490114 1.4574934 0
8.0196085 4.0422931 0.17577572 0
8.0168915 4.0399642 -0.36124516 0
7.9040623 -4.0867996 1.2446449 0
7.926084 4.0600443 1.200909 0
3.2764721 8.1797447 1.7658468 0
-4.1171103 -7.8973994 1.2009424 0
8.0181351 4.0410304 0.44359043 0
8.0297203 -4.0509572 -0.093097419 0
7.988194 -4.0690722 -0.7326107 0
7.8514023 -4.1007032 1.5685252 0
7.9588957 4.0533028 1.1136464 0
8.0295734 -4.0508308 -0.36270624 0
3.2715001 8.1872568 1.8167551 0
3.0965044 -8.4446745 0.36707461 0
8.0195608 4.0422521 -0.63235891 0
7.9859033 -4.0678396 0.88522577 0
8.0312996 -4.0523109 0.44389305 0
7.9679146 -4.0814714 0.99446952 0
8.0391884 -4.0590701 0.17532566 0
3.0846186 -8.4625177 -0.086774528 0
8.0188751 -4.0416646 0.71174896 0
7.91892 4.0563745 1.4083316 0
3.1010296 -8.457015 0.15609139 0
3.0951424 -8.440959 0.57677609 0
3.1516795 -8.2517633 1.7749956 0
8.0211315 4.0435982 0.71190476 0
7.8930793 4.0771122 1.5134012 0
-4.013711 7.9370108 1.4572351 0
3.2675998 8.2196074 1.7381101 0
3.1595249 -8.2047844 1.9993827 0
7.954339 -4.0745173 1.2023888 0
-4.0210938 7.9065037 1.6381429 0
-4.1191192 -7.9012537 1.4092491 0
7.9772716 -4.0631933 1.1162088 0
7.8372407 4.0928173 1.801082 0
8.0356016 -4.0559969 -0.6349526 0
3.0853703 -8.468854 0.44186217 0
8.0820942 4.0117388 0.19384934 0
7.9036713 -4.0864549 1.5156381 0
3.0844476 -8.4610748 -0.61900955 0
3.0868545 -8.4813643 0.17731795 0
7.8432021 -4.096137 1.8026572 0
3.0869298 -8.4820004 -0.35388434 0
8.0202227 4.042819 0.98102903 0
8.0906029 4.0161624 -0.27180827 0
3.1006987 -8.4561119 0.78606713 0
-4.1151385 -7.8497181 1.7904336 0
7.9671392 4.0577397 1.3482236 0
8.0868616 4.0142174 -0.50589073 0
3.0856805 -8.471468 0.70664692 0
8.0926132 4.0172076 0.42575762 0
8.1043262 4.0232978 -0.039447844 0
7.9549084 -4.0748091 1.4111607 0
8.106204 -4.0242739 0.19337502 0
-4.1220121 -8.0589199 -0.18864506 0
7.9775858 -4.0633626 1.3501027 0
3.0983951 -8.4498301 0.99557775 0
8.0892048 4.0154362 0.65795469 0
-4.1185765 -7.9002128 1.6179223 0
7.9297972 4.0619459 1.6179489 0
3.1952221 8.4728394 -0.088035285 0
8.037838 -4.0579133 0.98305857 0
3.1946518 8.4685574 -0.35389465 0
8.1048565 -4.0235739 0.42599851 0
8.1108084 -4.0266681 -0.27380073 0
8.1146126 -4.0286465 -0.040055454 0
8.0880966 4.0148592 -0.74258161 0
-4.1281047 -8.0657778 0.14355984 0
-4.119596 -8.0562 -0.52191055 0
7.8947415 4.0785785 1.787396 0
8.0170774 4.0401244 1.2513573 0
-4.1222062 -8.0591383 0.47568518 0
-4.0096045 7.9323883 1.7889695 0
3.0936 -8.4367533 1.2046669 0
7.9566875 4.052114 1.5819405 0
8.1009655 -4.0215502 0.65864933 0
8.1400394 3.9996622 -0.095780075 0
-4.1101532 -8.0455713 0.8071093 0
8.1413403 4.0007453 0.17462027 0
7.9036827 -4.0864649 1.7897134 0
3.1978467 8.492547 0.17688227 0
8.1168795 -4.0298247 -0.51004487 0
3.1972861 8.4883385 0.44244364 0
3.0874562 -8.4864359 0.97367519 0
-4.0169325 8.1454611 -0.1884293 0
7.9555254 -4.0751252 1.6206487 0
-4.1137009 -7.8908601 1.8263544 0
8.147192 4.0056162 -0.36801583 0
8.034668 -4.0551972 1.2542018 0
3.1966593 8.4836311 -0.62347841 0
8.1002588 4.021183 0.89216048 0
-4.0112424 8.1388693 -0.52110678 0
8.1540394 -4.0113163 0.17433184 0
7.9773788 -4.0632515 1.5865082 0
7.9275546 4.0607972 1.8273262 0
8.1504068 4.0082922 0.44498569 0
8.1071873 -4.0247855 0.89284372 0
8.0850754 4.0132885 1.1250436 0
3.1970377 8.486474 0.70815617 0
8.1228943 -4.0329523 -0.7487936 0
3.0856433 -8.4711561 1.239656 0
8.1422834 4.0015306 0.71533316 0
8.1468468 4.0053291 -0.64137435 0
-4.0290456 8.1594963 0.14346822 0
3.0961668 -8.4437532 1.4150572 0
8.0157003 4.0389438 1.5240921 0
8.1306486 3.9918463 0.9855327 0
-4.0285597 8.1589327 0.47591883 0
-4.1147556 -8.0507517 1.1406729 0
3.1817322 8.5403385 0.14314991 0
3.1805356 8.5288496 0.47604847 0
8.1673698 -4.0224118 0.44537091 0
8.1764135 -4.0299387 -0.098260313 0
8.1601696 -4.0164185 -0.64350265 0
8.1738129 -4.0277739 -0.37104607 0
3.1970739 8.4867458 0.97490001 0
8.0313416 -4.0523462 1.5273545 0
-4.0222812 8.1516581 0.80825835 0
-4.1201892 -8.0477285 1.2713599 0
7.9716086 4.0601454 1.8246698 0
7.9613123 -4.0780892 1.8317612 0
8.1663342 -4.0215487 0.71697307 0
3.0942643 -8.4385643 1.6252692 0
8.1224136 -4.0327024 1.1302109 0
3.0513723 -8.6155796 0.14206217 0
8.0978155 4.0199127 1.3637167 0
8.2308941 3.9801373 0.19178727 0
8.2289715 3.9791718 -0.28111649 0
3.1815357 8.5384521 0.80965722 0
8.2231903 3.9762707 -0.51867777 0
7.9898467 -4.069962 1.8294516 0
3.08706 -8.4830961 1.5111897 0
-4.0165644 8.1450348 1.1412194 0
8.165658 -4.0209866 0.98951781 0
-4.1118779 -8.0475121 1.4753836 0
8.244483 3.9869571 -0.045122623 0
3.0520687 -8.6233454 0.47747394 0
8.1142731 -4.0284696 1.3666545 0
8.239542 3.9844775 0.42778164 0
8.1458282 4.0044818 1.2606118 0
3.1994057 8.5042553 1.2454331 0
8.0288401 -4.0502033 1.8034493 0
8.0292587 4.0505614 1.8035564 0
8.2376842 3.9835446 0.66412395 0
3.1809187 8.532527 1.1437989 0
8.2629433 -3.9962223 -0.046205103 0
8.2349415 3.9821684 -0.76093817 0
8.2604609 -3.994976 -0.284199 0
8.2252607 3.9773097 0.90015328 0
8.2559509 -3.9927125 0.42810208 0
8.2634439 -3.9964736 0.19115159 0
8.2783947 3.9691198 -0.10037109 0
3.0519962 -8.6225357 0.81338853 0
3.1592374 8.615757 0.35859132 0
3.0977335 -8.4480257 1.8379638 0
-4.0090604 8.2598877 0.35837257 0
8.2794724 3.969991 -0.37498701 0
8.2524281 -3.9909446 0.66498852 0
3.1637337 8.6280193 0.14335823 0
-4.1194816 -8.0467196 1.6591748 0
8.2629719 -3.9962368 -0.52414304 0
8.1088028 4.0256257 1.6056693 0
-4.0153193 8.1732445 1.2751778 0
8.1703796 -4.0249171 1.2645338 0
-4.0130987 8.1410189 1.4760313 0
3.0864358 -8.4778347 1.7832211 0
8.2835732 3.9733055 0.44639552 0
8.3052549 3.9577444 -0.072926283 0
-4.017292 8.2768469 0.14262491 0
8.3056364 3.9579258 0.14260995 0
8.2939186 -3.9816697 0.17277226 0
8.3008862 3.955662 0.35772997 0
8.2567968 -3.9931371 -0.76481116 0
8.3063869 3.9582834 -0.28957725 0
8.2911053 -3.9793956 0.44656461 0
8.2995682 -3.9862368 -0.10179803 0
8.298811 3.9856246 0.17266245 0
8.2819624 3.9720042 -0.65160614 0
3.199203 8.5027323 1.5164942 0
3.1656423 8.6332235 0.57201481 0
8.1251831 -4.034142 1.6092577 0
3.051585 -8.6179504 1.1501464 0
3.160928 8.620368 0.78607213 0
8.2338848 3.9816382 1.1395471 0
8.2863121 3.9755204 0.72030467 0
8.0935726 4.0177069 1.8449775 0
8.2628784 -3.9961891 0.90383559 0
8.2901344 -3.9786103 0.72056228 0
8.3109989 3.9604812 0.57175672 0
8.1605034 4.0166965 1.5393409 0
8.3154068 3.9625816 -0.50869691 0
-4.0205202 8.2834978 0.57172787 0
-4.1177826 -8.0541592 1.8147675 0
8.2972851 -3.9843905 -0.65402538 0
8.3110523 -3.9955208 -0.37853986 0
3.1588998 8.6148357 0.99967402 0
-4.1154966 -8.2596607 -0.19633514 0
8.3341455 -3.9715114 0.14040214 0
-4.017313 8.2768898 0.78607267 0
8.1043549 -4.023313 1.8477831 0
3.1820829 8.5437069 1.4816829 0
8.2230282 3.9761894 1.3782271 0
8.3386402 -3.9736533 -0.076378167 0
