# .PCD v0.7 - Point Cloud Data file format
VERSION 0.7
FIELDS x y z intensity
SIZE 4 4 4 4
TYPE F F F F
COUNT 1 1 1 1
WIDTH 1437
HEIGHT 1
VIEWPOINT 0 0 0 1 0 0 0
POINTS 1437
DATA ascii
3.8387766 3.4464874 1.7578032 0
4.1304402 3.435807 0.92227042 0
4.1982417 3.4482317 0.47757286 0
-3.7916334 3.5037034 1.7584957 0
4.1996489 3.449985 -0.54919851 0
4.0828295 3.4476302 1.148859 0
4.2494183 3.4381943 0.14054145 0
4.2002788 3.4507701 0.59022892 0
4.1922703 3.4407904 0.70183265 0
4.1294227 3.4345012 1.0368762 0
4.253459 3.443085 -0.20252824 0
4.2501545 3.4390852 -0.31793326 0
4.256259 3.4464729 -0.087934911 0
-4.0132198 3.5004623 1.283185 0
4.2577505 3.4482782 0.026165098 0
4.2508411 3.4399161 0.36607936 0
4.190217 3.4382319 0.81500709 0
4.0661888 3.4452004 1.283572 0
-3.8140268 3.4952273 1.8159664 0
4.2572985 3.4477313 0.2531437 0
4.2496543 3.4384801 0.47887802 0
-4.0749493 3.5005856 1.1406308 0
4.2967677 3.4337623 0.012831807 0
4.2605371 3.4516509 -0.43951195 0
4.1918459 3.4402616 0.93035352 0
4.1361637 3.4431517 1.1566105 0
4.2567635 3.4470832 -0.55825937 0
-4.011919 3.4993277 1.4083056 0
4.2551522 3.4451339 0.59287804 0
4.2981911 3.4349 0.27224308 0
4.3049994 3.4322371 0.25281599 0
4.3066225 3.4416378 0.14150125 0
4.31113 3.4394436 0.023756891 0
4.0709815 3.449261 1.4097261 0
4.2547874 3.4446924 0.7070514 0
-4.2428489 3.4915905 0.53000087 0
4.3144159 3.443306 0.13814755 0
-4.2367573 3.4865775 0.65823656 0
-4.0020895 3.4907541 1.5324374 0
4.3074851 3.435159 -0.44355816 0
4.0551629 3.4358582 1.5330644 0
4.2521696 3.4415245 0.82160765 0
4.3144345 3.4433279 0.36683822 0
4.3106642 3.4448678 0.40004584 0
4.3165054 3.4457626 -0.32721448 0
4.322731 3.4530807 -0.093800604 0
4.3096037 3.437649 0.48086321 0
4.3211913 3.4512708 -0.21041435 0
4.1852255 3.4320123 1.1624237 0
4.3075633 3.4423897 0.52910364 0
4.2036066 3.4549167 1.0511971 0
-4.0702944 3.4986916 1.3807532 0
-4.2397556 3.4890449 0.78596675 0
4.3110886 3.4393947 0.5956375 0
4.314147 3.4429901 -0.56729788 0
4.2568693 3.4472117 0.93938243 0
4.3140535 3.4475763 0.65741187 0
4.3654323 3.4304521 -0.33117557 0
4.3727589 3.4388194 0.1363277 0
4.2479906 3.4364672 1.0543647 0
4.3141155 3.4429533 0.71156806 0
4.3060665 3.4411936 0.78596735 0
4.3740091 3.4402471 -0.21455854 0
-4.006156 3.4943011 1.6598068 0
4.3735123 3.4396794 0.25193626 0
4.3779368 3.4447324 0.019587576 0
-4.3297439 3.4960639 -0.30293119 0
-4.3356185 3.4983568 0.18736248 0
4.3747635 3.441108 0.36749694 0
4.0635161 3.4429357 1.6614529 0
4.3838181 3.4514489 -0.098549783 0
-4.3458061 3.5023332 -0.058184206 0
4.3152132 3.4442437 0.82835311 0
4.3741612 3.4404206 0.48318386 0
-4.2572761 3.503463 0.91431624 0
4.3780603 3.4448738 -0.45590234 0
4.3725548 3.438586 -0.57663047 0
4.312036 3.4459641 0.9144634 0
-4.344687 3.5018964 0.43220747 0
4.2541852 3.4439635 1.1765749 0
-4.0617809 3.4952273 1.6223836 0
4.051733 3.4329524 1.7863671 0
4.379178 3.4461498 0.59997725 0
4.3200622 3.4499433 0.94768143 0
4.4337811 3.435806 -0.10118833 0
4.4345942 3.4367085 0.13425806 0
-4.3505669 3.5041914 -0.55283201 0
-4.2591629 3.5050161 1.0429183 0
4.4334059 3.43539 0.25129786 0
4.4312506 3.4329982 -0.34004277 0
4.37818 3.4450099 0.71689892 0
-4.0129638 3.5002391 1.7890925 0
4.2940693 3.4316061 1.1704044 0
4.3147521 3.4481347 1.0432608 0
4.4428673 3.4458873 0.015739113 0
4.441968 3.4448893 -0.22225708 0
4.373384 3.439533 0.8338083 0
-4.2492867 3.4968884 1.1708479 0
4.4377851 3.4402485 0.36821634 0
-4.3542962 3.5056472 0.67806184 0
4.4371767 3.4395733 -0.46405202 0
4.3684301 3.433876 0.95146024 0
4.3259163 3.4568255 1.0695254 0
4.3104935 3.4386954 1.1851871 0
4.4265456 3.427778 0.71926135 0
4.4366961 3.4390402 0.60285449 0
4.444808 3.448041 0.48594147 0
4.4392171 3.4418373 -0.58914524 0
-4.336791 3.4988146 0.92299306 0
-4.253634 3.5004659 1.3003187 0
4.3035393 3.4391739 1.3003333 0
4.5012879 3.4381583 0.01278916 0
4.5003433 3.43714 0.25048688 0
4.3753614 3.4417915 1.0743566 0
4.5029907 3.4399941 -0.22820687 0
4.4943218 3.4306483 -0.471434 0
4.507411 3.4447601 0.1313715 0
4.5096712 3.4471965 -0.10850838 0
4.5051727 3.442347 0.36903709 0
4.5075254 3.4448829 -0.35175252 0
4.4438014 3.446924 0.8420909 0
4.3007555 3.4369495 1.4295597 0
-4.0760379 3.5010285 1.872346 0
-4.3343544 3.4978635 1.1700952 0
4.4342365 3.4363112 0.96030974 0
4.5002217 3.4370091 0.60647368 0
4.378089 3.444906 1.1982813 0
4.5124588 3.450202 0.48841751 0
-4.2636714 3.5087259 1.4314783 0
4.5098448 3.4473834 -0.60301232 0
4.5603514 3.4347582 -0.016523182 0
4.4353409 3.4375365 1.082819 0
-4.2462187 3.4943635 1.5589552 0
4.5690136 3.4387655 0.12938787 0
4.5696301 3.4394116 -0.1128574 0
4.566834 3.4396405 0.2521587 0
4.57059 3.4424698 0.11706495 0
-4.5046082 3.4951825 0.52037585 0
4.5658617 3.4354637 0.36967555 0
4.574254 3.4442561 0.0080258846 0
4.512085 3.4497991 0.7283442 0
4.5717139 3.4415946 -0.23585069 0
4.5711131 3.4409652 -0.35966831 0
4.576231 3.4463265 0.24946235 0
4.3124294 3.4462786 1.5619271 0
4.5097346 3.4472649 0.84917754 0
4.5638299 3.4333351 -0.61018384 0
-4.3303108 3.4962852 1.4188687 0
4.5777998 3.4479001 0.38515964 0
4.4396915 3.4423635 1.208735 0
4.5730839 3.4443481 0.51928055 0
4.576179 3.4462721 0.49055603 0
-4.5153933 3.5035508 0.65292877 0
4.5055771 3.4427829 0.97059578 0
4.578619 3.4488287 -0.48782778 0
-4.2480488 3.4958696 1.6903193 0
4.5696211 3.44174 0.65279996 0
4.5781307 3.4483166 0.61186528 0
-4.5115681 3.5005827 0.78597301 0
4.5006199 3.4374385 1.0929723 0
4.570868 3.4407082 0.73247755 0
4.3100429 3.4443712 1.6929028 0
4.6213875 3.4218154 0.49128339 0
4.5682464 3.4407046 0.78597325 0
4.6368876 3.4375954 0.12695743 0
4.6407142 3.4414914 -0.11911249 0
4.6343679 3.4350305 -0.36739284 0
4.6388655 3.4396091 0.24878605 0
4.6441817 3.4450214 0.0037219226 0
4.6304674 3.4310594 -0.49320745 0
4.5718784 3.441767 0.85528851 0
4.5633917 3.437048 0.9189651 0
4.644331 3.445173 -0.24425876 0
-4.5162644 3.5042267 0.91904342 0
4.5020518 3.438982 1.219342 0
4.6301222 3.4307079 -0.62203485 0
-4.619822 3.4975319 0.18273346 0
-4.2520385 3.4991531 1.8233306 0
4.6488609 3.4497852 0.37086296 0
-4.6270499 3.5002346 -0.071913809 0
-4.6183953 3.4969985 0.43663996 0
4.3085856 3.4432068 1.8249662 0
4.5748568 3.4448872 0.98012227 0
4.6407127 3.4414902 0.61524504 0
-4.6287055 3.5008535 -0.32751435 0
4.6355133 3.4361966 0.73760122 0
4.6983972 3.4282477 0.12502904 0
-4.5205355 3.5075405 1.05251 0
4.6995926 3.42943 -0.12316626 0
4.7065959 3.4363589 0.00040441751 0
4.5736032 3.4435737 1.1055505 0
4.5823045 3.4512928 1.0532051 0
-4.512167 3.5010474 1.1853993 0
4.7073908 3.4371452 0.24797222 0
-4.3532858 3.5052526 1.6757423 0
-4.6224365 3.4985096 0.69105572 0
4.5668159 3.4396272 1.185827 0
4.7062087 3.435976 -0.37737995 0
4.6403637 3.4411345 0.86276215 0
-4.6381965 3.5044024 -0.58583242 0
4.710824 3.4405422 0.37151212 0
4.7190852 3.4487147 -0.25301349 0
4.7081671 3.4379134 -0.50699037 0
4.7091103 3.4388463 0.49516076 0
4.6348057 3.4354761 0.98691428 0
4.7027988 3.4326022 -0.63614005 0
4.5742321 3.4442327 1.2336206 0
4.5586729 3.4334939 1.3188363 0
4.7075977 3.43735 0.61911893 0
-4.5209937 3.5078964 1.320261 0
-4.6272511 3.5003099 0.94677854 0
4.7747107 3.4316568 0.12204103 0
4.7132378 3.4429297 0.74492311 0
4.6431818 3.4440038 1.1167965 0
4.7849636 3.441514 -0.0048190653 0
-4.5134563 3.502048 1.4538097 0
4.7781734 3.4349864 0.37228602 0
4.7830009 3.4396272 0.24699712 0
4.7865238 3.4430141 -0.13197249 0
4.7870288 3.4434998 -0.26014102 0
-4.34551 3.5022178 1.9302403 0
4.7848678 3.4414222 -0.38906544 0
4.7776952 3.4345264 -0.51793635 0
4.5731139 3.4443705 1.4552556 0
4.6403971 3.4411683 1.2453637 0
4.7193594 3.4489861 0.87247455 0
4.7743287 3.4312899 0.62292844 0
4.7121024 3.4418066 0.99839151 0
4.7905917 3.4469249 0.49851352 0
-4.5111256 3.5002394 1.5885687 0
4.8333569 3.4275846 0.23273659 0
4.7031832 3.4329824 1.1247718 0
4.7778301 3.4346561 0.74989176 0
-4.6346087 3.5030608 1.2047621 0
4.839334 3.4318233 0.092439353 0
4.790379 3.4467206 -0.65558201 0
4.8435583 3.4348192 -0.048663497 0
4.8486691 3.430619 0.11926506 0
4.8496771 3.4315603 -0.0083295405 0
4.573215 3.4444468 1.5907397 0
4.8556604 3.4371502 -0.13763884 0
-4.7885332 3.500123 0.50967807 0
4.783298 3.4399128 0.8787213 0
4.8423581 3.4339678 0.509444 0
4.8591552 3.4404151 -0.26809669 0
-4.7856784 3.4980364 0.6479857 0
4.8576136 3.4389751 0.3733404 0
4.5608463 3.4351308 1.7245529 0
4.7742705 3.4312339 1.0056081 0
4.8369684 3.4301457 0.64794022 0
4.8588767 3.440155 -0.39933789 0
4.8593388 3.4460099 0.36934599 0
4.8672018 3.4479322 0.2458306 0
-4.5159588 3.5039897 1.7255657 0
4.715765 3.44543 1.2604272 0
4.8592377 3.4404922 0.50089294 0
4.8633118 3.444298 -0.53383529 0
4.7733774 3.4303751 1.1359534 0
4.8598986 3.4411094 0.62895334 0
4.8504868 3.432317 0.75616956 0
-4.7956853 3.5053506 0.78597957 0
4.8621082 3.4431741 -0.66887891 0
-4.639699 3.5049641 1.4651351 0
4.5552793 3.4309382 1.8602748 0
4.8551917 3.4430687 0.78597993 0
4.9267416 3.431253 -0.013271004 0
-4.5126929 3.5014558 1.8619697 0
4.8508515 3.4326577 0.88569695 0
4.8449569 3.4358108 0.92424679 0
-4.7975445 3.5067098 0.92431551 0
4.9344301 3.4382324 0.11568853 0
4.9324956 3.4364765 0.24512768 0
4.9279714 3.4323695 -0.40819252 0
4.9371452 3.4406974 -0.1452938 0
4.9342561 3.4380746 -0.27659559 0
-4.784687 3.4973118 1.0620593 0
4.7814817 3.4381666 1.2716749 0
4.9280186 3.4324124 0.50325769 0
4.9352016 3.4389329 0.37433615 0
4.8420091 3.4337206 1.0624957 0
-4.6137133 3.4952478 1.722337 0
4.9362969 3.4399273 -0.54554683 0
4.8624735 3.4435151 1.0196947 0
4.9288359 3.4331541 0.7633158 0
-4.7914796 3.5022767 1.2010629 0
4.9377508 3.4412467 -0.68343872 0
4.8559194 3.437392 1.1508999 0
-4.9422865 3.5023086 0.17741856 0
4.947073 3.4497097 0.63507342 0
4.8508177 3.4399672 1.201885 0
-4.9530287 3.5061507 -0.088064939 0
-4.9467254 3.5038962 -0.3537364 0
4.8465319 3.4286225 1.2825674 0
5.0103498 3.4345474 0.11285219 0
5.0077219 3.4322298 0.24419855 0
-4.9468079 3.5039258 0.44206527 0
5.0039997 3.4289467 -0.41876221 0
4.9363384 3.4399648 0.89644098 0
5.0177517 3.4410763 -0.15270057 0
5.0191751 3.4423313 -0.019943982 0
-4.793921 3.504061 1.340409 0
5.0167122 3.4401588 -0.28654832 0
-4.9346309 3.4995701 0.70644093 0
-4.9482512 3.504442 -0.62158817 0
4.9316287 3.4356894 1.0285525 0
5.0232244 3.4459028 0.37556228 0
4.8567004 3.444139 1.3418975 0
5.0175996 3.4409416 -0.55969119 0
5.0215597 3.4444349 0.50733125 0
5.0156002 3.4391782 0.63892698 0
4.928606 3.4329457 1.1625488 0
-4.7970576 3.5063536 1.4806044 0
4.8489552 3.4386463 1.4809031 0
5.0823164 3.4254205 -0.023142338 0
5.0232811 3.4459529 -0.70135868 0
5.019454 3.4425774 0.77237928 0
5.0884342 3.4306629 0.10989733 0
-4.9458699 3.5035903 0.97305697 0
5.0094376 3.4337425 0.90441197 0
-4.6363492 3.5037117 1.9930878 0
-4.7849011 3.4974682 1.6190832 0
5.0969214 3.4379351 -0.15978381 0
5.0953827 3.4366169 0.2429935 0
4.9351258 3.438864 1.3018888 0
5.0988579 3.4395945 -0.29630876 0
5.0882864 3.4305363 0.50949252 0
4.8488202 3.4385505 1.621536 0
5.0875988 3.4299469 -0.57022214 0
5.0111818 3.4352815 1.0400238 0
5.0984201 3.4392197 -0.43392384 0
5.1055079 3.4452929 0.37663925 0
-4.7789907 3.4931481 1.7590399 0
-4.9372029 3.5004902 1.2395475 0
5.0954475 3.4366724 0.64405525 0
5.0084915 3.4329083 1.1762874 0
5.1462736 3.4319563 -0.083490431 0
4.8389854 3.4315763 1.7611299 0
5.0925817 3.4342167 0.77848214 0
5.1504483 3.4347403 0.20796949 0
5.1025677 3.4427733 -0.71683323 0
5.1609192 3.4417233 0.060813487 0
5.168911 3.4266555 -0.16564348 0
5.0955343 3.4367464 0.91501552 0
5.1761904 3.4327145 0.24195981 0
-5.1052933 3.5114832 0.4973419 0
5.1643376 3.4440029 0.35185578 0
5.1774168 3.4337351 -0.30521631 0
5.0840721 3.4269249 1.0496509 0
5.1836219 3.4389 0.10580744 0
5.0153465 3.4389544 1.3179239 0
5.1688128 3.4265735 0.51258278 0
5.1853056 3.4403014 -0.030866474 0
5.1607018 3.4415784 0.49703112 0
-4.7854095 3.4978397 1.9026072 0
5.1533031 3.4366443 0.64179409 0
-5.1035457 3.5102816 0.64179182 0
4.8385477 3.4312658 1.9034033 0
5.1841822 3.4393663 0.37762171 0
5.180696 3.4364645 -0.44579697 0
-5.0994334 3.5074527 0.78598666 0
-4.939219 3.5012114 1.5094844 0
5.1681213 3.425998 -0.72735286 0
5.1758347 3.4324181 0.6491884 0
5.139092 3.4271669 0.92978168 0
-5.0903149 3.5011811 0.92980778 0
5.1594143 3.4407198 0.78598702 0
5.192975 3.4466853 -0.59130263 0
5.0995674 3.4402027 1.1932611 0
5.1680231 3.4259164 0.9226805 0
5.1851788 3.4401958 0.7876423 0
-5.0967836 3.5056305 1.0741513 0
5.1607075 3.4198272 1.0601418 0
5.2611599 3.4299824 0.10296199 0
5.1511488 3.4352076 1.0744085 0
5.2630997 3.4315503 -0.17496631 0
5.0960522 3.4371901 1.3339341 0
5.260283 3.4292734 0.378537 0
5.2731681 3.4396899 -0.036775857 0
5.2718296 3.4386075 0.24060386 0
-4.9296207 3.4977782 1.7801768 0
5.265048 3.4331255 -0.45806253 0
5.2727013 3.4393122 -0.31744486 0
5.1456008 3.4315076 1.2185447 0
-5.0972652 3.5059614 1.2186658 0
5.2544904 3.4245906 0.65407467 0
5.2689972 3.4363179 0.51696616 0
5.2643547 3.432565 -0.60197634 0
-5.0880022 3.4995904 1.3625746 0
5.142592 3.4295013 1.3631251 0
5.2667947 3.4345374 -0.74924636 0
5.2710524 3.4379792 0.79562199 0
5.1909618 3.4450095 1.2100979 0
-5.2917151 3.5070636 0.1716335 0
-5.295382 3.5083165 -0.10503945 0
-5.2857432 3.5050235 -0.38176787 0
-5.2818093 3.5036798 0.44758379 0
5.2646561 3.4328084 0.93520635 0
5.3535056 3.4306984 0.099153206 0
5.1793413 3.4353373 1.3506646 0
-5.0910087 3.5016582 1.5083272 0
5.3595648 3.4354548 -0.042457193 0
-5.2766418 3.5019143 -0.65954864 0
5.3570929 3.4335146 0.23949516 0
5.1499763 3.4344256 1.5096276 0
5.3622484 3.4375615 -0.3283655 0
5.3573737 3.4337349 -0.47217339 0
5.3480501 3.4264157 -0.61620528 0
5.3699541 3.4436104 -0.18615112 0
5.3554821 3.43225 0.52037853 0
5.3660612 3.4405549 0.38010389 0
-5.2893262 3.5062475 0.72410405 0
5.3507686 3.4285498 0.6608789 0
5.2750678 3.4412253 1.079967 0
5.2612619 3.4300649 1.2204583 0
-5.1025281 3.5095816 1.6564984 0
5.3591948 3.4351642 -0.76871634 0
5.1549196 3.4377222 1.6569316 0
5.3590522 3.4350524 0.8038494 0
-5.0792422 3.4935651 1.7993506 0
-5.2914634 3.5069776 1.0016968 0
5.2665095 3.4343069 1.3685482 0
5.3601027 3.4358771 0.94733346 0
5.4474611 3.4300115 -0.048248649 0
5.4420013 3.4258504 -0.33722234 0
5.4504461 3.4322865 0.095083609 0
5.4427242 3.4264014 0.38101122 0
5.4550161 3.4357691 -0.19382352 0
5.45438 3.4352841 0.23813301 0
5.3561354 3.4327629 1.0912673 0
5.1559362 3.4384003 1.8047047 0
5.4793677 3.4311759 0.030222178 0
5.4552641 3.4359581 -0.48748904 0
5.481698 3.4326353 0.18210649 0
5.4579039 3.4379699 0.52480781 0
-5.4227576 3.5050302 0.48521134 0
-5.0875611 3.4992871 1.9492067 0
-5.2906289 3.5066926 1.2807635 0
5.4577036 3.4378176 -0.63784063 0
5.4928117 3.4395947 -0.12497818 0
5.4867573 3.4358032 0.33323488 0
5.4804325 3.4318428 0.48477489 0
5.4583817 3.4383342 0.66884989 0
5.4486771 3.4309378 0.81224495 0
5.1509509 3.4350758 1.9523112 0
-5.4264932 3.5074446 0.63558078 0
5.3699045 3.4435716 1.2420197 0
5.4599123 3.4395006 -0.79077435 0
5.4875951 3.4363279 0.63526976 0
-5.4268799 3.5076947 0.78599447 0
5.4828978 3.4333863 0.78599465 0
5.4568858 3.4371941 0.95958638 0
5.3652163 3.4398916 1.3901677 0
5.4751968 3.4285641 0.93637913 0
5.5478849 3.4314635 0.23686787 0
5.5506096 3.4334788 -0.2030409 0
5.5530787 3.4353054 -0.055916041 0
-5.2875986 3.5056574 1.5618043 0
-5.4331632 3.5117559 0.93659341 0
5.5589743 3.4396665 0.090303004 0
5.5481009 3.431623 -0.50141382 0
5.5477238 3.431344 0.52836359 0
-5.4229221 3.5051365 1.0867872 0
5.5624599 3.4422452 -0.35403848 0
5.562067 3.4419546 0.3828401 0
5.4638948 3.4425356 1.1089983 0
5.546298 3.4302893 -0.65315336 0
5.5518641 3.434407 0.67518389 0
5.488822 3.4370964 1.0876765 0
-5.4174113 3.5015745 1.2371331 0
5.4580359 3.4380705 1.2573371 0
5.5464125 3.4303741 0.82179993 0
5.5461712 3.4301958 0.97022951 0
5.493598 3.4400871 1.2393212 0
5.6451483 3.4277716 -0.062037915 0
5.4728403 3.4270883 1.3889098 0
-5.2861071 3.5051479 1.8460623 0
5.4625921 3.4415429 1.4110771 0
-5.4273329 3.5079875 1.3893797 0
5.6473346 3.4293408 -0.21234006 0
5.6526899 3.4331853 0.086533666 0
5.650424 3.4315584 0.23542038 0
5.5456567 3.4298148 1.1202228 0
5.652276 3.4328878 0.38401943 0
5.6537142 3.4339206 -0.36494303 0
5.6513944 3.4322553 -0.51771331 0
-5.4192538 3.5027657 1.5403349 0
5.6519594 3.4326608 0.53281921 0
5.544035 3.4286156 1.2719036 0
5.4780021 3.4303207 1.5415835 0
5.6510639 3.432018 -0.67293638 0
5.6590276 3.4377344 0.68293267 0
-5.6589408 3.5076149 0.16554987 0
-5.6605263 3.5081313 -0.12318948 0
-5.6606507 3.5081718 0.45388156 0
-5.6649718 3.5095794 -0.41336745 0
5.6624784 3.4402118 0.83402902 0
5.647644 3.429563 0.98315954 0
5.5500345 3.4330533 1.4284478 0
-5.4275022 3.5080967 1.6943982 0
5.4856 3.4350786 1.6957792 0
5.7494888 3.4263272 -0.2223683 0
5.7529745 3.4287546 -0.069790483 0
-5.6579018 3.5072765 0.74244487 0
5.7537537 3.4292967 0.23397043 0
-5.6701903 3.5112791 -0.7057513 0
5.7540126 3.4294772 -0.37750798 0
5.6533127 3.4336319 1.1375723 0
5.764308 3.4366465 0.081652477 0
-5.4199648 3.5032251 1.8468418 0
5.7601328 3.4337389 0.38556528 0
5.4775672 3.4300485 1.848374 0
5.7569389 3.4315147 0.53727692 0
5.7513208 3.4276028 -0.69124758 0
5.7631111 3.435813 -0.53584415 0
-5.6589475 3.507617 1.0322132 0
5.7576704 3.4320242 0.68969107 0
5.6547194 3.4346418 1.2933751 0
5.833447 3.4239595 -0.0047289133 0
5.7725697 3.4423997 0.8452217 0
5.8396602 3.4276063 0.31243429 0
5.7621808 3.4351652 0.99848455 0
-5.7859793 3.5086703 0.47078827 0
-5.7955651 3.5144835 0.31196964 0
-5.6562052 3.5067239 1.3233454 0
-5.7776294 3.5036068 0.62870806 0
5.8527145 3.4352684 -0.16791558 0
5.6678143 3.4440417 1.4556878 0
5.8626256 3.4278939 0.077662438 0
5.8433948 3.4297984 0.4703742 0
5.856101 3.4372563 0.1519978 0
5.8703375 3.4331017 -0.078473717 0
5.7576818 3.4320326 1.1539583 0
5.8697996 3.4327385 -0.23499656 0
5.8641415 3.4289176 0.38701496 0
5.8731117 3.4349754 0.23219614 0
5.8330069 3.4237013 0.78600305 0
5.8663621 3.4304173 0.54197389 0
-5.7907553 3.5115666 0.78600335 0
-5.7767124 3.5030508 0.94327295 0
5.8607993 3.4400141 0.62780499 0
5.8817024 3.4407771 -0.39519948 0
5.8758922 3.4368529 -0.55403841 0
5.8666754 3.430629 -0.71360648 0
5.837935 3.4265938 0.94358528 0
5.8572879 3.4242892 0.85254282 0
-5.6507659 3.5049522 1.6163334 0
5.8799281 3.4395788 0.69888628 0
5.7729974 3.4426975 1.3167459 0
-5.785172 3.5081806 1.1011748 0
5.7575912 3.4319692 1.4734627 0
5.8469353 3.4318764 1.1018249 0
5.8702617 3.4330506 1.012413 0
-5.783 3.5068638 1.259011 0
5.8411865 3.4285023 1.259698 0
5.9809332 3.4296081 -0.086361885 0
5.8684149 3.4318035 1.1716846 0
5.9823017 3.4305043 0.23065223 0
-5.7780108 3.5038383 1.4169362 0
5.9897537 3.4353828 0.071897045 0
5.9822493 3.43047 0.38874671 0
5.9883032 3.4344332 -0.24722832 0
5.9833322 3.4311788 -0.40776181 0
5.9795227 3.4286847 -0.56993353 0
5.9857225 3.4327435 0.54725045 0
5.8464561 3.4315953 1.4189688 0
-5.6582432 3.5073876 1.9148191 0
5.9779015 3.4276233 -0.73460543 0
5.8718834 3.4341459 1.3344574 0
5.9831285 3.4310453 0.70599145 0
-5.7848477 3.5079842 1.5768943 0
5.8682194 3.4316716 1.4978645 0
5.9929571 3.43748 0.8673113 0
5.9753466 3.4259508 1.02565 0
5.8577123 3.4382021 1.5800303 0
-5.7805004 3.5053477 1.7362599 0
6.0924196 3.4236078 -0.09427622 0
6.0928273 3.4238665 0.067683369 0
5.8392873 3.4273875 1.7377417 0
5.9826269 3.430717 1.1900547 0
6.1024909 3.4299972 -0.25871843 0
6.1013088 3.4292476 0.39048201 0
6.10184 3.4295843 -0.42340225 0
-6.0711951 3.5116541 0.15867044 0
6.0969038 3.4264526 -0.58887738 0
6.1003695 3.4286516 0.55218476 0
-5.7794676 3.5047214 1.8970722 0
6.1191463 3.4405637 0.2285493 0
6.089365 3.42167 -0.75549161 0
-6.0708899 3.5115597 -0.4472658 0
-6.0838914 3.5155895 -0.14445376 0
-6.0710559 3.511611 0.46072704 0
5.9874821 3.4338956 1.3566493 0
5.8438044 3.4300389 1.8998647 0
6.1066084 3.4326096 0.71514642 0
-6.0650334 3.5097444 0.76281911 0
5.9743485 3.4252973 1.5205994 0
6.1013145 3.4292512 0.87794745 0
-6.0756917 3.5130479 -0.75326872 0
6.0914335 3.4229822 1.0408504 0
-6.0735869 3.5123956 1.0669129 0
6.2144194 3.4210136 0.39208061 0
6.2217283 3.4255049 0.22716969 0
6.2208748 3.4249806 -0.27072191 0
6.2288518 3.4298825 -0.1046918 0
6.2318678 3.4317358 0.061284006 0
6.1118512 3.4359355 1.2117183 0
6.2377229 3.4245541 0.12160468 0
-6.1764207 3.5071509 0.45514646 0
-6.184093 3.5115075 0.28864783 0
6.2239132 3.4268475 -0.43957293 0
6.23874 3.4251125 -0.21439087 0
6.2317643 3.421283 0.45484582 0
-6.176033 3.5069308 0.6206795 0
6.2514644 3.4320984 -0.047686815 0
6.225554 3.4278557 -0.61023372 0
6.2484908 3.4304659 0.28747916 0
6.2303195 3.4307845 0.55802083 0
6.106039 3.4322484 1.3794506 0
-6.1776757 3.5078635 0.78601283 0
6.2457342 3.4289525 0.62014848 0
6.2338586 3.4329593 0.72460592 0
-6.0792642 3.5141554 1.3731281 0
6.2331915 3.4325495 -0.78498769 0
6.2276707 3.4291568 0.8911013 0
6.2513518 3.4320364 0.7860136 0
6.1071577 3.4329579 1.5516239 0
-6.1882143 3.5138478 0.95167267 0
6.2448578 3.4284713 0.95185524 0
-6.1759105 3.5068612 1.1168525 0
6.2299728 3.4305713 1.0600995 0
-6.0674701 3.5104997 1.6795002 0
6.3489237 3.4224422 0.22529745 0
6.250102 3.4313505 1.1181561 0
6.2324152 3.4320722 1.2311991 0
6.3498011 3.4229641 -0.45631683 0
-6.1876082 3.5135036 1.283663 0
6.3663568 3.4328144 -0.1151191 0
6.2420306 3.4269192 1.2840343 0
6.370039 3.4350054 0.054998755 0
6.3663025 3.4327822 -0.28649777 0
6.3619518 3.4301937 0.39436719 0
6.3588338 3.4283383 0.56371796 0
6.2283883 3.4295976 1.4030862 0
-6.1819844 3.5103102 1.4497846 0
6.2344346 3.4227488 1.4500748 0
6.3666029 3.432961 -0.63420898 0
6.3635173 3.4311249 0.73423004 0
6.3519049 3.4242158 0.90384072 0
-6.061172 3.5085475 1.9895316 0
6.2269602 3.42872 1.5782517 0
-6.1800213 3.5091956 1.6168207 0
6.2474899 3.4299164 1.6191895 0
6.3631668 3.4309165 1.0781801 0
-6.1700411 3.5035284 1.7833669 0
6.3518395 3.4241772 1.2502698 0
6.4879913 3.4226561 -0.1238544 0
6.4951406 3.4267724 0.049558312 0
6.2452536 3.4286885 1.7874699 0
6.4952021 3.4268079 -0.29978663 0
6.4912629 3.4245398 0.39626533 0
6.4980946 3.4284732 0.22299707 0
6.4886785 3.4230516 -0.47530746 0
-6.1699252 3.5034626 1.952336 0
6.4964886 3.4275484 0.56992322 0
6.4885764 3.4229929 0.74331343 0
6.2350917 3.4231098 1.9552499 0
6.3712678 3.4357364 1.432047 0
6.5011654 3.4302411 -0.65651602 0
6.351501 3.4239757 1.6061502 0
6.4993749 3.4292102 0.91977781 0
-6.5061383 3.5105865 -0.48369396 0
-6.5233445 3.5156507 0.15109508 0
-6.5251489 3.5161822 -0.16660035 0
-6.5168014 3.513725 0.4681859 0
6.4907413 3.4242394 1.0950844 0
-6.5126472 3.5125022 0.78531736 0
6.5029998 3.4312973 1.2763276 0
6.6375766 3.4247749 0.043114156 0
6.6388321 3.4254742 0.22088519 0
6.6297708 3.4204283 -0.49454874 0
6.4953222 3.426877 1.4557317 0
-6.518023 3.5140846 1.1041778 0
6.6522207 3.4329298 -0.13680041 0
6.6480927 3.4306309 -0.31635368 0
6.6377525 3.4248731 0.57629645 0
-6.61831 3.5109222 0.2620554 0
6.6526299 3.4331574 0.39879051 0
6.6801038 3.4218054 -0.091382682 0
6.644083 3.4283981 -0.6805138 0
6.645226 3.4290347 0.75549996 0
-6.6220126 3.5128865 0.61152244 0
6.6907802 3.427274 0.26026613 0
6.6947308 3.4292977 0.083710015 0
-6.6341081 3.5193028 0.43619451 0
6.6733804 3.4183612 0.6114794 0
6.6949959 3.4294336 -0.27132452 0
-6.5077996 3.5110755 1.4233887 0
6.694346 3.4291005 0.43564907 0
6.5039225 3.4318287 1.6424612 0
6.6460023 3.429467 0.93545991 0
-6.6232953 3.513567 0.78602403 0
-6.6209073 3.5123003 0.9604966 0
6.6470675 3.4300601 1.1170845 0
6.6955848 3.4297352 0.78602475 0
-6.6170173 3.5102363 1.1349534 0
6.6369781 3.4244416 1.298333 0
6.6946268 3.4292445 0.96112531 0
6.6877828 3.4257386 1.1360576 0
6.7856936 3.4218218 0.036379576 0
6.7854428 3.4216866 -0.14655161 0
-6.620832 3.5122602 1.3101943 0
-6.5213056 3.5150506 1.7485189 0
6.6355553 3.4236493 1.4835372 0
6.788219 3.4231808 0.40078285 0
6.7942991 3.4264536 -0.33185393 0
6.7984781 3.4287028 0.2184138 0
6.7922163 3.4253325 -0.51748991 0
6.7994599 3.4292314 0.58383977 0
6.7855353 3.4217365 0.76596081 0
6.700726 3.4323688 1.312567 0
6.7970753 3.4279478 -0.70655715 0
-6.62677 3.5154102 1.4864327 0
6.6363955 3.4241173 1.6723312 0
6.6896443 3.4266922 1.4878094 0
6.7983007 3.4286075 0.95181191 0
6.7946992 3.4266691 1.1373366 0
-6.637846 3.5212858 1.6644329 0
6.6930599 3.4284418 1.6651392 0
-6.6237359 3.5138004 1.8399817 0
6.7991223 3.4290497 1.3264091 0
6.6960459 3.4299712 1.8435483 0
6.9505248 3.4233961 0.02870515 0
6.7855368 3.4217372 1.5136975 0
6.9507508 3.4235137 -0.34866536 0
6.9525962 3.424473 0.40332961 0
6.9636769 3.4302344 -0.16068497 0
6.9490047 3.4226058 -0.53923869 0
6.9689984 3.4330013 0.21574773 0
6.9546614 3.4255469 0.59093922 0
6.9525886 3.4244692 -0.7329613 0
6.7859702 3.4219706 1.7072099 0
6.9402547 3.4180565 0.96661288 0
6.9626346 3.4296925 0.77998221 0
6.9571395 3.4268353 1.1600909 0
-7.0152059 3.5177982 0.1428313 0
-7.0141969 3.5175171 -0.19125837 0
6.9448409 3.4204409 1.3506639 0
-7.0147891 3.5176821 0.47656119 0
-7.014092 3.5174878 -0.52658194 0
-7.0029016 3.5143673 0.81004381 0
7.1206484 3.4229198 -0.17262378 0
7.1168451 3.4210107 -0.36668706 0
6.9580598 3.4273138 1.5495069 0
7.1335611 3.4294004 0.020019472 0
7.1252122 3.4252102 0.40601867 0
7.1166129 3.4208941 0.59838676 0
7.1344485 3.4298458 0.21320096 0
7.1194067 3.4222965 -0.5632512 0
-7.013248 3.5172522 1.1459053 0
7.1216011 3.423398 -0.76212323 0
6.9492788 3.4227483 1.7459872 0
-7.1189661 3.5186439 0.2306546 0
7.1270194 3.4261172 0.79264748 0
7.1746078 3.4189513 0.23019838 0
-7.1190777 3.5186992 0.41611061 0
7.1837091 3.4232883 -0.14422965 0
7.1880231 3.425344 0.042591929 0
-7.1193342 3.518826 0.60116708 0
-7.1076837 3.5130677 0.78603631 0
7.1830583 3.4229782 0.41537681 0
7.1897893 3.4261856 -0.33346558 0
7.109221 3.4171844 1.1808462 0
7.1338482 3.4295444 0.98842305 0
7.1840844 3.4234672 0.60078084 0
-7.0097528 3.5162778 1.4828134 0
7.1713257 3.4173872 0.78603679 0
-7.1149654 3.5166667 0.97079295 0
7.1860189 3.4243891 0.9713437 0
-7.1157417 3.5170503 1.1557903 0
7.1239929 3.4245982 1.3820434 0
7.2827721 3.4137421 -0.18499124 0
7.2917414 3.4180839 0.012846023 0
7.1952047 3.4287663 1.1573256 0
7.2921834 3.418298 0.21082051 0
7.1217146 3.4234548 1.5827487 0
-7.1277604 3.5229907 1.3421074 0
-7.028132 3.5214026 1.8259652 0
7.2998428 3.4220059 -0.38689518 0
7.1884494 3.4255471 1.3429503 0
7.3050256 3.4245148 0.40882856 0
7.2968941 3.4205785 -0.58834553 0
7.1111822 3.4181688 1.7840621 0
7.1718397 3.4176321 1.5278124 0
7.2895293 3.4170132 0.80504811 0
7.3079181 3.425915 0.6074959 0
7.2982883 3.4212534 -0.79274452 0
-7.131505 3.5248415 1.5287955 0
7.29567 3.4199858 1.005726 0
-7.1248341 3.5215442 1.7151337 0
7.1822677 3.4226015 1.7161236 0
-5.8128581 -5.6891279 0.40715292 0
-5.9771562 -5.5232615 0.4069317 0
-7.1095839 3.5140066 1.9007961 0
-5.6569643 -5.8635893 0.4065026 0
7.30583 3.4249041 1.2093179 0
-5.3174787 -6.1854529 0.21556413 0
-5.4946818 -6.0325127 0.21536136 0
-5.6549559 -5.8615079 0.59644258 0
-5.497005 -6.0350633 0.40577158 0
-5.8274317 -5.7033916 0.59622598 0
-5.9774709 -5.5235524 0.78604233 0
-5.9908624 -5.5359268 0.5961557 0
-5.8188095 -5.694953 0.78604245 0
-6.1573267 -5.3706226 0.4054375 0
7.1825886 3.4227543 1.9044279 0
-6.152194 -5.3661461 0.59600174 0
-5.4978509 -6.0359921 0.595981 0
-5.3304887 -6.2005863 0.40513813 0
7.3042755 3.4241517 1.4134375 0
-5.3256841 -6.1949978 0.59586525 0
-5.1583581 -6.3607326 0.21328819 0
-5.6645408 -5.8714428 0.78604293 0
-6.3257766 -5.2057056 0.40441734 0
-5.4842072 -6.0210128 0.97563314 0
-5.1607599 -6.3636942 0.40437409 0
-5.6554446 -5.8620143 0.97565913 0
-6.3189726 -5.2001061 0.59553874 0
-5.8244047 -5.7004285 0.97576112 0
-5.986259 -5.531673 0.97578418 0
-5.5024052 -6.0409923 0.78604329 0
-5.3317742 -6.2020822 0.78604347 0
-6.1642203 -5.3766356 0.78604352 0
7.2964878 3.4203818 1.6186268 0
-5.164959 -6.3688717 0.59515727 0
-6.1529226 -5.3667812 0.97610718 0
-6.4806695 -5.0284333 0.59509367 0
-6.3239508 -5.2042031 0.78604382 0
-5.159523 -6.3621693 0.78604382 0
-6.4937706 -5.0385985 0.40316436 0
7.4830952 3.4179032 -0.20097691 0
-5.3276424 -6.1972761 0.97629154 0
-5.6581049 -5.8647718 1.1656601 0
-5.0013075 -6.5421124 0.21011823 0
-5.8282981 -5.7042394 1.1659396 0
7.4842587 3.4184461 0.41160876 0
7.4866819 3.4195769 -0.40748739 0
-4.9993095 -6.5394988 0.40259382 0
7.4971819 3.4244754 0.0029777884 0
-6.4822493 -5.0296593 0.78604424 0
-5.9928837 -5.5377946 1.1661521 0
7.4971433 3.4244573 0.20754309 0
-5.3216186 -6.1902685 1.1663156 0
-6.6506643 -4.8612261 0.40229779 0
-4.9968204 -6.536243 0.59451842 0
-6.1552978 -5.3688531 1.1665245 0
7.4874964 3.4199567 0.61586213 0
-5.5042377 -6.043004 1.1668162 0
-6.3129869 -5.1951799 1.1668993 0
7.2931056 3.4187443 1.8278538 0
-4.8248949 -6.7013836 0.20852506 0
-6.4808416 -5.0285668 0.977 0
7.4940991 3.4230373 -0.61672336 0
-5.1675301 -6.3720427 0.97702628 0
-6.3369989 -5.2149405 0.97709286 0
-5.9880023 -5.5332842 1.3562579 0
-5.6614027 -5.8681903 1.3563168 0
-4.9981456 -6.5379767 0.78604496 0
-5.8307276 -5.7066169 1.3566417 0
-6.660109 -4.8681297 0.59400332 0
-6.6480756 -4.859334 0.78604507 0
-5.4955969 -6.0335174 1.3568219 0
-6.1522851 -5.3662257 1.3570023 0
-5.1605902 -6.3634849 1.1677022 0
-4.9932876 -6.5316215 0.97743595 0
-6.8169241 -4.6887641 0.40062836 0
7.4986296 3.4251509 0.8218767 0
-4.8373733 -6.7187147 0.4003855 0
-6.8126316 -4.6858115 0.59356272 0
7.4838076 3.4182358 1.0264978 0
-4.8334875 -6.7133179 0.59347492 0
-5.3335757 -6.2041779 1.3582516 0
-6.649827 -4.8606143 0.97779107 0
-5.8265033 -5.7024827 1.547255 0
-5.4908624 -6.0283194 1.5473909 0
-6.3235316 -5.2038579 1.3588001 0
-5.9917474 -5.5367446 1.5477711 0
-6.4747987 -5.0238781 1.3592064 0
-6.4984112 -5.0421996 1.1691997 0
-6.6419706 -4.8548717 1.1692916 0
-5.6686358 -5.8756876 1.5483465 0
-5.1643639 -6.3681383 1.3594688 0
-6.8175249 -4.6891775 0.78604621 0
-4.6607475 -6.8814411 0.20477557 0
-4.8360476 -6.7168736 0.78604627 0
-4.6571293 -6.8760991 0.39918321 0
-6.1574125 -5.3706975 1.5489239 0
-4.8258057 -6.7026482 0.97831118 0
-5.0024772 -6.5436425 1.1697403 0
-5.329124 -6.1989994 1.5493183 0
-4.6576219 -6.8768263 0.59269941 0
-6.8135991 -4.6864772 0.97855699 0
-4.9950795 -6.5339656 1.3612568 0
-5.8267598 -5.7027335 1.7391562 0
-6.9839001 -4.5140834 0.59246492 0
-7.5579686 3.5193157 0.13368036 0
-5.4923601 -6.029964 1.7395449 0
-6.327672 -5.2072654 1.5511892 0
-5.1625018 -6.3658423 1.5513051 0
-5.9917555 -5.5367522 1.7397618 0
7.504149 3.427726 1.2378799 0
-6.9983964 -4.5234532 0.39786923 0
-7.5613675 3.5202112 -0.21897256 0
-5.6661973 -5.8731599 1.7400701 0
-7.5527625 3.5179441 -0.57207859 0
-6.4845419 -5.0314379 1.5523827 0
-4.4828563 -7.0459933 0.20198452 0
-4.6651635 -6.8879614 0.78604752 0
-6.159286 -5.3723321 1.7414944 0
-6.656786 -4.8657007 1.3627195 0
-6.9908137 -4.5185523 0.78604764 0
-7.5692449 3.5222869 0.48592323 0
-5.3345294 -6.205287 1.7426672 0
-4.8233113 -6.6991839 1.363379 0
-6.3189387 -5.2000785 1.7427173 0
-5.9797163 -5.5256271 1.9304948 0
-4.8409858 -6.723732 1.1719964 0
-4.6609969 -6.8818097 0.97953534 0
7.4998927 3.4257402 1.4479134 0
-6.8309016 -4.6983781 1.1722558 0
-6.1400456 -5.3555498 1.9312932 0
-7.1549058 -4.3387995 0.39625615 0
-4.99932 -6.5395126 1.5546198 0
-4.492259 -7.0607715 0.39620876 0
-7.162065 -4.3431411 0.2002458 0
-5.6609187 -5.8676887 1.9321014 0
-5.1622229 -6.3654985 1.744133 0
-4.4868102 -7.0522079 0.59147036 0
-6.6516509 -4.8619471 1.5553262 0
-7.1522713 -4.3372021 0.59132963 0
-4.6566567 -6.8754015 1.1728727 0
-5.8337903 -5.7096143 1.9334545 0
-6.9970078 -4.5225558 0.97999388 0
7.4832244 3.4179637 1.6573254 0
-6.4868069 -5.0331955 1.7458693 0
-5.5004272 -6.0388203 1.9342229 0
-6.8277287 -4.6961956 1.3656155 0
-7.5783353 3.524682 0.83929217 0
-4.4901624 -7.0574765 0.78604877 0
-5.3298321 -6.1998229 1.9352797 0
7.6757097 3.4128499 -0.21611518 0
-4.305696 -7.2166233 0.19832671 0
-4.8302827 -6.7088666 1.5579151 0
-7.1631055 -4.3437724 0.78604913 0
7.6864648 3.4176815 0.20458761 0
-6.3241978 -5.2044063 1.9373106 0
-4.6572452 -6.8762703 1.3668842 0
7.6928139 3.4205337 -0.0062583983 0
-6.8168402 -4.6887064 1.5585518 0
-6.6492991 -4.8602285 1.7488787 0
-6.4764862 -5.0251875 1.9383063 0
7.6875505 3.4181693 -0.42984068 0
-4.4925189 -7.0611801 0.98087502 0
-5.0068073 -6.5493069 1.7497765 0
-7.0096927 -4.5307546 1.1748545 0
7.6930189 3.4206259 0.41493782 0
-5.1675611 -6.3720808 1.9392468 0
-7.5686812 3.5221384 1.1929188 0
-4.3108835 -7.2253175 0.5901897 0
-7.3328118 -4.1637836 0.19629806 0
-7.6650767 3.518682 0.19618487 0
-7.3283448 -4.1612468 0.39347658 0
-6.9927883 -4.5198288 1.3683774 0
-7.1673546 -4.3463488 0.98117936 0
7.6891136 3.4188716 -0.64453292 0
-7.6618571 3.517204 0.39332697 0
-4.3196683 -7.2400413 0.39331883 0
7.4862394 3.4193704 1.8746663 0
-4.6551375 -6.8731589 1.5611289 0
7.6828942 3.4160776 0.83620429 0
7.7000928 3.4238038 0.62607664 0
-7.1557412 -4.3393064 1.1758882 0
-4.831358 -6.7103596 1.7526755 0
-5.0288539 -6.5086894 1.9540987 0
-7.3339686 -4.1644402 0.58971941 0
-4.4947309 -7.0646572 1.1761048 0
7.7363396 3.4178751 -0.0036353469 0
-5.0007167 -6.5413399 1.9434308 0
-7.6701226 3.5209985 0.58958364 0
-4.317009 -7.2355847 0.78605056 0
-4.4828606 -7.0459995 1.3701152 0
7.7404537 3.4196928 -0.20319593 0
-4.9185877 -6.6083384 1.9534568 0
-6.8259335 -4.6949611 1.7545481 0
-7.3334928 -4.1641703 0.78605074 0
-6.9920058 -4.5193229 1.563386 0
-6.6563792 -4.8654037 1.9449942 0
7.746932 3.422555 0.1937269 0
-7.6684556 3.5202332 0.78605086 0
-4.3139372 -7.2304358 0.98204988 0
7.7451286 3.4217582 -0.40414155 0
7.6870518 3.4179451 1.0491736 0
7.7532139 3.4253302 0.39120552 0
7.7432528 3.4209294 0.58898878 0
7.7446723 3.4215565 -0.6057229 0
-4.1373582 -7.409616 0.19252586 0
-4.8279243 -6.7055912 1.9475005 0
-7.5673938 3.5217991 1.5490758 0
-4.1348681 -7.4051566 0.3909632 0
-4.8152933 -6.7154851 1.9547732 0
-7.1678143 -4.3466277 1.3723252 0
-7.3401303 -4.1679392 0.98254752 0
-6.8168526 -4.688715 1.9490284 0
-4.4859362 -7.0508342 1.5663278 0
-7.6760359 3.5237129 0.98267013 0
7.726181 3.4133873 0.98267978 0
-4.6665354 -6.889987 1.7588606 0
-7.5143771 -3.9862735 0.1911431 0
7.7495089 3.4236934 0.78605187 0
-4.1398029 -7.4139938 0.58837926 0
-4.3199391 -7.2404962 1.1788082 0
-6.9982901 -4.5233846 1.7601848 0
7.697669 3.4227149 1.2654184 0
-4.1366367 -7.4083238 0.78605223 0
-7.5219951 -3.9903147 0.38940313 0
-7.5142202 -3.9861903 0.58804011 0
-7.1669774 -4.3461204 1.5686514 0
-4.7172322 -6.828927 1.9577219 0
-7.3448024 -4.1705918 1.1795077 0
-7.676569 3.5239577 1.1795299 0
-4.6572862 -6.8763309 1.9534442 0
7.7327294 3.4162803 1.1798556 0
-4.316648 -7.2349796 1.375271 0
-6.9815545 -4.5125675 1.9545536 0
7.6854405 3.4172215 1.4800178 0
-7.5123129 -3.9851782 0.78605276 0
-4.4876852 -7.0535827 1.7633739 0
-7.3339849 -4.1644497 1.3759001 0
-4.406539 -7.1547165 1.59305 0
-4.1424389 -7.418715 0.98385191 0
-4.1317506 -7.3995728 1.1808441 0
-7.6775646 3.5244148 1.3768804 0
-7.5113802 -3.9846835 0.98399091 0
7.7308235 3.4154382 1.3771468 0
-7.1650629 -4.3449593 1.7656403 0
-4.6192951 -6.9433756 1.9611406 0
-4.3150983 -7.2323823 1.5723927 0
-7.579062 3.5248735 1.9103289 0
-7.3311553 -4.1628428 1.5732111 0
-4.2960916 -7.2562141 1.5942819 0
7.6869545 3.4179015 1.7000858 0
-7.6686163 3.5203068 1.573904 0
-4.5069032 -7.0415921 1.9614551 0
-7.5154161 -3.9868245 1.182357 0
-4.4912181 -7.0591359 1.962115 0
7.8916745 3.4124732 -0.015625238 0
-4.1375799 -7.4100132 1.3796129 0
-7.706902 -3.8092394 0.38558441 0
7.738904 3.4190083 1.5760043 0
-7.166059 -4.3455629 1.9640784 0
-7.7173629 -3.8144097 0.18399006 0
-4.3179617 -7.2371812 1.7712394 0
7.8993998 3.4158113 0.41820055 0
-7.3332748 -4.1640463 1.7718956 0
-4.1884208 -7.3618507 1.5963871 0
7.9099698 3.4203792 0.2009985 0
-7.7133098 -3.8124063 0.58576214 0
-4.4032745 -7.1507082 1.9643228 0
7.913794 3.4220319 -0.23550063 0
6.089613 -6.10604 0.16900744 0
-7.5228004 -3.990742 1.3816321 0
5.9007845 -6.2945366 0.1826393 0
6.0811167 -6.1248827 -0.019810557 0
6.0814385 -6.1252069 0.18238974 0
7.9029546 3.4173477 0.63566923 0
-7.6792068 3.5251687 1.7738407 0
6.1785879 -6.0292187 0.1694162 0
6.2631116 -5.9461274 -0.10995159 0
6.259016 -5.9523878 -0.020416141 0
7.9172153 3.4235103 -0.45591068 0
6.0108418 -6.2034559 -0.11523819 0
-4.1407914 -7.4157639 1.5790863 0
6.1815877 -6.0344725 -0.11181071 0
5.7242336 -6.4685016 -0.22369647 0
7.9065485 3.4189007 -0.67604971 0
6.0114045 -6.2045102 0.16814817 0
6.0863681 -6.1301723 -0.2237947 0
5.8352747 -6.3715768 0.16696438 0
-4.3113112 -7.2260346 1.9688219 0
5.9248981 -6.2900081 0.16752788 0
6.3472004 -5.8638954 0.1704057 0
6.2658601 -5.9507847 0.16983542 0
-7.7164993 -3.813983 0.78605574 0
7.6994691 3.4235234 1.9270792 0
5.7458878 -6.4558296 0.16632785 0
5.9263434 -6.2928119 -0.11732852 0
5.8374863 -6.3760228 -0.11911532 0
6.1810751 -6.0335741 -0.39387238 0
5.911726 -6.3062086 -0.22442949 0
6.3499107 -5.8683414 -0.10879561 0
7.7411194 3.419987 1.7753909 0
6.4330182 -5.77562 0.1814208 0
5.6551237 -6.539649 0.16567916 0
6.2632313 -5.9463301 0.44947433 0
6.2523971 -5.9460936 0.58519691 0
6.1806107 -6.0327611 0.45005503 0
6.0876641 -6.1314778 0.38356411 0
5.7317209 -6.4769621 -0.021482348 0
5.9016399 -6.2954497 0.58517867 0
-7.7031207 -3.8073702 0.98608452 0
6.1023517 -6.1291099 -0.11410204 0
6.2669239 -5.9599085 0.18120521 0
7.9016027 3.4167635 0.85373873 0
6.3461785 -5.8622189 0.44896004 0
6.43151 -5.7834349 0.17082466 0
6.4322987 -5.784688 -0.10734242 0
5.9242477 -6.2887459 0.45184734 0
5.9169488 -6.3117795 -0.021726072 0
5.7496243 -6.4636192 -0.12121907 0
6.2674932 -5.9604497 -0.22504902 0
6.0980291 -6.1212816 0.45069647 0
6.4381356 -5.7802148 -0.021788836 0
-4.2920761 -7.2511368 1.9657054 0
-4.0767589 -7.4630032 1.5980207 0
-7.5171108 -3.9877236 1.580565 0
6.2685132 -5.9552798 -0.39178908 0
6.5123782 -5.698895 0.17130744 0
5.9140882 -6.3087282 0.38323608 0
5.6593294 -6.5487471 -0.12323922 0
5.7470427 -6.4582367 0.4531188 0
6.4395313 -5.7814674 -0.22561979 0
6.2674446 -5.9604034 0.38315323 0
6.4297147 -5.7805824 0.44851655 0
6.5868154 -5.6061382 -0.38076717 0
-4.0015111 -7.6756592 0.18066794 0
6.4321051 -5.7843804 -0.38647181 0
6.0158119 -6.212769 0.45141524 0
5.7334356 -6.4789 0.38304248 0
6.3531303 -5.8736229 -0.3894707 0
6.5162563 -5.704865 -0.10618842 0
6.5118103 -5.6980209 -0.38386309 0
-4.0001659 -7.6730785 0.38296434 0
5.8399267 -6.3809285 0.45261794 0
5.5683365 -6.6350808 -0.12539011 0
5.7398605 -6.4861603 0.1803109 0
5.5681558 -6.6346745 0.16479558 0
6.1805811 -6.0327101 -0.6775952 0
-4.1347351 -7.4049182 1.7775135 0
6.2627406 -5.9454985 0.72931337 0
6.0923357 -6.1361828 0.58476514 0
7.8945956 3.4137354 1.0722852 0
-7.3395448 -4.1676068 1.9724495 0
6.6134973 -5.6034842 -0.023281097 0
5.9039621 -6.2979264 0.78605646 0
6.4439068 -5.7853961 0.382649 0
5.834115 -6.3692446 0.73811865 0
5.566186 -6.6302481 0.45451987 0
6.6736746 -5.5331507 -0.10330492 0
6.5981903 -5.6231132 -0.10497704 0
5.475831 -6.7209268 -0.12757456 0
6.5154729 -5.7036591 0.44819176 0
5.6614389 -6.5533118 0.4539836 0
6.4382958 -5.7803583 0.58463758 0
5.5585866 -6.6567125 -0.023670375 0
6.183156 -6.0372186 0.73137647 0
5.5539131 -6.6511154 0.38241106 0
6.0133495 -6.2081556 0.7349174 0
6.3493223 -5.8673759 0.72813636 0
6.3519959 -5.8717623 -0.67127234 0
5.7367539 -6.4826498 0.58454239 0
6.6182284 -5.6074924 0.17938882 0
6.6769977 -5.5379596 0.17204154 0
-4.0019484 -7.6764975 0.58453012 0
6.4328837 -5.7856178 -0.66751069 0
5.7476554 -6.4595141 0.74038047 0
6.6740551 -5.5337014 -0.37982208 0
6.2627029 -5.9558945 0.7860567 0
5.561398 -6.660079 0.17922413 0
5.4790745 -6.728507 0.16391635 0
5.5500927 -6.6465406 0.58448201 0
6.7798982 -5.4181566 -0.024282217 0
-7.6809144 3.5259523 1.9740386 0
6.6029043 -5.6301479 0.17143883 0
-7.7084079 -3.8099835 1.1866058 0
6.5129023 -5.6997018 -0.66391611 0
5.928688 -6.2973614 0.73699677 0
6.6206036 -5.6095047 -0.22835767 0
6.6170573 -5.6065001 0.38204855 0
6.674437 -5.5342541 0.44727987 0
6.2735229 -5.963769 -0.67600393 0
6.7551446 -5.4531245 0.1724702 0
6.1043549 -6.1327372 0.73371923 0
6.6106653 -5.6010847 0.5843572 0
5.4770813 -6.7238483 0.45539522 0
5.7320876 -6.4773769 0.78605694 0
7.7362576 3.4178391 1.9748909 0
6.4367895 -5.779006 0.78605694 0
6.513938 -5.7012959 0.7253654 0
6.5938668 -5.6166611 -0.66088033 0
6.7517991 -5.4484282 0.4468292 0
6.1768703 -6.0262113 1.0125306 0
6.4365616 -5.791461 0.72716188 0
5.919199 -6.2789502 1.0212098 0
6.603384 -5.6308632 0.44797623 0
6.0978041 -6.1416903 0.78605705 0
-4.001009 -7.6746955 0.78605705 0
5.3867388 -6.8182793 0.16309474 0
6.2572627 -5.9507208 0.98707247 0
6.7622333 -5.4630742 -0.10296449 0
5.3776245 -6.8290262 0.17814285 0
5.3881807 -6.8217869 -0.13067219 0
5.3844328 -6.8126698 0.45619941 0
6.5963273 -5.6203332 0.72420168 0
6.0964632 -6.1184459 1.0161223 0
6.6755362 -5.5358443 -0.65831852 0
-3.9947248 -7.662641 0.98722017 0
5.2904596 -6.901792 0.16237037 0
6.0885129 -6.1323323 0.98722237 0
5.9106159 -6.3050241 0.9872402 0
6.4265494 -5.7755537 1.0049593 0
6.789269 -5.4256454 0.381208 0
5.3770299 -6.8282709 0.38119212 0
5.3822956 -6.8349581 -0.026228249 0
-4.0073395 -7.6232643 1.2353849 0
6.2662983 -5.9515271 1.0108079 0
6.7956443 -5.4307399 -0.23087835 0
5.571876 -6.6430364 0.74524647 0
6.0131207 -6.207726 1.0195081 0
6.0741181 -6.1178341 1.1876541 0
-7.5252619 -3.9920478 1.7818964 0
5.7311511 -6.4763188 0.98737508 0
5.5564699 -6.6541777 0.78605747 0
5.6675043 -6.5664344 0.74366045 0
5.8380213 -6.3770981 1.0256622 0
6.6156049 -5.6052699 0.78605753 0
6.7655077 -5.4676704 -0.37968886 0
-4.1961255 -7.3718853 1.97145 0
5.2907987 -6.9026513 0.45704579 0
5.2950821 -6.9135108 -0.13330856 0
6.6796947 -5.5418615 0.72325993 0
6.3525915 -5.8727388 1.0087802 0
5.1892247 -6.9935713 0.17700326 0
6.8454676 -5.3860211 -0.10224885 0
6.6035795 -5.5950804 0.98754132 0
5.3773727 -6.8287063 0.58372176 0
5.3683243 -6.8172159 0.78605771 0
6.8459892 -5.3867316 0.17247991 0
6.4415388 -5.7832699 0.98757827 0
6.8051114 -5.4383059 0.17681617 0
-7.7117324 -3.8116267 1.3876843 0
6.7985315 -5.4330473 -0.43722951 0
-7.4972911 -3.9772096 1.9790086 0
5.7513704 -6.4672594 1.0294223 0
5.4826956 -6.7369695 0.7478891 0
6.7953916 -5.4305382 0.58356041 0
6.7624412 -5.463366 -0.65716285 0
7.9136286 3.4219604 1.2966714 0
6.9219384 -5.3006377 0.17289265 0
6.9183278 -5.2958646 -0.3754853 0
6.7848229 -5.422092 0.78605795 0
6.8470101 -5.3881221 -0.37822849 0
-4.140801 -7.415781 1.9799398 0
5.3865805 -6.8178945 0.74985164 0
5.1988711 -7.001143 -0.13577634 0
5.6614103 -6.5532494 1.0328754 0
5.1989231 -7.0012808 0.16132598 0
6.9240503 -5.3034286 -0.10123926 0
6.9658494 -5.2465272 0.17615688 0
6.595973 -5.6198044 1.0016065 0
5.1984363 -7.0059857 -0.028487921 0
6.5193157 -5.7095752 1.0044684 0
5.5558729 -6.6534624 0.9878428 0
6.8474784 -5.3887601 0.44696403 0
6.7637739 -5.4652367 0.72250366 0
6.1768723 -6.0262136 1.2960768 0
5.9188023 -6.2781806 1.3081508 0
6.0067768 -6.1958385 1.3042145 0
5.5699759 -6.6387658 1.0363851 0
6.0715938 -6.1152916 1.3887479 0
5.1963463 -7.0031691 0.37983206 0
6.9664836 -5.247005 0.37978786 0
6.267261 -5.9602294 1.1889498 0
6.83951 -5.3779073 0.72112131 0
6.6762218 -5.5368371 0.99955553 0
6.9715633 -5.2508311 -0.23423302 0
6.9988351 -5.2168221 0.17323565 0
6.4364891 -5.7787366 1.1890019 0
-3.9995043 -7.6718092 1.1890841 0
6.975945 -5.2541313 -0.029354811 0
5.9175668 -6.312439 1.1891158 0
6.8451643 -5.3856082 -0.6553793 0
5.292676 -6.9074116 0.75236499 0
6.2644882 -5.9484596 1.2932212 0
6.0967836 -6.1190257 1.3011982 0
5.735847 -6.4816246 1.1892421 0
5.4780073 -6.7260127 1.0401628 0
-7.7020307 -3.8068316 1.5882349 0
6.9639502 -5.2450967 0.58310711 0
7.0041351 -5.2236242 -0.10047793 0
5.1955447 -7.0020885 0.58308673 0
5.1025977 -7.092638 0.16041355 0
-4.0824952 -7.4707003 1.973074 0
5.3719473 -6.8218169 0.98819035 0
5.1028666 -7.0933819 -0.13856503 0
5.8354368 -6.371902 1.3137931 0
5.5498061 -6.6461978 1.1894062 0
6.3498974 -5.868319 1.2901772 0
5.3828692 -6.8088655 1.0436277 0
7.00212 -5.2210379 -0.37475729 0
6.9300447 -5.3113527 0.44674188 0
6.9755664 -5.2538462 -0.44144809 0
6.7584906 -5.4578209 0.99803084 0
6.9230657 -5.3021278 -0.65287656 0
5.2039881 -7.0146794 0.45832407 0
5.9076576 -6.3018684 1.3901789 0
6.9226403 -5.3015647 0.7205168 0
7.9085965 3.419786 1.5199138 0
6.9608297 -5.2427464 0.78605878 0
5.7495518 -6.4634671 1.3192662 0
6.4352088 -5.7893114 1.2874465 0
7.0057969 -5.2257562 0.44636208 0
5.7262607 -6.4707923 1.3903702 0
6.5150189 -5.70296 1.2837932 0
6.8369684 -5.3744454 0.99614406 0
7.0828295 -5.142714 -0.099710107 0
7.0823359 -5.1420994 0.17335463 0
6.2634039 -5.9565611 1.3905711 0
6.7959375 -5.4309745 0.98857284 0
5.0047607 -7.1842785 0.15947485 0
5.105444 -7.1005068 0.45913252 0
5.2905159 -6.9019341 1.0481622 0
5.1991854 -7.0069957 0.78605908 0
7.0832329 -5.1432166 -0.3738187 0
7.0040126 -5.2234664 -0.6512686 0
5.6618013 -6.5540953 1.3247433 0
-3.9993219 -7.6714597 1.3911173 0
5.5680351 -6.6344032 1.3289682 0
7.0819035 -5.1415601 0.44603333 0
7.1565366 -5.0563908 -0.098641247 0
5.2029934 -7.0120492 0.75578737 0
-4.0095687 -7.6263466 1.6093049 0
6.4408541 -5.7826552 1.391432 0
7.1447845 -5.0667381 0.37803859 0
5.0211987 -7.1892791 -0.032706439 0
5.0208001 -7.1887083 0.17281169 0
6.0906773 -6.1079674 1.5866703 0
7.156734 -5.0566297 -0.37200516 0
5.0178347 -7.1844621 0.37783831 0
6.6031642 -5.6305351 1.282331 0
6.0780039 -6.1217475 1.5915151 0
6.6316128 -5.6188326 1.190957 0
5.5522103 -6.6490765 1.3918908 0
6.6801891 -5.5425773 1.2787235 0
-7.7000895 -3.805872 1.7901667 0
7.1555638 -5.0743823 0.17255068 0
5.9185648 -6.2777195 1.5975572 0
5.1042404 -7.0971785 0.75817668 0
7.0094819 -5.2304859 0.72033381 0
6.1782007 -6.0285406 1.582489 0
5.4779968 -6.7259889 1.3348532 0
7.1648188 -5.0664139 0.1734699 0
7.0827508 -5.1426158 -0.64947873 0
5.0082746 -7.1944456 0.46011293 0
7.0800133 -5.139205 0.71887434 0
5.8309946 -6.3629718 1.6033379 0
7.1515474 -5.0715342 -0.44629586 0
5.006567 -7.1683292 0.78605962 0
5.3815265 -6.833981 1.1912639 0
5.0165682 -7.1826491 0.58211112 0
7.1622624 -5.0791326 -0.033756435 0
5.1978993 -6.9985719 1.0531303 0
6.2647328 -5.948874 1.5784575 0
6.9270859 -5.3074417 0.99615532 0
6.3475671 -5.8644967 1.5737456 0
6.0119848 -6.2055969 1.5943136 0
6.8007531 -5.4348226 1.1915945 0
4.9089642 -7.2871056 0.15830916 0
5.7274237 -6.4721065 1.5929948 0
6.7635684 -5.4649487 1.2768015 0
5.9121532 -6.306664 1.5931895 0
5.653161 -6.5354023 1.6157811 0
5.0055871 -7.1866703 0.76087463 0
5.3863287 -6.8172808 1.3408362 0
6.2650967 -5.9581709 1.5933173 0
7.242558 -4.9854088 -0.098687053 0
7.1697345 -5.0723629 0.44606483 0
7.2359004 -4.9775829 0.44553909 0
7.2423363 -4.985148 0.17368758 0
7.1716599 -5.0857973 -0.241732 0
6.9810133 -5.2579489 0.98950881 0
-3.9989407 -7.6707282 1.5937512 0
4.9086914 -7.2862787 0.46107566 0
7.1619811 -5.0789332 0.58166957 0
7.0078635 -5.2284083 0.99497479 0
7.1653385 -5.0670428 -0.64868677 0
6.6296 -5.6171274 1.3937716 0
6.4376822 -5.793241 1.5716676 0
7.9187212 3.424161 1.7496339 0
5.1973977 -7.0045857 1.1923691 0
5.2128854 -7.0254588 0.98970962 0
4.8063645 -7.3747253 0.15740179 0
4.8320532 -7.3595347 -0.035964072 0
5.0098667 -7.1730537 0.98973656 0
7.3156466 -4.8995852 -0.097784817 0
5.7527246 -6.4700818 1.6131395 0
7.0815258 -5.1410899 0.99298012 0
6.8479395 -5.3893881 1.2753551 0
6.7935395 -5.4290581 1.3942672 0
7.1676469 -5.0698366 0.7189554 0
4.833818 -7.3622227 0.1700983 0
7.1568956 -5.0753269 0.78606045 0
6.5981855 -5.623106 1.562917 0
6.4464664 -5.7876945 1.5949528 0
5.1053534 -7.100256 1.0586658 0
6.9720078 -5.2511659 1.1926535 0
7.2386718 -4.9808407 -0.64636099 0
7.2500496 -4.9942155 -0.37306607 0
7.3128648 -4.8964086 0.44534421 0
6.6122975 -5.6024671 1.5952535 0
5.3831725 -6.8360715 1.3946033 0
7.3314924 -4.8892393 -0.036726773 0
6.9233103 -5.3024511 1.2723264 0
6.5231113 -5.7154183 1.5685725 0
5.568985 -6.636538 1.6248624 0
7.1450601 -5.0669336 0.98996854 0
7.3247995 -4.8847756 -0.45148361 0
5.2967339 -6.9176993 1.3481638 0
7.3307891 -4.8887701 0.37559891 0
5.5597725 -6.6581326 1.5959628 0
5.9058871 -6.2999797 1.7955515 0
7.158093 -5.0582743 0.99159181 0
8.1324959 3.4162786 -0.027324289 0
6.0853586 -6.1291556 1.7957472 0
7.32621 -4.9116488 0.17370223 0
5.1978865 -6.9985385 1.3530508 0
7.3369503 -4.892879 -0.2448715 0
6.9998317 -5.218101 1.2698334 0
4.9099874 -7.2902107 0.76441324 0
