# .PCD v0.7 - Point Cloud Data file format
VERSION 0.7
FIELDS x y z intensity
SIZE 4 4 4 4
TYPE F F F F
COUNT 1 1 1 1
WIDTH 1425
HEIGHT 1
VIEWPOINT 0 0 0 1 0 0 0
POINTS 1425
DATA ascii
4.9485545 -3.2432425 -0.38708758 0
-5.2090282 2.7633176 0.64871138 0
-4.2883019 3.9626555 1.0579698 0
4.9367366 -3.2334061 0.62197208 0
4.9456968 -3.240864 -0.51702595 0
4.8594217 -3.2406602 1.0580642 0
-4.2961683 3.9213614 1.1860698 0
4.8398199 -3.2275882 1.1928291 0
-4.8291044 -3.2373259 1.2165391 0
-4.2705593 4.0222921 0.93584991 0
-4.2664409 4.1344619 -0.067745835 0
4.9411988 -3.2371199 -0.64824277 0
-4.2871451 3.7393889 1.7211084 0
-4.2658429 4.1341672 -0.32034343 0
4.828299 -3.2362816 1.2711965 0
-5.1236148 2.766324 1.2353814 0
4.9967613 -3.2333567 -0.13087499 0
-4.28403 3.9587083 1.1939287 0
4.9983139 -3.2356737 0.045638978 0
5.005106 -3.2229879 -0.1342324 0
4.9944792 -3.2299511 -0.30811453 0
4.8690805 -3.2427053 1.1231861 0
-4.2803373 4.1413121 0.18371652 0
4.9447417 -3.2400689 0.74923205 0
4.9152975 -3.2402532 0.92321593 0
-5.2191119 2.768667 0.78597867 0
4.9993601 -3.2372353 0.22171837 0
-4.7028089 -3.2346497 1.7242351 0
-4.2725468 4.1374717 0.43553188 0
-4.2692657 3.9090438 1.4354762 0
5.0103474 -3.2272248 0.2464729 0
-4.27741 3.8014655 1.6842051 0
4.9383421 -3.2347422 0.87535018 0
4.9902573 -3.2236512 0.57300258 0
5.0126362 -3.2290752 -0.26447874 0
4.859458 -3.2344601 1.2504492 0
4.9043198 -3.2233527 1.0979054 0
4.9975271 -3.2344997 -0.48810947 0
5.0222597 -3.2368548 -0.0085484982 0
4.7490101 -3.242223 1.6252677 0
-4.2821722 3.6935713 1.9333464 0
4.8475285 -3.2327287 1.3300009 0
-5.2185259 2.7683561 0.92349601 0
-4.2765188 4.1394296 -0.57598573 0
5.0253444 -3.2393486 0.11885373 0
-4.2654753 4.019876 1.1877689 0
-4.9944229 -3.2281737 0.64754242 0
-4.2858782 3.7382839 1.8573239 0
-5.0071344 -3.2363896 0.50825047 0
5.0085621 -3.2509668 0.39797017 0
5.0142598 -3.2303879 0.49979931 0
4.8270693 -3.234328 1.4511498 0
-4.2887473 3.9630675 1.3312032 0
5.0248861 -3.2389781 0.37325346 0
4.9423866 -3.2381086 1.0049278 0
5.027637 -3.2412019 -0.39872134 0
5.0007162 -3.2392581 -0.67054027 0
4.9952092 -3.2310407 0.75003111 0
5.0209427 -3.2357903 -0.52971447 0
-4.2782965 3.7661502 1.8662571 0
-4.2825437 4.1423998 0.68808675 0
-5.2174983 2.7678111 1.0611086 0
5.0141373 -3.230289 -0.66219264 0
-4.8334007 -3.2387252 1.4801817 0
-5.1140323 2.7639453 1.5022075 0
5.0198016 -3.2348678 0.62767196 0
-5.0007935 -3.2322912 0.78597999 0
5.0102997 -3.2271864 0.75445247 0
-4.2789159 4.1878362 0.50707591 0
-4.7076721 -3.2379947 1.8623358 0
4.8504429 -3.2346723 1.4675288 0
-4.9907904 -3.2258258 0.92431653 0
4.9095097 -3.2313426 1.278892 0
-4.2761259 4.1851058 0.64669466 0
4.9440455 -3.2394896 1.1359299 0
5.0787144 -3.2251742 0.22111312 0
-4.2880635 3.9624355 1.4685156 0
4.9977021 -3.234761 0.92822546 0
4.9308157 -3.228478 1.2640231 0
5.077939 -3.2240527 0.3982631 0
-5.2191768 2.7687013 1.1991801 0
-4.2715445 4.2528181 0.18298061 0
5.0824604 -3.2305954 -0.31425786 0
-4.2810979 4.1416874 0.94123143 0
4.8241706 -3.2297223 1.633026 0
5.0883207 -3.2390749 -0.1357955 0
-4.2779369 4.256084 -0.071143538 0
5.0903697 -3.2420399 0.042648762 0
5.0189991 -3.2342191 0.88517469 0
-4.2772603 4.1862164 0.78598088 0
5.0992374 -3.2310965 -0.143893 0
5.0803571 -3.2275512 -0.49458075 0
-4.2765155 3.9517643 1.6044545 0
-4.2745805 3.8002186 1.9415048 0
5.0981522 -3.2302446 -0.27518821 0
-4.2709074 4.0224576 1.4433068 0
4.8462567 -3.2318807 1.6047711 0
-4.2797399 4.2570052 -0.32625091 0
5.1023636 -3.2335508 0.24514779 0
5.1054721 -3.235991 0.11567882 0
5.1099129 -3.2394769 -0.014689624 0
5.1008143 -3.2323344 0.37421784 0
-4.2887249 3.9179535 1.6954904 0
-5.0034251 -3.2339923 1.0635048 0
-5.2141953 2.7660587 1.3370867 0
4.9075937 -3.2283928 1.4600108 0
5.10216 -3.2333908 -0.4091056 0
-4.2764854 4.1854577 0.9252789 0
4.9996166 -3.2376177 1.108104 0
5.0215168 -3.2362542 1.0165915 0
5.0772419 -3.2230437 0.75349057 0
5.1018314 -3.2331333 0.50347865 0
-4.2769604 4.2555852 -0.58243185 0
5.091753 -3.2440417 0.57687879 0
5.0874739 -3.2378495 -0.67980206 0
-4.2960291 4.265327 0.43689933 0
-4.2759695 4.1391592 1.1953106 0
-4.2755404 4.2548594 0.69040251 0
5.1077547 -3.237783 -0.54567748 0
-4.8325396 -3.2384448 1.7460197 0
5.0989189 -3.2308466 -0.68005437 0
-4.2790461 4.187964 1.0648952 0
-5.0066676 -3.236088 1.2029142 0
4.993494 -3.2284815 1.2874186 0
5.1107082 -3.2401016 0.63417816 0
-5.1223779 2.766017 1.7748989 0
-4.2825947 3.9573822 1.7444978 0
5.0237398 -3.2380514 1.1499448 0
5.1008291 -3.2323461 0.76354146 0
5.1587992 -3.2304361 0.074427605 0
4.8535147 -3.2367208 1.7449415 0
5.169323 -3.2271745 0.040909797 0
-5.2238235 2.7711663 1.4772649 0
-5.1673837 -3.231513 0.17518695 0
5.1662221 -3.2350843 0.2168501 0
5.0967183 -3.2291193 0.89429957 0
-4.2832856 3.9132168 1.8840382 0
5.1707783 -3.2292173 0.22013229 0
5.1721816 -3.2388163 -0.071812987 0
5.1643476 -3.2339106 0.3598288 0
-4.2752776 4.2547255 0.94521254 0
5.0894651 -3.2407315 0.93517071 0
4.9115338 -3.2344587 1.6467066 0
5.1727247 -3.2319496 -0.32076013 0
-5.1707535 -3.2325578 -0.36481798 0
-4.2698655 3.9093184 1.9508337 0
-5.1684504 -3.2318437 0.44423258 0
-4.2822833 4.1911325 1.2050481 0
5.1802559 -3.2425206 -0.14066234 0
5.1891246 -3.2331259 -0.019831449 0
5.0242367 -3.2384534 1.2850724 0
-5.186204 -3.2373466 -0.095199943 0
5.1857061 -3.2305207 0.24402945 0
5.1746645 -3.2346723 0.39938465 0
-4.2751036 3.9504597 1.8825226 0
5.1876488 -3.2320008 -0.28657079 0
-4.2772403 4.3733788 0.18192162 0
-4.2818193 4.0276442 1.7032889 0
-5.0146933 -3.2412755 1.3434905 0
5.194315 -3.2370815 0.11196086 0
-4.2705026 4.1796026 1.3439068 0
-4.2759624 4.3727026 -0.33062726 0
5.1965418 -3.2387786 -0.15392065 0
-4.2705383 4.369833 0.43734607 0
4.9938421 -3.2290003 1.4710941 0
4.8511677 -3.2351556 1.8844211 0
5.1783953 -3.2427073 0.50136554 0
-5.1701598 -3.2323737 -0.63686514 0
5.193327 -3.2363286 0.37553781 0
-5.2243271 2.7714334 1.617265 0
5.1681037 -3.2362628 0.64403433 0
-4.2902613 4.3802676 -0.074718982 0
5.1059327 -3.2363524 1.0294379 0
5.0877604 -3.2382643 1.1160433 0
5.193778 -3.2366722 -0.42358261 0
5.1789026 -3.2406213 0.57935548 0
5.1841555 -3.2479942 -0.50667453 0
5.1939869 -3.2368314 0.50741756 0
-5.0056734 -3.2354453 1.4827518 0
5.1658344 -3.2348416 0.78598398 0
-4.2956791 4.1488752 1.4555629 0
5.1959572 -3.2383332 -0.56186259 0
5.1906109 -3.2342587 0.639395 0
-4.2806816 4.3751993 -0.58961254 0
-5.1803989 -3.2355473 0.71428144 0
5.1797581 -3.241822 -0.69073796 0
5.1018772 -3.2331691 1.1633525 0
5.1880093 -3.232276 -0.69917142 0
-4.2755032 4.3724594 0.69324398 0
5.1834908 -3.228832 0.77130586 0
-5.2120748 2.7649338 1.7558371 0
5.0814123 -3.2290781 1.2971296 0
5.1807594 -3.2432272 0.76013827 0
-4.2845654 4.2594705 1.2028804 0
-4.2811017 4.1899757 1.4862632 0
5.1738462 -3.2398586 0.92809194 0
5.1749449 -3.2350657 0.94062996 0
-5.0046458 -3.2347815 1.6236103 0
5.1004801 -3.2320724 1.2999862 0
-5.1721845 -3.2330012 0.98434907 0
5.2651482 -3.2336581 0.037691265 0
5.1597328 -3.2310209 1.0695777 0
5.261548 -3.2287548 -0.3268339 0
4.9991016 -3.2368495 1.6601638 0
-4.2807369 4.4370942 0.49878058 0
-4.2729335 4.3710999 0.94972748 0
5.2688479 -3.2386973 -0.14493376 0
5.2679367 -3.2374561 0.21902186 0
5.2738872 -3.2287748 0.24281687 0
-4.2734466 4.0236645 1.9627446 0
5.2787948 -3.2324052 0.10856752 0
5.1663094 -3.2229445 1.1212032 0
-4.2650785 4.486166 0.18117543 0
5.2762613 -3.230531 -0.29765445 0
-4.2787614 4.0562649 1.9001937 0
5.2000618 -3.241461 0.90844274 0
5.2832394 -3.2356932 -0.026550919 0
5.2633352 -3.2311895 -0.51186752 0
5.2834597 -3.2358558 -0.16223949 0
-4.2742205 4.1832409 1.6266503 0
5.0805607 -3.2278464 1.4821382 0
5.279315 -3.23279 0.376701 0
5.2625504 -3.2301204 0.58147871 0
-4.2852116 4.1437154 1.7137135 0
-5.2173157 2.767714 1.8985567 0
-4.2738781 4.429985 0.78598571 0
5.2741184 -3.2458756 0.4005605 0
-4.2886291 4.4452748 0.64219671 0
-4.2843232 4.4967027 -0.077337146 0
5.2575712 -3.2233384 0.7626667 0
-4.2789745 4.4937744 -0.3358798 0
-4.283751 4.2590542 1.4617022 0
5.2775946 -3.2315176 -0.57598972 0
5.1994581 -3.2410016 1.0443709 0
5.1675515 -3.2359169 1.2124052 0
5.2845106 -3.2366338 0.51120514 0
-5.0075569 -3.2366629 1.7661074 0
5.2660522 -3.2348893 -0.6994766 0
5.2924972 -3.2425416 -0.43961293 0
-4.2706351 4.4892082 -0.59516126 0
-5.1752877 -3.233963 1.2569244 0
-4.2788491 4.4351377 0.92944783 0
5.2743301 -3.2291024 0.78024518 0
5.1960015 -3.2383668 1.1812754 0
5.1720877 -3.2310555 1.3075684 0
-4.2791595 4.3743939 1.208801 0
-5.5906162 2.7643864 -0.10917789 0
-4.2951388 4.5026245 0.43882281 0
5.2863817 -3.2380176 -0.72117376 0
5.2954049 -3.2446926 0.64727485 0
-5.6005464 2.766701 0.17000952 0
-5.3268046 -3.2302227 0.49578837 0
-4.2865176 4.4979043 0.6968683 0
-5.3377762 -3.2368758 0.34939808 0
-5.0015483 -3.232779 1.9078605 0
5.2763591 -3.2306035 0.91707379 0
5.2677422 -3.237191 0.947519 0
-5.5903826 2.7631211 0.49549696 0
5.3553333 -3.2297471 -0.14882761 0
5.0858688 -3.2355268 1.6729515 0
-5.599719 2.767736 0.34912941 0
-5.5991096 2.766366 -0.39033067 0
5.3580699 -3.2333653 0.034793377 0
-4.2898779 4.198565 1.7726946 0
-5.5973563 2.7659574 0.44933331 0
-4.2826447 4.4390717 1.0733203 0
5.1811862 -3.2444551 1.35677 0
5.3584418 -3.2338569 0.21812816 0
5.3554955 -3.2299621 -0.33384633 0
5.196547 -3.2387826 1.3214477 0
5.156147 -3.2287755 1.4971788 0
5.3688049 -3.229404 -0.17024213 0
5.3710089 -3.2309856 -0.032514304 0
5.1667147 -3.2235138 1.4927443 0
5.2587919 -3.2250011 1.1300516 0
5.2741146 -3.2289431 1.0545683 0
5.3661466 -3.2274954 0.37787151 0
-4.276557 4.2553792 1.7219464 0
-5.3228822 -3.227844 0.78598773 0
5.3605642 -3.2366631 0.40133327 0
-5.5962644 2.7660284 0.64066857 0
-4.2787461 4.493649 0.95525706 0
-5.3403544 -3.2384393 0.64059818 0
5.3734703 -3.2327528 -0.31030506 0
5.3765926 -3.2349937 0.24130407 0
-4.2850695 4.1436453 1.9772297 0
-5.5924306 2.7648094 0.72867554 0
-5.5993247 2.7664163 -0.67277396 0
5.3610811 -3.2373455 -0.52190101 0
5.3725891 -3.2321203 -0.45100206 0
-4.2820549 4.4384604 1.2173182 0
-4.2702503 4.6101995 0.18004322 0
-5.1710982 -3.2326646 1.5308657 0
5.3600006 -3.2359173 0.58477437 0
-4.2752533 4.3723273 1.4687846 0
5.3713923 -3.231261 0.51471925 0
-4.271894 4.2005177 1.9164581 0
-5.5961766 2.765985 0.78598821 0
-4.2839484 4.1927624 1.9151942 0
5.3918152 -3.2459211 0.10336328 0
-5.3268981 -3.2302794 0.9310118 0
-4.2856812 4.6189375 -0.08051604 0
-4.2804303 4.6159644 -0.34119219 0
5.3577642 -3.2329609 0.7685802 0
5.3625655 -3.2393076 -0.71137643 0
-4.2762876 4.4324822 1.3610499 0
-5.5955687 2.7656844 0.93128997 0
5.2852907 -3.2372103 1.1975998 0
5.3855119 -3.2413964 -0.59746891 0
-4.2846923 4.6183777 0.43964651 0
5.2633872 -3.2312596 1.3180014 0
5.3824453 -3.2391953 0.65314603 0
5.1709552 -3.2380481 1.6435848 0
5.3783822 -3.2362785 -0.74082255 0
5.3740578 -3.2331746 0.79043609 0
-4.2782612 4.4933839 1.2156289 0
-5.596868 2.7658436 1.0095294 0
-5.3300829 -3.2322106 1.0763668 0
-4.2826271 4.617208 -0.60409415 0
5.2769222 -3.2310202 1.3374212 0
5.1743212 -3.2341907 1.6862723 0
-5.5932779 2.7645524 1.0766304 0
5.3605852 -3.2366903 0.95428216 0
-4.2811227 4.6163564 0.69964153 0
5.4504552 -3.2297838 -0.15389842 0
5.4451532 -3.2229803 0.40204304 0
5.3762836 -3.2347722 0.93025357 0
-4.2786303 4.4349108 1.506386 0
5.4562774 -3.2221456 -0.32004434 0
5.4614434 -3.2257431 -0.17927042 0
5.4550323 -3.2356575 0.21707644 0
5.364347 -3.2262037 1.0684299 0
5.4602699 -3.242379 0.031156749 0
5.4542694 -3.2346785 -0.34169167 0
-4.2705078 4.3698168 1.7311649 0
-4.2759027 4.2550449 1.9868749 0
5.1651602 -3.2344193 1.7877718 0
-5.3327966 -3.2338562 1.2221726 0
5.4636312 -3.2272666 0.37925863 0
-4.2756319 4.69414 0.34192103 0
5.3568406 -3.2317402 1.1401877 0
5.4745865 -3.2348952 0.10015483 0
5.4763632 -3.2361324 -0.040300548 0
5.475235 -3.2353468 0.23989458 0
-5.1758976 -3.2341521 1.8093754 0
5.4563847 -3.2373936 -0.53109992 0
-5.6014009 2.7685671 1.2229803 0
-4.2807803 4.6161623 0.96062738 0
-4.2777042 4.6964149 0.49006858 0
-5.5937696 2.7651215 1.2914736 0
5.4731216 -3.2338753 -0.46715552 0
5.2739096 -3.2455914 1.5113783 0
-5.3254919 -3.2294266 1.3675079 0
5.4651756 -3.2283418 -0.6107465 0
-4.2731042 4.7350531 -0.082981288 0
5.5020518 -3.2294462 0.19031692 0
5.4545822 -3.23508 -0.72161746 0
-4.2826877 4.4391165 1.6530205 0
5.4794989 -3.2383161 0.51955891 0
5.4669509 -3.250953 0.58881295 0
-4.2758446 4.7366571 -0.34611332 0
5.3760419 -3.2345986 1.2141776 0
-4.2903614 4.5000086 1.4804766 0
-4.2826905 4.701889 0.6379379 0
5.5125694 -3.2356195 0.038755894 0
5.5150995 -3.2371047 -0.11289984 0
-4.2761388 4.7368293 0.44054878 0
5.3576717 -3.2328393 1.3291998 0
5.1680689 -3.2362409 1.9346821 0
-4.276464 4.6950531 0.78599131 0
5.470952 -3.2323644 -0.76047051 0
-4.2914777 4.7458072 0.178541 0
5.5129013 -3.2358143 0.33892208 0
5.4632196 -3.2461641 0.77511525 0
5.4823389 -3.2402937 0.66033769 0
-4.2763128 4.3571577 1.9362683 0
-5.6088243 2.7722363 1.3701572 0
5.4536748 -3.2339156 0.96097296 0
-4.2789974 4.738502 -0.61113924 0
-5.3299961 -3.2321579 1.5146928 0
-4.2829857 4.6174111 1.2235448 0
5.5463548 -3.2281139 0.028944641 0
5.4814615 -3.2396829 0.80166554 0
5.519908 -3.2399268 0.48783654 0
5.4673414 -3.2298501 0.9415797 0
-4.2757502 4.7366018 0.70254201 0
5.5463715 -3.2281344 0.21619049 0
5.2746687 -3.2466252 1.7047299 0
-5.5832801 2.7626765 1.5744209 0
5.5457087 -3.2273095 -0.34794635 0
-5.5992808 2.7675195 1.516149 0
5.5172825 -3.2383857 0.63706613 0
5.5032163 -3.2301295 0.78599215 0
5.553401 -3.2368944 -0.15997323 0
-4.2846479 4.7040381 0.9341132 0
-5.5620532 -3.2327082 -0.11398572 0
-4.2890201 4.4456797 1.8014295 0
5.3887939 -3.2437522 1.3636568 0
5.3563166 -3.2310479 1.5200554 0
5.5689063 -3.2295399 -0.046651691 0
5.4511156 -3.2306316 1.1491421 0
5.5540447 -3.2376969 0.40342355 0
-4.276886 4.492631 1.7435716 0
5.468235 -3.2304723 1.085398 0
-4.2788324 4.6976538 1.081993 0
5.5757904 -3.2341888 0.095801562 0
5.5511832 -3.2341306 -0.54000813 0
-5.5637708 -3.2332139 -0.3977505 0
-5.5748086 -3.2364628 0.16835409 0
5.577816 -3.2355568 -0.19173616 0
5.5511971 -3.2341483 0.59086084 0
5.5068955 -3.2322891 0.93463862 0
5.5676899 -3.2287185 -0.48174876 0
5.5733562 -3.2325451 0.38089028 0
-5.5673199 -3.2342584 0.45090967 0
5.5801134 -3.2371082 0.23836741 0
5.5790033 -3.2363589 -0.3373484 0
-4.2762804 4.4324751 1.9462298 0
-5.5957308 2.7657645 1.6633806 0
-4.2624612 4.8539367 0.17801118 0
5.5451226 -3.2265785 0.778216 0
5.5728741 -3.2322197 0.52341408 0
-5.3417959 -3.2393136 1.6641268 0
5.5505953 -3.2333977 -0.73293781 0
5.4663343 -3.2291491 1.2304726 0
-4.2891431 4.744441 0.96686149 0
-5.5564389 -3.231056 0.73307908 0
5.567203 -3.2283897 0.66587192 0
-4.2795177 4.6984057 1.230467 0
5.5047498 -3.2310297 1.0833304 0
5.4505377 -3.2298901 1.3397386 0
-4.2884068 4.620481 1.4894896 0
-4.2782698 4.8634963 -0.086655945 0
-5.5712733 -3.2354221 -0.6841203 0
-4.2733932 4.8605471 -0.3514713 0
5.583868 -3.2396438 -0.63482147 0
5.5677977 -3.2287912 0.80965185 0
5.5742292 -3.233135 -0.78340995 0
-5.5902591 2.7630601 1.8110417 0
-4.2814426 4.8654151 0.44177604 0
-5.3365345 -3.2361228 1.8119061 0
5.3654404 -3.2431085 1.7185094 0
5.5546584 -3.2384613 0.96910203 0
-4.2796025 4.7388563 1.2306254 0
5.5356293 -3.2147486 1.155472 0
5.509377 -3.2337456 1.2327788 0
-4.2815061 4.7005887 1.3796537 0
5.6509676 -3.23435 -0.16519076 0
-4.2852464 4.8677154 -0.61991113 0
5.6543336 -3.2384236 0.024952233 0
5.4817929 -3.2399137 1.3834103 0
5.6549549 -3.2391751 0.2148442 0
-5.6023726 2.7671268 1.8656634 0
5.6404467 -3.2216179 0.59330523 0
-4.2856789 4.8679767 0.70650971 0
5.5839682 -3.2397113 0.95769715 0
-5.5757232 -3.2367318 1.0182406 0
5.6552181 -3.2394941 -0.35759717 0
5.4562416 -3.23721 1.5352335 0
-5.3268094 -3.2302253 1.9595498 0
-4.2869477 4.5228977 1.9584677 0
5.6589565 -3.2440188 0.4046655 0
5.5097318 -3.233954 1.3825023 0
5.6816759 -3.2336915 -0.055068582 0
5.5749035 -3.2335899 1.1028407 0
5.6802797 -3.2327776 -0.20202374 0
5.6841497 -3.2353113 0.091040015 0
-4.2866206 4.6194696 1.7572201 0
-5.5962582 2.7660253 1.9619631 0
5.6695709 -3.2257669 0.52744681 0
5.6839895 -3.2352061 0.23687592 0
-4.2850776 4.7045097 1.5299032 0
5.6598105 -3.2450516 -0.55221367 0
5.6741238 -3.2287471 -0.49897987 0
-4.2769136 4.8626761 0.97123134 0
5.687921 -3.2377801 -0.35183829 0
5.6516938 -3.2352293 -0.74562311 0
-5.6938086 -3.23311 0.32806361 0
5.5683665 -3.2291756 1.2499032 0
-4.2820134 4.7402678 1.4980788 0
5.6532993 -3.2371719 0.78491104 0
5.6940222 -3.2417743 0.3827334 0
5.6760616 -3.230016 0.67388153 0
-5.6950412 -3.2338097 0.48091781 0
5.4533997 -3.2335622 1.730834 0
5.5117073 -3.2351136 1.5331172 0
5.5566411 -3.2409317 1.3542154 0
-4.276845 4.9902163 0.17655179 0
-5.6916833 -3.2319031 0.63362974 0
-5.574646 -3.2364149 1.303952 0
5.6463828 -3.2288015 0.97529411 0
5.6733732 -3.228256 0.82041019 0
-4.2842264 4.7035751 1.680297 0
-4.2843041 4.994874 -0.090530366 0
-4.2871461 4.986939 0.32605687 0
5.6942844 -3.2419462 -0.65634358 0
-4.2826858 4.9817505 0.47996601 0
-4.2827587 4.9939089 -0.35827845 0
-4.2741241 4.8609891 1.2377152 0
-4.2780743 4.9763865 0.63322902 0
5.5727081 -3.2321074 1.402318 0
5.500627 -3.2286098 1.6825328 0
-4.2861547 4.9960299 0.44303983 0
-5.6965199 -3.2346492 0.78599703 0
5.7536106 -3.2351143 0.021742314 0
5.7527575 -3.234112 0.21381508 0
5.7560191 -3.2379458 -0.17133695 0
5.7509747 -3.2320158 -0.36444771 0
-4.2820735 4.9934812 -0.62766439 0
-5.6916118 -3.2318625 0.93836224 0
-4.2788687 4.6976933 1.8305193 0
-4.2808833 4.9796538 0.78599745 0
5.5561724 -3.2403476 1.5501125 0
5.6913538 -3.2400277 0.97188824 0
5.6551828 -3.2394516 1.1704631 0
5.760551 -3.243273 0.40579489 0
-5.5596986 -3.2320154 1.5897553 0
5.7860498 -3.2292416 -0.062533379 0
-4.2913699 4.9992862 0.71036696 0
5.6784329 -3.2315686 1.1193812 0
5.7574863 -3.2396705 -0.56150019 0
-4.2850518 4.7420464 1.7688447 0
5.7836914 -3.2277453 -0.36372757 0
-5.6910591 -3.2315485 1.0908635 0
5.7589359 -3.2413747 0.59808844 0
-4.2694187 4.985579 0.9763025 0
-6.0248995 2.7657526 0.32235318 0
5.793303 -3.2338428 -0.2137596 0
5.7964435 -3.2358353 0.086078331 0
5.794445 -3.2345674 0.23526134 0
-6.0092297 2.7585592 0.63207459 0
5.7508698 -3.2318923 0.79004169 0
-6.0238595 2.7652752 0.47723433 0
-4.2887793 4.9888387 0.93914855 0
5.7933512 -3.2338734 0.38411608 0
5.7555485 -3.2373922 -0.75891554 0
-4.2745466 4.9722829 1.0914479 0
5.7864318 -3.2294836 0.5327003 0
5.5475311 -3.2295797 1.7456425 0
5.5151086 -3.2371099 1.8372027 0
5.652967 -3.2367699 1.3654116 0
-4.2831669 4.8664575 1.5084556 0
-4.2919278 4.6880856 1.9800961 0
5.7966833 -3.2359872 -0.51976728 0
-4.2811551 4.7002039 1.9836628 0
5.6829691 -3.2345381 1.2726212 0
5.788878 -3.2310357 0.68222642 0
5.665947 -3.2233942 1.4218296 0
-5.7004957 -3.236907 1.2444701 0
-4.2798042 5.1220064 0.17527579 0
5.8016157 -3.2391169 -0.67681855 0
5.7594118 -3.2419345 0.98544657 0
-4.2865958 5.1263838 -0.094324023 0
-6.0322318 2.7691185 0.78599948 0
5.8509493 -3.2269061 -0.17603245 0
-4.2760105 5.1195617 0.44404542 0
-4.2818232 4.9807472 1.2453692 0
-4.2749839 4.9890542 1.2460382 0
5.8471265 -3.2225411 0.40650833 0
-4.2865167 5.1263328 -0.36476266 0
-6.0218096 2.764334 0.94024575 0
5.8590403 -3.2361462 0.018091112 0
-5.6930785 -3.2326953 1.3972738 0
5.513701 -3.2362835 1.9903744 0
5.8588371 -3.2359145 0.2125814 0
-5.5569992 -3.2312207 1.8801252 0
5.8558631 -3.232518 -0.37290931 0
5.6536083 -3.2375457 1.5638156 0
5.8057127 -3.2417159 0.83496416 0
5.7893176 -3.2313147 0.98418283 0
-4.2746859 4.972445 1.398248 0
5.8514576 -3.2274868 -0.56976432 0
-4.2843676 5.1249475 -0.63654989 0
-4.2786984 5.1212935 0.71323168 0
5.7593799 -3.2418964 1.1813631 0
-4.2755351 4.8618426 1.7791619 0
-6.0208311 2.7638848 1.0946096 0
5.8914614 -3.2344542 0.00031173229 0
5.8607435 -3.2380917 0.60144442 0
5.8879008 -3.2324994 0.316237 0
-6.1302285 2.7649701 0.1609969 0
-6.1203513 2.7628164 -0.43474859 0
5.8999195 -3.2390978 0.15757465 0
5.9003191 -3.2393172 -0.16013491 0
-6.138413 2.7667546 -0.13721111 0
5.9071989 -3.232219 -0.22551632 0
5.9016323 -3.2287984 -0.37966096 0
5.7985096 -3.2371461 1.1395879 0
-4.2726603 5.1174021 0.98272043 0
-5.7025642 -3.2380817 1.5526184 0
5.9135981 -3.2361515 -0.072319061 0
5.8619676 -3.2394893 -0.77274036 0
5.9143286 -3.2366004 0.080816612 0
5.8963976 -3.2371643 0.47265688 0
5.7537489 -3.2352774 1.3777759 0
-6.1341548 2.7658262 0.45847327 0
-4.2789502 4.9774051 1.5533273 0
-6.0251489 2.765867 1.2496663 0
5.9150333 -3.2370336 0.23345309 0
-4.2792044 4.9916897 1.518306 0
5.8897061 -3.2334905 0.6295917 0
5.8655515 -3.243582 0.79737169 0
5.6551709 -3.2394369 1.7659034 0
5.7874584 -3.2301352 1.2923478 0
5.914978 -3.2369998 0.3859458 0
-6.1235948 2.7635236 0.75581634 0
5.8555536 -3.2321646 0.99225163 0
-4.2779131 4.8405843 1.9976614 0
-5.6932497 -3.2327924 1.7062805 0
5.8918982 -3.234694 0.78600186 0
5.9177332 -3.2386925 0.53879285 0
-4.2729158 5.2497883 -0.097266674 0
-6.0188136 2.7629588 1.4043558 0
-6.1387591 2.7668302 -0.73739779 0
5.9230423 -3.2419553 -0.54121596 0
5.9114285 -3.2348182 -0.69779754 0
5.9138885 -3.23633 0.69174892 0
5.9587154 -3.2277906 -0.18235233 0
5.9605484 -3.2298243 0.014805555 0
5.953948 -3.2225006 -0.37998849 0
-4.2857013 5.2582898 0.17388667 0
5.8508759 -3.2268226 1.1890244 0
-4.2802649 5.2546749 -0.37045544 0
-4.2763886 5.2520971 0.44531816 0
-4.2762213 5.1196971 1.2547599 0
5.9112835 -3.2347293 0.845505 0
5.7571363 -3.2392595 1.5794755 0
5.9679832 -3.2380736 0.21128789 0
5.7963171 -3.235755 1.4529871 0
-4.2883859 4.9883809 1.710674 0
5.9666314 -3.2365739 0.40807688 0
5.9028759 -3.2295625 0.99929219 0
5.9066243 -3.2427788 0.94286191 0
5.9620819 -3.2315261 -0.58187962 0
-6.0225906 2.7646925 1.5606952 0
-4.2819858 5.2558188 -0.64510697 0
-6.1337752 2.7657435 1.0553507 0
-4.2810225 5.2788968 0.46939617 0
-5.6993108 -3.2362342 1.8633586 0
5.8947172 -3.2362416 1.0992587 0
-5.9979358 -3.2341349 -0.13596657 0
-4.288939 5.2886586 0.30978423 0
-5.9985642 -3.2343102 0.16125381 0
5.9544449 -3.2230518 0.80119419 0
5.9690342 -3.2392395 0.6052587 0
-4.2844896 5.2574844 0.71739513 0
-4.2836981 4.9944959 1.7940145 0
-4.2788582 5.276228 0.62786567 0
-5.9931464 -3.2327993 -0.43385327 0
-4.2810216 4.979815 1.8654931 0
-5.9977565 -3.2340851 0.45813158 0
5.9061203 -3.2315564 1.1567552 0
-4.2756672 5.2722931 0.78600377 0
5.8574362 -3.2343142 1.3908032 0
5.9675326 -3.2375739 -0.78609049 0
6.03158 -3.2336299 0.075638801 0
-4.2763834 5.2520938 0.98944765 0
-6.0222869 2.7645531 1.7174509 0
-4.2783999 5.1211014 1.529179 0
5.7598038 -3.2423947 1.7845241 0
5.9015775 -3.2400079 1.25686 0
6.0358105 -3.2361472 -0.081468552 0
6.0268936 -3.2308414 0.38756183 0
6.0330048 -3.2344775 -0.23887831 0
-5.9953923 -3.2334256 -0.73411417 0
6.0351777 -3.2357705 0.23166993 0
-4.2747641 5.2711797 0.94399089 0
6.0312586 -3.2334385 -0.39761007 0
5.96457 -3.2342861 1.0013366 0
5.889442 -3.2333455 1.4133166 0
-6.1371827 2.7664864 1.3565996 0
6.032557 -3.2342112 -0.55865335 0
-6.009521 -3.2373655 0.75599694 0
-4.2705512 5.3829288 0.17288822 0
6.0390444 -3.238071 0.54421639 0
6.0696831 -3.2290614 0.01097554 0
5.9552593 -3.2239559 1.1996655 0
5.9212961 -3.2408822 1.3198715 0
5.858325 -3.2353294 1.5940529 0
-4.2778311 5.3879213 -0.10153177 0
6.0720472 -3.2316105 0.21014541 0
6.0340061 -3.2350733 0.70068485 0
6.0330739 -3.2345185 -0.72179413 0
6.0688477 -3.2281611 0.40917248 0
-4.2824473 5.280654 1.1027181 0
-6.0236893 2.765197 1.8755288 0
-5.9921374 -3.232518 1.0531616 0
6.0250511 -3.2297454 0.85714197 0
-4.2811484 5.3901963 -0.3771553 0
-4.2837381 5.2569847 1.2647655 0
6.079937 -3.2401168 -0.39202368 0
6.0864239 -3.2471106 -0.19113934 0
5.9149656 -3.2369919 1.4801297 0
-4.2862673 5.3937068 0.44684446 0
6.072926 -3.232558 -0.59384698 0
6.0726357 -3.2322452 0.60865206 0
5.8974752 -3.2377558 1.5724995 0
-4.2752414 5.1190658 1.8055983 0
6.0634012 -3.2222893 0.80757749 0
-6.1057224 -3.2390018 0.30262011 0
-4.279819 5.3892846 0.72105813 0
6.0341835 -3.2351787 1.017549 0
-4.2892652 5.3957624 -0.65546447 0
-4.2890635 5.2888122 1.2622403 0
-6.0936661 -3.2326057 0.62542826 0
-6.1102242 -3.2413898 0.46380302 0
5.8616304 -3.2391045 1.8016844 0
5.9707384 -3.2411306 1.4064213 0
5.8903594 -3.233849 1.7305493 0
-4.2765126 5.2521801 1.5403006 0
-5.9980903 -3.2341781 1.3538581 0
-6.099473 -3.2356863 0.78600711 0
-6.1526246 2.7698534 1.6626384 0
6.0359921 -3.2362549 1.1788304 0
-4.2865682 5.2857351 1.4214216 0
6.1594615 -3.2335017 -0.090688109 0
6.0759726 -3.2358425 1.0107079 0
-4.2863188 5.3937421 0.99710387 0
6.1599884 -3.2338049 -0.25229293 0
-6.0931177 -3.2323151 0.94657135 0
-4.2723475 5.2681994 1.5789351 0
6.1629057 -3.2354848 0.22974828 0
6.1663761 -3.237483 0.069439888 0
6.1585798 -3.2329938 -0.41497844 0
6.1662669 -3.2374198 0.38971943 0
5.966918 -3.2368915 1.6109737 0
-4.262218 5.377214 1.2708377 0
6.1858969 -3.232662 0.0066643357 0
6.0368123 -3.236743 1.3421985 0
6.1614676 -3.2346566 0.54966331 0
6.0729065 -3.232537 1.2132425 0
6.1645966 -3.2364583 -0.58102494 0
6.1890688 -3.235985 -0.19658458 0
-6.0943265 -3.2329559 1.107374 0
-4.2753544 5.5237088 0.17141512 0
6.1530848 -3.22983 -0.74515951 0
6.1910977 -3.2381108 0.20863871 0
5.9010787 -3.2397342 1.8926032 0
-4.2822123 5.5285578 -0.10593221 0
6.162365 -3.2351735 0.71038127 0
6.1901617 -3.2371299 -0.40103126 0
-6.122828 2.7633562 1.9641914 0
-4.2835054 5.5294724 -0.38428795 0
-5.9920468 -3.2324929 1.6556052 0
6.1973124 -3.244621 0.41091841 0
-4.284132 5.5299153 0.44817257 0
6.1890411 -3.2359564 0.61297441 0
-4.2706327 5.5203705 -0.66233057 0
6.1604929 -3.2340956 0.87176448 0
-4.278698 5.2760305 1.7408462 0
6.1910706 -3.2380817 -0.60730755 0
-6.0955005 -3.2335789 1.2685869 0
-4.2791238 5.2539163 1.8205874 0
6.041358 -3.2394476 1.509451 0
6.1813569 -3.2279055 0.81500745 0
6.0720005 -3.23156 1.4183306 0
-4.2773438 5.5251155 0.72501975 0
5.9695745 -3.2398393 1.8210416 0
6.168684 -3.2388115 1.0362251 0
-4.2758627 5.5931721 0.29362291 0
6.1834941 -3.2301447 1.0192456 0
-4.271771 5.5211754 1.0024307 0
6.1550627 -3.230969 1.1982865 0
-4.2763324 5.5937867 0.45801276 0
-4.281981 5.3907671 1.5533031 0
-6.1060114 -3.2391548 1.4313749 0
-4.2847762 5.2835255 1.9042203 0
-4.2771873 5.5949054 0.62206793 0
6.0738716 -3.233578 1.6270714 0
6.290195 -3.2313328 0.063951984 0
6.2878079 -3.2300036 -0.26571995 0
-6.0906334 -3.2309971 1.5920007 0
6.2958398 -3.2264941 -0.20248628 0
6.3016653 -3.2324245 0.0024526417 0
-6.5135078 2.7666759 0.29107898 0
6.3012128 -3.237468 -0.10165089 0
6.1851568 -3.2318866 1.2253511 0
-6.49686 2.7596045 0.62169313 0
6.2934308 -3.2331347 0.39161411 0
-5.9953046 -3.2334013 1.9621451 0
6.3026295 -3.2382569 0.22760214 0
-6.5128784 2.7664087 0.45638654 0
6.306396 -3.2372406 0.20724961 0
-4.268806 5.5839415 0.94963276 0
6.1620898 -3.2350149 1.3669585 0
-4.2816153 5.600697 0.78601128 0
6.3160424 -3.2353191 -0.043576241 0
6.3166075 -3.2356086 -0.21157724 0
6.3067846 -3.2376363 0.4121601 0
6.3158364 -3.2352135 0.28971702 0
-4.2795954 5.6670966 -0.11005482 0
6.2989397 -3.2362025 0.55597258 0
6.3222542 -3.2385011 0.12277293 0
6.310617 -3.2325399 0.45572075 0
-4.2808814 5.6680341 0.16986765 0
6.308002 -3.2412486 -0.43621677 0
6.3105268 -3.2414463 -0.41169304 0
-4.2805395 5.5273752 1.2832203 0
6.3037996 -3.2345974 -0.6193316 0
-4.277771 5.6657672 0.44946522 0
6.291347 -3.2319744 -0.77318037 0
-6.5087285 2.7646458 0.78601187 0
-4.2823677 5.669117 -0.39133179 0
6.3108368 -3.2428272 -0.60637116 0
6.1570959 -3.2321398 1.5352267 0
6.3154368 -3.235009 0.62083006 0
6.2966924 -3.2273619 0.82199275 0
-4.2713747 5.6611061 -0.6724816 0
6.3043094 -3.2391925 0.72136104 0
6.3139577 -3.2449386 0.61786669 0
6.0771179 -3.237077 1.8399404 0
-4.2871251 5.3942952 1.8371481 0
-6.1063833 -3.2393522 1.7576448 0
-4.2756853 5.6642475 0.72920132 0
6.1922498 -3.2393172 1.435447 0
6.3130078 -3.2337646 0.78601247 0
-6.5140195 2.7668931 0.95076466 0
6.3060246 -3.2401476 0.88768011 0
-4.2868972 5.6076059 1.114821 0
-6.0903988 -3.2308726 1.9193033 0
-4.2769318 5.5945706 1.2785242 0
-4.2772226 5.5250297 1.5648372 0
6.3002052 -3.236907 1.0542034 0
6.3071213 -3.2379792 1.0304964 0
6.3230481 -3.2389078 0.95139462 0
-4.2786798 5.6664295 1.0103326 0
-6.5245538 2.7713678 1.1162297 0
6.1912251 -3.2382438 1.6464226 0
6.3212266 -3.2379746 1.1168606 0
6.3015938 -3.232352 1.2382331 0
6.4203458 -3.2318084 -0.21050447 0
6.4235659 -3.2349942 -0.0021521449 0
6.3041053 -3.2390788 1.2242736 0
-4.2795038 5.5979347 1.4439244 0
6.4177117 -3.2292025 0.41342252 0
6.4247885 -3.2362039 0.20580374 0
-6.5194588 2.7692034 1.2813994 0
6.4340477 -3.2325466 -0.11163801 0
6.4341764 -3.2326159 0.22563535 0
6.4333887 -3.232192 -0.28152817 0
6.4382586 -3.2348132 0.057057947 0
6.4279895 -3.2393706 -0.42169279 0
6.1788654 -3.2252953 1.8563246 0
-4.276001 5.8077469 -0.1142872 0
6.4365788 -3.2339091 0.3938123 0
6.4357195 -3.2334466 -0.45336676 0
-4.2715158 5.804379 -0.39760637 0
6.2991953 -3.2363446 1.3946543 0
-4.2805753 5.8111815 0.16838592 0
-4.2828588 5.6694751 1.2936264 0
6.3260546 -3.2404478 1.2831134 0
6.4268956 -3.2382886 -0.63350749 0
-4.2766633 5.8082442 0.45092869 0
6.4296875 -3.2410505 0.6220035 0
6.3011951 -3.2319462 1.4491493 0
6.4349155 -3.2330139 -0.6266107 0
6.4416013 -3.2366126 0.56254101 0
-4.2815332 5.6005902 1.6101387 0
-6.5243864 2.7712967 1.447867 0
-4.2856994 5.5310235 1.8521088 0
-6.4749188 -3.2339511 -0.16009107 0
6.4246869 -3.2361033 0.83043873 0
-6.4663882 -3.2317035 -0.47378951 0
6.2917576 -3.232203 1.5666336 0
-6.4819512 -3.2358038 0.15310329 0
6.4427543 -3.2372329 0.73190308 0
-6.4718385 -3.2331395 0.46611419 0
-4.2761946 5.8078923 0.73369992 0
-4.2819128 5.8121858 -0.68455422 0
6.3271513 -3.2410095 1.44977 0
-4.2739654 5.5906906 1.7751944 0
-6.5177259 2.7684677 1.6138377 0
6.4402785 -3.2359004 0.90188891 0
6.297194 -3.2278726 1.6617213 0
-4.2754374 5.6640668 1.5774493 0
-6.4666629 -3.2317758 0.77904367 0
6.31041 -3.232434 1.614867 0
6.4288964 -3.240268 1.0412495 0
-6.4702792 -3.2327285 -0.79036975 0
6.440166 -3.2358401 1.0735667 0
6.4162588 -3.2277653 1.2505376 0
-4.2824883 5.8126178 1.0182068 0
6.5358825 -3.2248375 -0.21731532 0
-6.7473598 2.7658949 0.15045241 0
-6.7486014 2.7661471 -0.16849771 0
6.5424051 -3.231108 -0.0064688027 0
-6.5397696 -3.2323685 0.27582181 0
-6.5201058 2.7694786 1.7817575 0
6.4341092 -3.2325799 1.2458328 0
6.3088899 -3.2316554 1.7823913 0
6.5508251 -3.2392032 0.20419216 0
-4.280304 5.5989819 1.9445168 0
-6.5330939 -3.229069 0.61637151 0
6.5460067 -3.2345707 -0.43165553 0
-6.7548518 2.7674167 0.46908104 0
-6.4717526 -3.2331169 1.0936749 0
6.5378389 -3.2267177 -0.64480788 0
-6.5493798 -3.2371182 0.44569549 0
-6.7594666 2.7683539 -0.48956525 0
-4.275806 5.9387436 0.27422202 0
-4.2745147 5.8066306 1.3028183 0
6.5569296 -3.2450716 0.41535568 0
-6.533011 -3.229028 0.78601801 0
6.5476389 -3.2361395 0.62624931 0
6.5803871 -3.2309484 0.050568521 0
-6.5068741 2.7638581 1.9481121 0
-4.2784414 5.9560165 -0.1190992 0
-4.2785673 5.9425788 0.44490919 0
-4.2719049 5.9333253 0.61582154 0
6.5769897 -3.229182 0.39594015 0
-4.2736349 5.9522991 -0.40559852 0
6.3110352 -3.2419636 1.8841695 0
6.5842648 -3.2329645 -0.2979477 0
6.437717 -3.2345219 1.4225038 0
6.5917382 -3.2368505 -0.12400901 0
6.427206 -3.2385957 1.4673542 0
-6.758472 2.768152 0.78842556 0
6.5913129 -3.236629 0.22317809 0
-4.2792974 5.9566789 0.45253584 0
-4.2903628 5.9652381 0.16662002 0
-4.286087 5.6718273 1.8681308 0
6.549047 -3.2374938 0.83831298 0
-4.2681932 5.7231269 1.7809078 0
6.3148842 -3.2347257 1.9523243 0
-4.2759981 5.9390106 0.78601891 0
6.578311 -3.2298691 0.74208498 0
6.5979362 -3.240073 -0.47656828 0
6.5932083 -3.2376146 0.56958878 0
-4.2691865 5.9295497 0.95610768 0
6.4280272 -3.2293062 1.5982887 0
-6.7425561 2.7649195 1.1074556 0
-4.2825136 5.9591665 -0.69555247 0
6.5917115 -3.2368364 -0.65389889 0
-4.280643 5.9577198 0.73864508 0
6.5459394 -3.2345059 1.051044 0
-4.2698975 5.803164 1.5898463 0
-6.5607343 -3.2427304 0.95638347 0
-6.4842811 -3.2364178 1.4115477 0
6.4241128 -3.2355354 1.6836573 0
-6.5453639 -3.2351334 1.1261337 0
-4.2693987 5.9490223 1.0245299 0
6.5885272 -3.2351809 0.91793758 0
6.5402703 -3.2290561 1.2647421 0
-6.5347395 -3.2298822 1.2958241 0
-4.2782574 5.9421487 1.1271051 0
6.581501 -3.2315276 1.0930344 0
6.6746774 -3.236521 -0.011695564 0
6.6718216 -3.2338531 -0.44280785 0
6.6739745 -3.2358644 0.41672802 0
-6.7458377 2.7655859 1.4297084 0
6.6809206 -3.2423537 -0.22757983 0
6.6815786 -3.2429683 0.20249036 0
6.4218659 -3.2333124 1.9034892 0
6.538651 -3.2274992 1.481357 0
-4.2819605 5.9472919 1.2985549 0
6.5842943 -3.23298 1.2716739 0
6.6748919 -3.2367213 -0.6616537 0
-6.4829383 -3.236064 1.7307949 0
6.6785688 -3.2401564 0.63137472 0
-4.2724857 6.1009889 0.16540229 0
-4.2752218 5.8071618 1.8820779 0
-6.5527811 -3.2387996 1.468502 0
-4.2816968 6.1083264 -0.12416235 0
-4.2744675 5.9368849 1.4690698 0
-4.2932763 5.9674916 1.3166232 0
-4.2792807 6.1064019 0.45414937 0
6.6831346 -3.2444222 0.84724492 0
6.5840168 -3.2328358 1.4521776 0
6.6633501 -3.2259386 1.0607843 0
-4.2881212 6.1134448 -0.41530114 0
-6.5435114 -3.2342179 1.6393092 0
6.743072 -3.2334192 -0.31533778 0
-4.2759104 6.1037169 -0.70587432 0
6.7507701 -3.2372828 0.042465508 0
6.7434387 -3.2336032 0.39856261 0
6.7523508 -3.2380762 -0.1365715 0
6.7595367 -3.2416825 0.22052301 0
-4.2852421 6.1111512 0.74379992 0
6.7448115 -3.2342923 0.57658511 0
6.7512841 -3.237541 -0.49801522 0
6.734271 -3.2290022 0.75420171 0
-4.2798853 5.9571338 1.6058869 0
-6.7558045 2.7676101 1.7560519 0
6.5552249 -3.2434328 1.706601 0
6.7776499 -3.2297869 0.2609393 0
-6.5378466 -3.2314179 1.8111314 0
-4.2683048 6.0976582 1.0324845 0
-4.2845812 5.9509315 1.6432531 0
6.7517114 -3.2377553 -0.68167669 0
6.7905407 -3.2231591 -0.23349714 0
6.7923374 -3.2367859 0.083504498 0
6.5931034 -3.23756 1.6384212 0
-4.2680855 5.9280205 1.8127925 0
-4.2759104 5.9253263 1.8049181 0
6.6741066 -3.2359879 1.2808836 0
6.7949057 -3.2380099 -0.09389317 0
6.7883816 -3.234901 0.43573043 0
6.8012776 -3.2329056 0.20107238 0
6.8035402 -3.2349594 -0.01660803 0
6.7788429 -3.2303555 0.61121804 0
6.7974739 -3.2294528 -0.45379102 0
6.7477851 -3.2357845 0.93538529 0
6.8043442 -3.2425077 -0.27346122 0
6.8026776 -3.2341764 0.41836065 0
6.7287579 -3.2262352 1.1134233 0
6.7921309 -3.2246025 0.6352005 0
6.5465221 -3.2350662 1.9277303 0
-4.2654963 5.9460034 1.8969338 0
6.6720791 -3.2340939 1.5010641 0
-6.5469289 -3.2359071 1.9864913 0
6.7993798 -3.2401421 0.78602505 0
6.814137 -3.2445791 -0.67872024 0
-4.2844777 6.1105418 1.3266193 0
-4.2739415 5.9361544 1.9884161 0
-4.2763009 6.2571478 0.16363685 0
6.8034854 -3.2349098 0.85442668 0
6.7928314 -3.2370214 0.96119213 0
-4.2866235 6.2656155 -0.12954554 0
-4.2784514 6.2589116 -0.42264438 0
6.7490396 -3.2364142 1.3004956 0
-4.2803755 6.2604899 0.45585516 0
6.7854118 -3.2334857 1.1361666 0
-7.0727024 2.7674901 0.43223321 0
6.8027525 -3.2342446 1.0740664 0
-7.0678797 2.7656031 0.60934615 0
-7.0874891 2.7732761 0.25374663 0
-4.2816572 6.2615414 -0.71860611 0
6.8984604 -3.2276983 -0.33214062 0
-4.2836547 6.2631803 0.74874437 0
6.9063878 -3.2315359 0.035283446 0
6.6815338 -3.2429268 1.7276869 0
6.8982744 -3.2276084 0.40094054 0
6.7889743 -3.2351835 1.3119891 0
-7.0718193 2.7671447 0.78602678 0
-4.2836232 6.1098614 1.6212895 0
6.9150476 -3.2357283 0.21813421 0
-4.2809844 6.3207335 0.25211895 0
6.9171095 -3.2367265 -0.14944854 0
6.7570267 -3.2404227 1.4885448 0
5.368741 5.4336634 0.18524919 0
5.3839712 5.42272 0.072546661 0
-4.2718782 6.3072886 0.60869282 0
5.0648985 5.7234392 0.072437227 0
5.5393629 5.2679906 0.072282612 0
-4.2806168 6.3201904 0.43044063 0
-7.0632825 2.7638044 0.96259236 0
5.387146 5.4259176 -0.10780793 0
5.5233955 5.2900367 -0.060978174 0
6.9087057 -3.2326581 0.58425152 0
6.8081555 -3.2391489 1.2968407 0
5.218236 5.5944147 -0.068140954 0
5.596673 5.213326 0.18680754 0
6.8955545 -3.2262919 0.76675344 0
5.0947108 5.709311 0.01758337 0
5.3300982 5.4889374 -0.17300227 0
5.5369596 5.2657051 0.43008378 0
6.9159451 -3.2361629 -0.52131116 0
5.1540494 5.6538277 0.21268478 0
5.2338314 5.5830784 -0.10858589 0
5.325367 5.4820905 0.4058598 0
5.4515629 5.3716226 -0.063016146 0
5.5431595 5.2716012 0.2510308 0
5.2722259 5.5444226 0.21316262 0
-4.2796774 6.2599173 1.0421832 0
5.609951 5.2073607 0.023619503 0
5.2732348 5.5459285 -0.17432544 0
5.5463362 5.2746224 -0.10873652 0
5.4962702 5.3160515 -0.36249661 0
5.5260286 5.294971 0.1861434 0
5.2164516 5.6038675 0.018861711 0
5.4955587 5.3151116 0.40523899 0
5.1523008 5.6510496 -0.37233335 0
5.5011477 5.3224993 -0.16997296 0
5.3904729 5.437593 0.020935148 0
5.555645 5.2647743 0.21421924 0
5.3895254 5.4362631 -0.1722163 0
5.333704 5.4941554 0.020217478 0
5.4524307 5.3733068 0.18552917 0
5.3891864 5.4357872 0.21356198 0
5.4463186 5.3804092 -0.17116874 0
5.5951109 5.2104964 0.43253607 0
5.4475975 5.3821507 0.021535039 0
5.1581173 5.6602907 0.018017411 0
-7.052268 2.7594943 1.1387985 0
6.9406571 -3.237077 -0.022037297 0
5.446167 5.3802018 0.21376526 0
5.6116829 5.2095189 -0.16812006 0
5.5022597 5.3239689 0.21396717 0
5.2720685 5.544188 -0.36934054 0
5.2214622 5.6013961 0.18372113 0
5.6658854 5.1524038 -0.16723973 0
5.0977015 5.7142167 0.21230663 0
5.2716851 5.5436158 0.40622047 0
5.5598869 5.2702179 0.022663087 0
5.4926949 5.3113256 -0.55645323 0
5.7448807 5.0679846 -0.056513786 0
5.3017025 5.5298424 -0.06694293 0
5.1425595 5.6781583 -0.070499778 0
5.5551457 5.2641335 -0.36184275 0
5.3794503 5.455193 -0.065216243 0
5.0748949 5.7347355 0.2504583 0
5.8241634 4.9784985 0.02548185 0
5.6682796 5.1553011 0.023804843 0
5.5595651 5.2698045 -0.16942877 0
5.03824 5.7705817 -0.18001017 0
6.6688352 -3.2310631 1.9507809 0
6.9351954 -3.2322595 0.42006212 0
6.9423537 -3.2385733 0.19917127 0
5.1599298 5.6631703 -0.17752767 0
5.0782423 5.7385182 -0.10977161 0
6.9336686 -3.2309129 -0.46637279 0
5.8198795 4.9737458 -0.35540026 0
5.2158718 5.6029749 -0.3715654 0
5.2194624 5.6085029 0.21273619 0
5.7030082 5.1202106 0.07042551 0
5.5072975 5.3306284 0.02183038 0
6.9124341 -3.234463 -0.70941591 0
5.4376888 5.3686552 0.59698761 0
5.6047735 5.2279959 -0.060155451 0
5.6755877 5.1483192 0.18712248 0
-4.2758198 6.313108 0.78602767 0
5.3027487 5.532023 0.18421215 0
5.2423449 5.5921602 0.070342839 0
5.4469805 5.3813095 -0.36530471 0
5.6154599 5.2142258 0.21426368 0
6.9435987 -3.239671 -0.24443978 0
5.2985601 5.5232906 0.43501881 0
5.0413265 5.7758121 0.016033739 0
5.3901482 5.4371376 0.40586698 0
5.2813005 5.5579653 0.018997967 0
5.3376222 5.499825 0.21316396 0
5.6127996 5.2109103 -0.36110795 0
5.3919387 5.4396505 -0.3671484 0
5.2415228 5.5912833 0.25002813 0
6.7906127 -3.2359641 1.4883704 0
5.7052693 5.1222405 -0.11029238 0
5.7237673 5.1000323 -0.16698214 0
5.7252035 5.1017208 0.024039954 0
5.2222829 5.6128445 -0.1767571 0
5.3351145 5.4961963 -0.36882424 0
5.3856421 5.4308124 -0.56167352 0
5.1453481 5.6844258 0.18294999 0
5.6129146 5.2110538 0.40506536 0
5.4483032 5.383112 0.40569776 0
5.6714578 5.1591473 0.21439198 0
5.7485561 5.074213 0.1876017 0
5.1588669 5.6614819 0.40687311 0
5.7764206 5.0417948 0.2147651 0
5.7467871 5.0712152 -0.3019793 0
5.4014215 5.4402962 0.24986327 0
5.52847 5.2995453 0.43334714 0
6.7496471 -3.2367194 1.6756732 0
5.6688004 5.1559315 -0.36021537 0
5.5605707 5.2710958 0.40532067 0
5.7729564 5.0378389 0.40454313 0
5.1047964 5.7258554 -0.1796498 0
5.5550418 5.2639999 -0.55652165 0
5.3792973 5.454886 0.43456456 0
5.331027 5.4902821 -0.56441534 0
5.820569 5.0000095 -0.055499226 0
5.2402425 5.5899172 0.42910498 0
5.2940359 5.5138597 0.68541396 0
4.9211187 5.8898969 0.013965309 0
5.0403471 5.7741523 0.40747559 0
5.2728605 5.5453701 0.59960747 0
5.2239676 5.6068158 0.43578312 0
5.6760015 5.149045 0.43229213 0
5.6826401 5.1606708 -0.059077054 0
5.1029248 5.722785 -0.37662858 0
5.6709228 5.1584997 0.40499339 0
5.4004898 5.4393573 0.42896956 0
5.72896 5.1061373 0.21445617 0
5.0667753 5.7649784 0.18220983 0
4.9849701 5.8388481 0.014659524 0
5.7039361 5.1210437 0.42894503 0
5.2224598 5.6131163 0.40675986 0
5.783412 5.0497794 0.024107456 0
5.6733389 5.144381 -0.55199313 0
5.3899651 5.4368806 0.59841901 0
6.9359999 -3.232969 0.64111185 0
5.6810555 5.1578956 -0.30565059 0
5.5239363 5.2910504 0.6804384 0
5.6131973 5.2114058 -0.55570108 0
5.8868055 4.9318991 0.025068939 0
5.8591447 4.9643359 0.069005907 0
5.856307 4.9619317 0.24920285 0
5.5574241 5.2670574 0.59652698 0
5.7258034 5.1024265 0.40485883 0
5.7794099 5.0452089 -0.35865998 0
5.6671872 5.1539788 -0.55404788 0
5.8920727 4.9263864 -0.054192483 0
5.1456542 5.6851134 0.43646318 0
5.6652937 5.1516876 0.59534955 0
5.0689926 5.7701607 -0.073376954 0
5.3743372 5.4449129 0.68401456 0
5.7844591 5.0509748 -0.16720238 0
5.7127147 5.1289253 0.24909413 0
5.6124282 5.2104478 0.59598792 0
5.0746355 5.7344422 0.60777205 0
5.8218632 5.0021324 -0.30017489 0
5.8361545 4.9918032 -0.166336 0
5.7186937 5.094069 0.59483361 0
5.4929466 5.3116584 0.78818369 0
4.9857211 5.8401628 0.21140668 0
5.8190646 4.997541 0.43128371 0
5.2788754 5.5543456 -0.5681566 0
5.3271737 5.4847054 -0.76175702 0
4.9860888 5.8436375 0.18148848 0
5.3357944 5.4971805 0.59937525 0
5.5510211 5.2790775 0.60770112 0
6.8030887 -3.2345498 1.519857 0
5.7303801 5.1078067 -0.36054516 0
5.2206984 5.610405 -0.57049322 0
5.219573 5.6086731 0.60083866 0
5.6040626 5.2000232 0.78645492 0
5.8939171 4.929317 0.18844064 0
5.8633885 4.9679317 -0.11236477 0
5.889802 4.9351301 -0.16584384 0
5.0662007 5.7636356 0.43716469 0
5.8892641 4.9345498 0.21483697 0
4.8616629 5.9500241 0.21077463 0
5.0469427 5.7853279 -0.37967831 0
5.0861816 5.7474899 0.42851132 0
5.4425812 5.3753185 -0.75745559 0
-4.2767148 6.3144293 0.96356338 0
5.9397869 4.8748298 0.21499181 0
5.7485099 5.0741348 -0.54916775 0
5.0506067 5.7915368 0.21157208 0
5.856071 4.9617319 0.42848262 0
5.1011429 5.719862 0.6024642 0
5.7531366 5.081975 0.43195564 0
4.9850845 5.8390489 0.40797096 0
4.9277663 5.9012709 0.068194032 0
5.2214651 5.6014018 0.68794441 0
4.9263506 5.8993726 0.21101293 0
5.1028519 5.7226658 -0.57559896 0
5.2721038 5.5442405 -0.7653017 0
5.8937283 4.9290166 -0.2980479 0
5.1413708 5.6754861 0.6897465 0
5.1636019 5.6690044 -0.57344073 0
5.4631209 5.3940487 0.43427816 0
5.2427378 5.5925794 0.60757864 0
5.401125 5.4399972 0.60757488 0
5.8285007 5.01302 0.18779989 0
5.2711921 5.5428801 0.79340446 0
5.9305124 4.8651137 -0.54753941 0
5.72647 5.10321 -0.55391866 0
5.8413391 4.9975557 0.2145898 0
5.7050929 5.1220822 0.6075474 0
5.5444646 5.2728424 0.78602844 0
-4.2765899 6.1262994 1.8283293 0
5.7142782 5.0888782 0.78510094 0
4.928298 5.9028988 -0.18529397 0
4.9852715 5.8416486 0.43787402 0
5.4557719 5.3932838 -0.56336683 0
5.5543141 5.2630663 0.78808141 0
4.9052372 5.9251599 -0.077627599 0
4.922924 5.895472 0.42824185 0
4.9244947 5.8960114 0.40832007 0
5.0438256 5.7800465 -0.57858378 0
5.993372 4.8185658 0.2150467 0
5.9449782 4.8802681 -0.16565627 0
5.1109152 5.7358928 0.40753651 0
5.9645605 4.8555517 0.1888611 0
6.9435105 -3.2395937 -0.69346416 0
5.4444733 5.3778954 0.79029596 0
5.4562578 5.380733 0.68295336 0
6.7808099 -3.2312927 1.6641231 0
5.1646433 5.6706591 0.60202467 0
5.694943 5.1129699 0.7860285 0
5.7403965 5.0603867 -0.79565752 0
4.9921041 5.8513412 -0.18409425 0
5.510879 5.3353629 0.59788084 0
4.9050417 5.924665 0.18070501 0
5.676199 5.1493897 0.67779624 0
5.6047764 5.2280016 0.67955577 0
5.7814789 5.0475717 -0.55294025 0
4.8671679 5.9603395 0.012069762 0
4.7587008 6.0430574 0.24808067 0
5.997365 4.8226314 0.02521053 0
5.8922005 4.937716 -0.35812747 0
5.8224134 5.0030346 -0.54634887 0
5.9641728 4.8549547 -0.29590917 0
5.5038433 5.3260627 -0.75689495 0
-4.2771826 6.2578712 1.3372955 0
5.9680166 4.8608718 -0.053443968 0
5.8325067 4.9877563 0.59457129 0
4.9025097 5.9182453 0.43857455 0
5.0451465 5.7822847 0.60376012 0
5.8409958 4.9971747 0.40480128 0
5.8177099 4.9953194 0.67461133 0
5.1572394 5.658896 0.79648578 0
5.6140966 5.2125268 -0.75265932 0
4.8201351 5.9991746 0.18002568 0
4.9315124 5.9057565 0.24792624 0
5.6678596 5.1547928 -0.75055611 0
5.5600367 5.2704096 -0.7549665 0
5.3926287 5.4406195 -0.76205027 0
5.9495516 4.8850594 0.024603218 0
5.2375851 5.5870829 0.78602862 0
4.9910192 5.8494415 -0.383039 0
5.3961077 5.4349442 0.78602862 0
5.3914056 5.4389024 0.7918998 0
5.0990019 5.7163501 -0.77536225 0
4.9284048 5.9030924 -0.38501847 0
4.8643842 5.9551229 0.40872627 0
4.9933252 5.8612418 -0.076244891 0
6.0151343 4.8069954 0.067095101 0
5.8937502 4.9393868 0.4046782 0
5.9999533 4.8252664 -0.16554511 0
4.9814806 5.8324275 0.69401222 0
6.0343733 4.7817483 0.18926528 0
4.7401958 6.0700436 0.01000759 0
4.985229 5.8393011 0.6047678 0
5.3719869 5.4401884 0.93411273 0
6.0507193 4.766129 0.025334477 0
5.0654564 5.7618961 0.69230586 0
5.945652 4.8809743 0.40455648 0
6.9232335 -3.239691 0.95492005 0
5.7851076 5.0517154 0.59542739 0
6.0367298 4.785265 -0.052119851 0
5.8984628 4.9365392 0.43110836 0
5.8944807 4.9302115 -0.54340744 0
4.7659593 6.0522752 0.066759706 0
5.16187 5.6662536 -0.7735194 0
5.9650755 4.8563442 0.4305554 0
5.7766957 5.0421095 -0.74758017 0
5.8899941 4.9353371 -0.55124193 0
5.3371601 5.4991565 0.7934891 0
5.0404754 5.7743697 -0.77918172 0
4.9875679 5.8433976 -0.58278787 0
6.0510769 4.7664828 -0.16505903 0
5.8603358 4.9653454 0.60722268 0
4.8234763 6.0080147 -0.08013463 0
4.8709097 5.9673505 -0.18785417 0
5.8885536 4.933784 0.59446579 0
4.8675098 5.9609795 -0.38769776 0
6.0190358 4.8101134 -0.1146909 0
5.221241 5.6112404 0.79598975 0
5.7259355 5.102582 -0.75003207 0
5.4388924 5.3702941 0.9830268 0
5.8407249 4.9968748 -0.55316949 0
5.962604 4.8525395 -0.53987879 0
5.9498272 4.8853478 -0.35829335 0
-7.0714245 2.7669902 1.3171031 0
6.9409275 -3.2373154 0.86352819 0
4.9247599 5.8976703 0.60716581 0
4.6766191 6.1267376 0.0088004172 0
6.1012435 4.7069778 -0.16456634 0
4.8073702 6.0217338 -0.18948576 0
6.0360804 4.784296 -0.29421389 0
4.9262714 5.899229 -0.58574462 0
6.1037712 4.7084756 -0.050769538 0
5.4963408 5.3161445 0.98191094 0
-4.2761512 6.4137793 -0.13409135 0
5.103374 5.7235222 0.79881072 0
4.8082047 6.0233531 0.21007451 0
4.7427521 6.0751839 0.20978351 0
-4.276022 6.3134065 1.1412342 0
5.2249446 5.6169419 -0.77204907 0
-4.2881269 6.1134491 1.9204924 0
5.5519156 5.2599883 0.98059762 0
5.232131 5.5812645 0.96411783 0
5.3900976 5.4288907 0.96411824 0
6.0546284 4.7699962 0.21489255 0
4.9270453 5.9006305 0.60607731 0
5.2702608 5.5414906 0.98834181 0
6.0195103 4.8104925 -0.2970854 0
4.8055267 6.0181565 -0.39038002 0
6.0304689 4.7759218 -0.53661555 0
5.9946632 4.819881 -0.54946065 0
6.002727 4.8280902 -0.35776103 0
5.6743593 5.1626582 0.78780359 0
-4.277494 6.4149132 0.16185908 0
4.8105211 6.0278468 0.010315537 0
4.8055825 6.0182648 0.40922558 0
6.0219626 4.8124523 0.24690062 0
4.8643579 5.9550738 0.60701752 0
5.527935 5.2985435 0.92934752 0
5.6012249 5.2215691 0.92648816 0
4.6782656 6.1301699 -0.19294971 0
5.8204374 4.9997935 -0.79394853 0
4.9832673 5.835866 0.8019352 0
6.0039949 4.829381 0.40461794 0
4.8229852 6.0067153 0.43951505 0
4.7457476 6.0812054 -0.19169211 0
5.0456309 5.7831054 0.80068243 0
5.5480042 5.2762089 0.96425951 0
5.3011642 5.5287194 0.93835247 0
5.782939 5.0492387 0.78640056 0
5.9964542 4.8217039 0.59412134 0
6.9133544 -3.2349086 1.1402553 0
4.7392941 6.0882645 0.1790566 0
5.6752462 5.1477218 0.92402565 0
6.104104 4.7097278 -0.35638863 0
6.102747 4.7084231 0.40435839 0
4.7434373 6.0765605 -0.39333373 0
5.7600694 5.0937223 0.67747998 0
4.6773806 6.128325 -0.39548451 0
6.1090569 4.7144895 0.21488886 0
5.2164593 5.603879 0.99109775 0
5.3333626 5.4936609 0.98784584 0
5.223659 5.6061487 0.94159228 0
5.456562 5.3813229 0.93286085 0
4.7409225 6.0927668 -0.082799852 0
4.8684888 5.9628148 -0.59022909 0
5.0898638 5.7516503 0.78602928 0
5.8367138 4.9924235 0.78580904 0
6.1119833 4.7173033 0.024822474 0
-7.0093141 -3.234417 0.14419116 0
5.1435199 5.6803169 0.94460583 0
-7.0086522 -3.2342527 -0.18719459 0
5.8398228 4.9958739 -0.74901104 0
5.8607345 4.965683 0.78602928 0
4.923358 5.8939519 0.80379987 0
6.0405784 4.7910085 0.43032932 0
6.1741076 4.6375475 -0.049843997 0
6.110733 4.7185502 0.18942738 0
4.9049859 5.9245229 0.69699168 0
5.1586347 5.6611128 0.99319339 0
4.8050928 6.017314 -0.59320962 0
6.0580926 4.7734237 0.40459254 0
5.9663715 4.8583398 0.6726858 0
5.0627346 5.7555361 0.94781053 0
6.1093988 4.716619 -0.2929278 0
