# .PCD v0.7 - Point Cloud Data file format
VERSION 0.7
FIELDS x y z intensity
SIZE 4 4 4 4
TYPE F F F F
COUNT 1 1 1 1
WIDTH 1460
HEIGHT 1
VIEWPOINT 0 0 0 1 0 0 0
POINTS 1460
DATA ascii
7.0897903 5.5225201 -0.11563671 0
5.7097979 6.908536 0.67229617 0
6.0571098 6.5409541 1.1441553 0
5.6424174 6.9902287 -0.29883343 0
6.8865075 5.7278237 -0.75103498 0
-3.0389895 8.3677092 1.2446312 0
6.4178472 6.2083268 1.0368955 0
6.7529578 5.8657074 0.89628923 0
6.0619082 6.5558405 1.0484629 0
5.4870062 7.1218467 -0.056927472 0
5.6936502 6.9167204 0.76094532 0
7.0324011 5.6021872 -0.042091072 0
6.2719646 6.3414388 1.139765 0
7.0222645 5.592442 -0.51277387 0
5.5599337 7.0467906 -0.54543304 0
7.0110765 5.5816855 -0.74878192 0
5.9700918 6.6426105 1.0516065 0
5.5061274 7.1087093 -0.14693007 0
5.4872847 7.1223683 0.18757983 0
7.0865951 5.5182958 0.45127124 0
5.7927494 6.83741 0.75930512 0
7.0910153 5.5254741 -0.27667946 0
5.40802 7.1871395 -0.058035135 0
7.0937915 5.5278096 0.16792054 0
7.014585 5.6163559 -0.40300059 0
7.0950375 5.5292315 -0.041843623 0
6.1332197 6.480154 1.1434121 0
5.4871092 7.1220398 -0.30236089 0
7.1682167 5.4341903 -0.11446801 0
5.8768663 6.7288785 1.0548081 0
5.744051 6.8788161 0.78606582 0
5.4848075 7.1177263 0.43172836 0
7.0947366 5.5289507 0.1926212 0
6.9587398 5.664453 0.66100574 0
5.9901395 6.6157398 1.1471205 0
6.345202 6.2780137 1.1390646 0
5.7874584 6.8456936 -0.78391349 0
5.5971656 7.0044823 0.76313841 0
-3.0337238 8.3993664 1.1058739 0
5.6327372 6.9732752 -0.78886187 0
5.7327914 6.8653321 0.99427629 0
7.0065918 5.6054692 -0.68886989 0
5.5663381 7.0583892 0.4314971 0
7.1570821 5.4558954 -0.041631907 0
6.2067394 6.4160862 1.1423284 0
7.0910444 5.5255013 0.42669064 0
5.5090575 7.1158381 0.15747914 0
5.5599742 7.046864 0.67469835 0
7.0226984 5.5928593 0.66078568 0
5.5578609 7.0579076 0.57693881 0
6.8246012 5.8017879 0.89651185 0
6.6153879 5.9998922 1.1338694 0
5.7128468 6.913703 -0.78707218 0
5.4858689 7.1197157 -0.54896355 0
5.6299253 6.9683509 0.91602939 0
5.4121351 7.1951227 0.18706447 0
5.7847977 6.8202052 1.0586051 0
6.8290057 5.7860799 0.9944278 0
6.7587223 5.8626695 1.027184 0
6.1043797 6.5117178 1.2018478 0
5.8460865 6.753324 1.1516526 0
6.9601312 5.6658297 -0.7523104 0
7.021174 5.6109719 0.57684046 0
7.1934977 5.4179869 0.15623301 0
6.6788173 5.955121 1.0300853 0
5.9327722 6.704154 0.99446613 0
5.5078564 7.112915 0.46186572 0
5.7092896 6.9076753 0.9149245 0
8.1457205 -3.7226007 0.97174788 0
6.8395467 5.7731743 1.0246893 0
7.1609545 5.4594102 -0.27726513 0
5.9224958 6.6907945 1.1502385 0
7.1964774 5.4202313 -0.055124819 0
6.2911882 6.3364668 1.2020148 0
8.1300755 -3.7197516 1.1140609 0
5.3643193 7.229548 0.36670876 0
7.0289001 5.6171465 -0.47867227 0
6.4713092 6.1542811 1.2020752 0
6.9376073 5.709239 -0.69423008 0
7.1717563 5.4387321 0.45107496 0
6.7506566 5.8632264 1.1325238 0
6.6869073 5.9357529 1.1338141 0
7.0141344 5.6053462 0.78606629 0
7.0908065 5.525279 0.66094017 0
5.4144812 7.1996756 -0.30542475 0
7.1789432 5.4479551 0.16812095 0
6.5573206 6.0798955 1.1366475 0
7.1014671 5.5379558 -0.40204322 0
6.8163691 5.7753735 1.2022443 0
7.0864444 5.521204 -0.75085688 0
7.0988488 5.5327926 -0.51456112 0
6.1962523 6.401803 1.3809322 0
5.3723869 7.2404208 -0.055736065 0
5.7903442 6.8504281 0.9142772 0
6.8967805 5.7382822 0.89691323 0
7.0896187 5.5222931 0.73502183 0
5.3352389 7.2663107 0.18656224 0
5.3364105 7.2686653 -0.060151547 0
6.6504331 5.9708171 1.2024037 0
-8.2628431 3.2331822 1.6145189 0
7.153286 5.4524493 0.66076326 0
6.4130445 6.2001886 1.3291106 0
7.160893 5.4593549 -0.51405662 0
5.4148951 7.2004786 0.43244073 0
5.4092908 7.2030573 0.46268255 0
7.0940957 5.5282111 -0.68768436 0
6.337894 6.2686353 1.3776456 0
7.1649508 5.4630384 0.42690098 0
6.8186584 5.7955618 1.1321949 0
5.3745294 7.2433081 0.15526307 0
7.1790261 5.4480619 -0.39993751 0
7.0176191 5.6204886 0.73689318 0
5.4137874 7.2144575 -0.15026307 0
6.9617281 5.6674094 0.89653164 0
7.1721644 5.4695864 0.19232899 0
5.5052233 7.1065111 0.76620555 0
7.2563748 5.3589687 0.16850093 0
6.5004911 6.1153536 1.3257009 0
7.214457 5.3785682 0.66057038 0
7.2251949 5.3880386 0.4268117 0
6.1502337 6.4646606 1.3416275 0
-8.1993923 -3.7639616 0.15508342 0
7.2904067 5.3174629 -0.04207325 0
-8.1941795 -3.7615688 0.36605844 0
6.2405238 6.3793392 1.3377098 0
7.2893791 5.3165822 0.19256116 0
5.4864349 7.1207757 -0.79811287 0
5.4151635 7.2179461 0.15643811 0
7.2326298 5.3945961 0.1924153 0
7.2060165 5.4274158 -0.26853693 0
7.2036538 5.4256363 0.36596507 0
7.0035076 5.6012683 1.020763 0
5.5628095 7.0641923 0.78606671 0
6.9275951 5.6951857 1.0235287 0
6.6094208 5.9930778 1.3713926 0
5.567688 7.0608335 -0.79590917 0
7.2600465 5.363544 -0.11454916 0
6.4780073 6.1352344 1.3750563 0
5.3387437 7.2733569 -0.30818236 0
7.2330136 5.3949347 -0.27820182 0
5.4930568 7.1331844 0.677001 0
6.2740998 6.3442616 1.3809929 0
6.0616198 6.5552802 1.3464274 0
6.3317213 6.2973995 1.3344201 0
7.0278172 5.5977802 0.8964178 0
7.2563753 5.3589692 -0.39802116 0
7.3322005 5.2689795 -0.113094 0
7.1981921 5.4215231 0.57628894 0
5.9156022 6.6801815 1.391938 0
6.412765 6.207747 1.3774368 0
5.9895048 6.6147928 1.3897396 0
7.2387471 5.3999915 -0.04286772 0
5.5639448 7.0540552 0.91974086 0
5.7837744 6.8396506 1.1566343 0
6.8889852 5.7303462 1.1324492 0
7.204494 5.4262695 -0.48172498 0
5.9325647 6.7039199 1.2030784 0
6.5895009 6.0344481 1.3230113 0
5.4181595 7.2068119 -0.5545727 0
5.5988522 7.0084233 1.0670375 0
-8.2771797 3.2331135 1.6255318 0
6.6725183 5.9454241 1.3192935 0
-8.1939421 -3.7614596 0.57618266 0
5.7084875 6.9063163 1.1588988 0
6.4668937 6.1500816 1.410219 0
7.1604395 5.4589429 -0.75279772 0
7.2970753 5.3231769 -0.27831262 0
6.5508451 6.0722833 1.3748279 0
6.1053591 6.5127625 1.4104042 0
8.1430511 -3.720505 1.2384237 0
5.7006283 6.9324031 1.0645032 0
5.3381963 7.2722559 -0.55730611 0
6.1388388 6.4880414 1.3866706 0
5.4068441 7.1848583 0.92336637 0
6.8092017 5.785655 1.368498 0
5.9172754 6.6866426 1.410537 0
5.9734116 6.6492853 1.3518322 0
5.4173374 7.2052169 0.67850101 0
7.1543317 5.4533982 0.89588261 0
6.9563818 5.6621203 1.1323559 0
5.3354273 7.2666893 0.67943585 0
5.879097 6.7335286 1.3560431 0
5.409606 7.2038555 0.76906586 0
7.2535343 5.3554292 -0.68298262 0
5.3429961 7.2819057 0.4331418 0
7.2630558 5.3672943 0.45108542 0
7.1820569 5.451951 -0.68683475 0
5.7837257 6.8178859 1.360425 0
7.0981436 5.5321336 0.89693296 0
-3.0338554 8.3995533 1.4271055 0
5.3783154 7.2484112 0.57595527 0
7.1809659 5.450551 0.73495507 0
7.3356199 5.2731175 0.45061052 0
5.4907913 7.1289396 0.92244518 0
6.2951803 6.340487 1.4109511 0
7.2999959 5.3256793 0.4270829 0
7.0240564 5.6132755 0.99537897 0
6.0711846 6.5613213 1.3900167 0
5.6366405 6.9801111 1.1623061 0
6.6876273 5.9365516 1.3729262 0
7.1997437 5.4226913 0.78606731 0
6.6503401 5.9707336 1.4111296 0
5.7479091 6.8834367 1.2038126 0
7.2979655 5.3239398 -0.51568085 0
7.3648143 5.2544069 0.19225544 0
-2.9910903 8.5340614 0.36481375 0
7.0936751 5.5276551 1.0203133 0
6.7633319 5.8695478 1.3176581 0
7.3413949 5.2801061 -0.39736795 0
5.5661135 7.068388 0.99550527 0
-8.1956215 -3.7622304 0.78606743 0
6.2756162 6.3207822 1.6177106 0
7.2441654 5.4047704 -0.51720709 0
7.3694859 5.2582951 -0.043238819 0
5.5512862 7.0495586 1.204054 0
5.320693 7.3234301 -0.153833 0
5.8529816 6.7642784 1.3978164 0
6.7560306 5.86902 1.3723431 0
7.0266085 5.5966182 1.1329138 0
-2.994411 8.5435362 0.15291339 0
7.3479466 5.2880354 0.16845171 0
7.2900343 5.3171439 -0.7533356 0
7.1696019 5.4359679 1.0179961 0
7.3756661 5.2304683 -0.48490822 0
7.3803382 5.2337813 0.36459491 0
-8.2600107 3.2320743 1.822971 0
8.1423512 -3.7254784 1.3494208 0
6.125093 6.4687476 1.6268277 0
5.3758521 7.245091 0.78606755 0
7.3842664 5.236567 -0.27219379 0
6.4040723 6.1969147 1.6174005 0
7.3694086 5.2582312 -0.27948135 0
7.3871436 5.2386074 0.1527034 0
5.5070562 7.1109695 1.0722044 0
7.388514 5.2395797 -0.05964607 0
7.2614183 5.3652534 0.73406404 0
7.236011 5.3975787 -0.75523663 0
5.5636225 7.0534716 1.1657702 0
7.0899186 5.5244493 1.1324606 0
-3.0444393 8.3774137 1.6231807 0
7.430511 5.1836891 -0.043231755 0
6.8477983 5.7851152 1.3149225 0
7.2278299 5.3903627 0.89699709 0
7.3013349 5.3268266 0.66222745 0
5.3239689 7.3320951 0.15515286 0
6.4748516 6.1314154 1.6162156 0
6.0570869 6.5409217 1.6307191 0
6.3400078 6.271348 1.6210248 0
5.782567 6.8376708 1.4018253 0
6.9279838 5.6957307 1.3115935 0
6.3250046 6.2856364 1.6293796 0
5.4864788 7.1208577 1.1685226 0
7.3710628 5.2596078 0.42728651 0
7.0196867 5.6097836 1.2046578 0
7.4250164 5.199893 0.16876639 0
5.6956763 6.9212737 1.3675207 0
6.2378192 6.3744411 1.6348825 0
6.2729955 6.3428016 1.6241087 0
7.4332604 5.1859117 -0.2797876 0
6.8341837 5.7904668 1.4125328 0
5.4077973 7.1992712 1.0761263 0
7.4216905 5.1959839 -0.39624161 0
8.1207085 -3.7153811 1.5810748 0
7.4275541 5.2028761 -0.11364996 0
7.2913151 5.3182411 0.89704901 0
6.2041068 6.4125009 1.6269698 0
7.4370418 5.1889687 0.1920051 0
-2.9873061 8.5626564 -0.17288432 0
5.7090483 6.9072661 1.4052883 0
6.6124883 5.9965811 1.6135875 0
5.6314669 6.9710507 1.4078561 0
5.323555 7.3310003 0.46422672 0
6.4159083 6.2050414 1.6255686 0
6.8943496 5.7358069 1.3722075 0
6.9557791 5.6615243 1.3707408 0
5.3738537 7.2423973 0.99600583 0
5.7447705 6.8796782 1.4129107 0
5.5984831 7.0075617 1.3724581 0
5.4095631 7.1901336 1.1716689 0
7.3741026 5.2621379 -0.51792693 0
-8.1968994 -3.7628171 0.99602824 0
7.4338474 5.1863861 0.42732322 0
5.9671803 6.6367569 1.6517694 0
7.3690147 5.2579031 0.66260672 0
6.471725 6.1546764 1.6199496 0
6.1523552 6.4686356 1.6415358 0
6.1084394 6.5160484 1.6199949 0
7.4327092 5.1854658 -0.51751989 0
7.4141293 5.1870952 0.73196411 0
7.2564821 5.3591022 1.0174361 0
7.3476534 5.2876806 -0.68382961 0
7.3647485 5.2543521 -0.75595963 0
6.5886059 6.0330262 1.6165423 0
5.3426447 7.281199 0.92834866 0
7.0134158 5.6147628 1.3096856 0
7.4272985 5.2025757 0.4506951 0
-2.9929023 8.570879 0.14879568 0
6.6478305 5.9684806 1.6202275 0
8.1438847 -3.7211597 1.5078638 0
-2.9973159 8.5518236 0.57511735 0
7.4276714 5.1813936 0.66244042 0
7.2096 5.4301152 0.99617875 0
7.3798094 5.2334065 0.78606826 0
7.3470573 5.2869592 0.73371637 0
7.3928809 5.2426763 0.57508814 0
7.500802 5.1163363 0.19192457 0
5.9953132 6.6234603 1.6372273 0
5.9229097 6.6930094 1.6205454 0
6.554595 6.0766912 1.6180232 0
7.5045671 5.1153316 0.16897652 0
7.0915103 5.5247941 1.3065583 0
7.1675448 5.4653931 1.1345596 0
7.4212675 5.1954865 -0.6809622 0
6.0643177 6.5605159 1.6479467 0
6.75564 5.8580699 1.6077148 0
6.5083661 6.1282711 1.622674 0
6.6866922 5.935514 1.614293 0
7.3330655 5.2700262 1.015624 0
5.5541239 7.0531621 1.4139365 0
-2.9910436 8.5681486 -0.4964993 0
7.0279393 5.5978975 1.3718868 0
6.7536759 5.8664818 1.6131757 0
7.509326 5.1230273 -0.044481575 0
5.3226914 7.3287163 0.77352923 0
6.677948 5.953783 1.6135916 0
-2.9958408 8.5476151 0.78606856 0
-2.9890957 8.5283709 0.99644113 0
7.5061269 5.1171131 -0.39584458 0
7.3727655 5.2284112 0.9964748 0
5.8799648 6.7353377 1.6597353 0
-8.1917725 -3.7604635 1.205954 0
7.5046182 5.1193318 0.42756015 0
7.512496 5.1243863 -0.11344457 0
5.9278021 6.6989632 1.6422503 0
7.0183625 5.6087255 1.4144032 0
7.0921917 5.5265732 1.3715026 0
7.2010059 5.4236422 1.2060164 0
5.5644693 7.0550041 1.4142545 0
5.7776694 6.8296361 1.6482024 0
7.5681729 5.0470767 -0.063280523 0
7.50281 5.1179123 -0.51908392 0
-2.9969196 8.5767832 0.47072899 0
7.5114865 5.1247234 -0.28180504 0
8.305788 -3.7084224 0.17555468 0
5.7391462 6.8729429 1.6221005 0
5.8560133 6.7690954 1.6462178 0
5.5078573 7.1129179 1.3800831 0
7.3723454 5.2606754 0.89921564 0
5.3399615 7.2758045 1.1771927 0
7.5103245 5.1219063 0.45057607 0
7.2389503 5.4001708 1.1357534 0
7.4390764 5.1906133 -0.75865901 0
7.4291267 5.18257 0.89872259 0
7.5721192 5.0492725 0.19165611 0
-2.987391 8.5627813 0.79229224 0
5.7883368 6.8278632 1.6668108 0
-3.0364399 8.4032364 1.7517964 0
7.5857797 5.0330935 0.16910818 0
7.5745401 5.0513229 0.14932883 0
7.5867476 5.0341673 -0.1124942 0
6.8470631 5.7840509 1.6061695 0
6.2850389 6.3302732 1.8288864 0
6.9515324 5.6573224 1.6107212 0
6.8369536 5.7928143 1.6227547 0
6.4652033 6.1484742 1.8290733 0
6.1275067 6.4721355 1.8750314 0
7.5775142 5.0533843 -0.045075178 0
5.4071627 7.1976624 1.3851165 0
7.5701408 5.0477648 0.42770049 0
7.1875896 5.4135375 1.4153862 0
6.829638 5.8070645 1.6148831 0
6.4748344 6.1313939 1.8614603 0
-2.9866986 8.5919523 0.49921566 0
5.3806567 7.2515664 1.2067044 0
6.2702093 6.339119 1.8697753 0
5.6300554 6.9685793 1.6568797 0
7.5738029 5.0508313 0.36200052 0
7.3027382 5.3280292 1.1358526 0
7.1626759 5.4609733 1.3726761 0
6.1042852 6.5116167 1.8294721 0
7.418087 5.1917472 1.0151551 0
6.8937645 5.7352114 1.6135201 0
7.507453 5.1186271 -0.68073231 0
5.4106789 7.1922975 1.4219718 0
7.5073314 5.1214619 0.66374874 0
8.3184929 -3.7181046 -0.093900412 0
8.3104763 -3.7119954 0.44394824 0
7.5021095 5.1173625 -0.7592386 0
5.4925256 7.1321893 1.4195619 0
7.6352258 4.9755626 -0.045044869 0
7.5787015 5.0540986 -0.2788322 0
6.3415627 6.2733436 1.8677627 0
7.5793176 5.0547585 -0.28275406 0
5.2953606 7.4166198 0.18451034 0
5.2964983 7.418992 -0.066312283 0
7.572001 5.0491824 -0.52064061 0
7.5886755 5.0363064 -0.39535582 0
5.6949153 6.9195638 1.6739264 0
7.5706701 5.0487423 0.57423753 0
5.3213215 7.3250923 1.0836697 0
5.2956796 7.4172854 -0.31784302 0
6.9336047 5.7036204 1.6036147 0
5.7130561 6.9140577 1.6558144 0
7.2604098 5.363997 1.3037314 0
6.0631585 6.5497069 1.8811581 0
6.2356267 6.3704705 1.9351736 0
7.0233645 5.5934997 1.6120555 0
7.5784774 5.0539489 -0.49433446 0
5.9908266 6.6167655 1.884562 0
6.6805463 5.9286947 1.8570638 0
5.5572348 7.0419035 1.6623765 0
6.5503726 6.0717278 1.8621091 0
7.5920043 5.04 0.45045412 0
7.1902399 5.4624524 1.3078694 0
6.3253336 6.2862129 1.9294308 0
7.6641579 4.948082 0.16928016 0
7.5713367 5.0486765 0.6640681 0
7.3697824 5.2585421 1.1366367 0
8.1302481 -3.7198319 1.8221599 0
6.6524258 5.9726062 1.8311956 0
7.015182 5.6061835 1.6245322 0
5.334857 7.265542 1.4268962 0
7.6441064 4.9821324 0.19135499 0
6.2094693 6.4198046 1.8763314 0
5.5989404 7.0086293 1.6807756 0
7.6428981 4.9812384 -0.2833401 0
6.4184322 6.2148089 1.868171 0
7.428525 5.1820836 1.1362593 0
5.5573373 7.0572429 1.6247745 0
8.326354 -3.7240961 -0.36492848 0
8.3142481 -3.7148697 -0.63522762 0
6.5005832 6.1155043 1.9181659 0
5.3745041 7.2432737 1.4168714 0
7.2352624 5.3969183 1.3744785 0
7.0165052 5.6189713 1.600446 0
7.7003942 4.90309 0.1913735 0
7.6698351 4.9542027 -0.11233968 0
-2.9940147 8.5424051 1.2077358 0
6.1504192 6.4650087 1.9434216 0
7.2944961 5.3209667 1.3736663 0
5.9297633 6.7007546 1.8320808 0
5.7351079 6.8681068 1.8320818 0
7.5198064 5.1327348 0.73342609 0
7.3853159 5.2373114 1.2078272 0
7.0942602 5.528429 1.5963069 0
7.5019202 5.112309 1.0146859 0
6.5884838 6.0328321 1.9135025 0
5.2977438 7.4215889 -0.57160121 0
7.5880995 5.0356669 0.73200005 0
7.5914497 5.0393848 -0.68030816 0
7.511281 5.1245623 0.90118223 0
8.3169384 -3.7169206 0.71319807 0
5.3017282 7.4298944 0.43514669 0
6.0611959 6.5544581 1.9507639 0
6.6258469 6.0118365 1.8630267 0
8.350522 -3.7159998 -0.044045806 0
6.4209118 6.2135196 1.9265382 0
7.3445768 5.283957 1.3026366 0
6.8327265 5.7892323 1.8329897 0
7.707077 4.9078875 -0.28409845 0
8.153842 -3.728976 1.7826297 0
-2.9900265 8.5666533 1.1157411 0
5.503396 7.1020651 1.6885691 0
7.4149523 5.1880627 1.2991655 0
-2.988678 8.5955982 0.87892669 0
7.578814 5.0541735 0.78607005 0
8.3496513 -3.7156086 -0.28075373 0
7.6709456 4.9554 0.45029411 0
7.6729593 4.957571 -0.39524782 0
7.6519418 4.9879284 0.42821515 0
-8.2099743 -3.7688193 1.4178689 0
7.0992775 5.5331931 1.6147023 0
5.9709806 6.6443982 1.958439 0
-8.5866776 3.139466 -0.26679385 0
5.8767095 6.7285519 1.9650935 0
8.3480206 -3.7148762 0.42747161 0
7.5837922 5.0581689 -0.76373577 0
5.8553219 6.7679968 1.8968011 0
7.7040076 4.905684 -0.523193 0
7.5741973 5.0508561 0.90159082 0
7.6440663 4.9821029 0.66502118 0
7.4992962 5.1151543 1.1379354 0
5.4892607 7.1260705 1.670451 0
6.8877134 5.7290511 1.8562717 0
6.8394823 5.7730813 1.8982248 0
5.9314089 6.7045155 1.8939171 0
5.3003092 7.4269366 0.68617409 0
6.67976 5.9565725 1.9105722 0
7.7192693 4.9166393 -0.046785861 0
-8.5960064 3.1413608 0.11752537 0
7.7118502 4.9113135 0.42827266 0
7.758101 4.8581171 -0.068595469 0
6.7656889 5.8794327 1.8619344 0
7.7498422 4.871099 0.16923386 0
6.7630763 5.8691669 1.9053098 0
7.3779631 5.2320971 1.4186487 0
7.7745366 4.836494 -0.046725988 0
5.411376 7.1936507 1.6750525 0
7.6588864 4.9930658 -0.52503443 0
7.671309 4.955792 -0.67934978 0
6.8314061 5.808917 1.8604752 0
7.1686649 5.4664102 1.6158299 0
5.7847238 6.841208 1.9025867 0
7.7532558 4.8746753 -0.11230025 0
8.3663692 -3.723119 0.19157732 0
7.1837006 5.4540606 1.5955914 0
7.7595668 4.859035 -0.28421021 0
7.6697879 4.9541521 0.73173606 0
5.6302166 6.9688616 1.9098392 0
7.7522244 4.8544374 -0.49962175 0
7.3724227 5.2607393 1.3769411 0
7.7772369 4.8383746 0.19093043 0
-8.1938267 -3.7614069 1.6278791 0
5.4075799 7.19872 1.6971003 0
7.7714572 4.8343501 0.42834663 0
7.767941 4.8319011 -0.52437258 0
7.0198135 5.5900855 1.8553885 0
5.2965374 7.4190745 0.93741661 0
7.6501894 4.9866323 -0.76534212 0
7.2037091 5.4256783 1.6281092 0
8.3599367 -3.7202291 -0.5203473 0
7.7782526 4.8390818 -0.28570777 0
7.2598104 5.3632498 1.591787 0
7.4323368 5.1851649 1.3766863 0
7.7536983 4.85536 0.57310414 0
7.7631035 4.8612494 0.35938987 0
5.3235807 7.331069 1.3966999 0
7.7535901 4.8750253 -0.39482242 0
5.7887421 6.8287392 1.9754274 0
7.5913014 5.0392199 1.015099 0
7.5823998 5.0565648 0.99823093 0
5.3348861 7.2656012 1.6808131 0
7.7709212 4.8661451 0.14482558 0
-2.9965167 8.5495434 1.4196715 0
7.5020695 5.1124792 1.299129 0
8.3238087 -3.7221563 0.98404855 0
6.9308028 5.699688 1.8967427 0
5.3791261 7.2495031 1.6289316 0
-2.9822898 8.5838308 1.258786 0
5.5607767 7.0616102 1.8368163 0
6.9666624 5.6722913 1.8598546 0
7.8216953 4.7798934 -0.39298809 0
7.2396326 5.4007726 1.6176022 0
7.0232553 5.6126356 1.8370713 0
7.7193546 4.9167008 0.6661914 0
8.3618107 -3.7210708 0.66409433 0
5.7166405 6.9201317 1.910127 0
7.7459931 4.8670664 0.73114902 0
7.651257 4.987422 0.90364975 0
-8.6087608 3.1439514 0.50210184 0
7.7598944 4.8816299 0.45042029 0
7.3002253 5.3258758 1.6169393 0
7.6650672 4.9490623 1.0136325 0
7.7161045 4.9143677 -0.76703858 0
7.7060289 4.907135 0.90338558 0
7.0128651 5.6140132 1.8925968 0
-8.6016655 3.1425102 -0.65402722 0
8.3486309 -3.7151504 0.90005594 0
7.0931697 5.5274868 1.8577396 0
7.8439665 4.7659287 -0.28682947 0
7.752821 4.8742199 -0.67891401 0
7.8326955 4.7910919 0.1692311 0
7.5808487 5.0559254 1.1414065 0
5.5967531 7.0035176 1.9912978 0
7.8484945 4.7689867 -0.047921628 0
5.6973763 6.9250937 1.9851491 0
8.3638716 -3.7219968 -0.76169252 0
7.1902866 5.4155688 1.8383764 0
7.836339 4.7948012 -0.11232194 0
5.4839697 7.1161561 1.9232883 0
7.0935826 5.5275331 1.8884944 0
5.5650768 7.0561056 1.9200381 0
7.8412623 4.7641025 -0.52708906 0
7.7607512 4.8597765 0.78607142 0
7.3473458 5.2873082 1.5912149 0
7.8460979 4.7673683 0.42875987 0
7.7767653 4.8380461 -0.76790488 0
7.5801888 5.0550904 1.2104981 0
7.1690869 5.435307 1.8832132 0
8.3138294 -3.7145512 1.2545631 0
5.2628021 7.535533 -0.16320652 0
7.1600089 5.4585519 1.8583095 0
5.2965708 7.4191437 1.1906683 0
7.5840888 5.0312171 1.2983582 0
7.8557453 4.7738833 0.19043694 0
5.2638798 7.5385122 0.15213728 0
-2.9952345 8.5743065 1.442062 0
-8.1888685 -3.7591307 1.8394153 0
7.7889137 4.8465061 0.66704416 0
7.6479554 4.9849796 1.142765 0
7.3859239 5.2377424 1.6314912 0
7.8383241 4.7968221 0.45030916 0
-8.6026859 3.1427171 0.88704991 0
5.2686863 7.5436282 -0.073049903 0
8.4182777 -3.7191522 -0.073222935 0
8.4144011 -3.7174394 -0.289307 0
5.2664127 7.5403724 0.35762784 0
5.4105291 7.1920071 1.9309212 0
8.4187117 -3.7193437 0.14238411 0
7.5178356 5.1297078 1.3818052 0
5.3746257 7.2434378 1.8404877 0
7.8317575 4.7901368 -0.67823935 0
-2.9966314 8.5498714 1.6319773 0
5.2715192 7.5476842 0.14220095 0
5.2644358 7.5400486 0.46729124 0
7.9175453 4.6974621 0.19027729 0
7.7811422 4.841094 0.90541583 0
7.9069095 4.7024984 0.44998786 0
7.909359 4.7049217 -0.39375526 0
8.4132853 -3.7169466 -0.50679624 0
5.2644777 7.5376019 0.57204473 0
7.7619638 4.8605356 0.99926573 0
7.4323039 5.2084599 1.5902903 0
7.7532978 4.8747191 1.0141854 0
7.5010767 5.1113453 1.5857631 0
7.5793662 5.0547957 1.3822545 0
8.412878 -3.7167664 0.57196796 0
5.2492266 7.5614653 0.43683401 0
7.2346115 5.3963442 1.861568 0
7.9217792 4.7002339 -0.28931588 0
7.8550291 4.7733994 0.66773486 0
7.3841891 5.2705336 1.6224676 0
8.3561163 -3.7185128 1.1392331 0
8.4248104 -3.7220383 0.35702416 0
5.2915878 7.4087553 1.4442693 0
7.9202809 4.7157269 -0.11249152 0
7.4420881 5.193048 1.6216166 0
7.5776267 5.0533814 1.4230731 0
5.2544765 7.5728245 0.1823476 0
7.8511009 4.7707467 -0.77158618 0
7.6676817 4.9518809 1.2980947 0
7.2598171 5.3632584 1.8831676 0
7.9490819 4.6657376 -0.29143608 0
5.3359432 7.2677264 1.9387381 0
7.5005608 5.1161466 1.6211925 0
5.2548723 7.5736799 -0.32870108 0
5.2578926 7.5802155 -0.073094666 0
-2.9472723 8.7412806 0.14676812 0
7.9567471 4.6702371 -0.075357437 0
7.3005266 5.3261342 1.8624179 0
7.8442698 4.802875 0.73231506 0
7.9348931 4.7088194 -0.049946159 0
5.3260145 7.3375072 1.7129524 0
7.9273019 4.7226729 0.16891146 0
7.9585409 4.6712899 0.14067316 0
-8.6868343 3.1148129 0.14065868 0
7.7246842 4.9205265 1.1457181 0
8.4169626 -3.7185712 -0.72651744 0
7.9879656 4.6261759 -0.049937725 0
7.9299893 4.7056088 0.42938235 0
7.9093165 4.7048798 0.73108327 0
7.9126396 4.7081671 -0.6781196 0
-2.9440122 8.7363396 -0.50643289 0
5.2678628 7.5424495 0.78607261 0
-8.6851597 3.1142123 0.35626841 0
7.9478726 4.6650281 0.57153827 0
5.2660456 7.5444994 0.78310627 0
7.9280567 4.7043438 -0.53190058 0
7.6490207 4.9857674 1.3845118 0
7.9145284 4.695487 -0.77335131 0
7.9931965 4.6258907 0.16926754 0
-2.9535961 8.7508659 -0.18009496 0
7.9948306 4.6274619 -0.11205885 0
-8.5941753 3.1409888 1.2727585 0
7.3432755 5.2823825 1.8812213 0
-2.9946067 8.544095 1.8444681 0
5.256176 7.5765004 -0.58663523 0
7.8581057 4.7754774 0.90772218 0
7.8346105 4.7930412 1.0140005 0
5.2600646 7.5312834 0.99992085 0
8.3197336 -3.7190506 1.5296903 0
7.7065043 4.9074764 1.3845669 0
7.9910135 4.6237922 -0.39391387 0
-2.9856558 8.5900307 1.6425458 0
-2.9500918 8.745554 0.47272128 0
8.4236631 -3.7215314 0.78607291 0
7.5871887 5.034657 1.5857408 0
7.9902525 4.6276269 0.42952913 0
-2.9389091 8.7286053 0.79809731 0
7.3710432 5.2595916 1.8649436 0
7.9302449 4.7057762 0.66905499 0
7.9680805 4.6768889 0.35568029 0
7.5712147 5.0491056 1.6357659 0
7.3906326 5.2410822 1.8452504 0
8.0005627 4.6341681 0.18965776 0
7.9636188 4.6742702 -0.51189673 0
7.9478011 4.6649861 0.78607309 0
-2.9930143 8.571044 1.7697515 0
7.7529421 4.8743463 1.2983356 0
7.4204273 5.1944985 1.8777658 0
7.7729859 4.8674378 1.2132977 0
5.2585115 7.5815539 0.692572 0
8.0560436 4.5527353 -0.050925493 0
8.0034227 4.635982 -0.29227471 0
7.5792074 5.0546746 1.6259739 0
7.4345613 5.1869636 1.8656471 0
-8.6966381 3.1183281 0.57100368 0
7.98803 4.6209235 0.73096442 0
8.3630028 -3.721607 1.3809419 0
8.4190369 -3.7194874 1.0003344 0
7.9980979 4.6326041 -0.53435749 0
7.8004851 4.8545637 1.1486419 0
7.9261847 4.7031183 0.90917665 0
8.0045547 4.6368103 0.45040751 0
7.7581687 4.8581595 1.4262676 0
7.6408529 4.9797254 1.6268084 0
8.0641956 4.557745 0.18942218 0
5.2657065 7.5435619 1.0999092 0
8.0751762 4.5449023 -0.11213884 0
8.0696297 4.539721 -0.39384663 0
7.9159102 4.7114029 1.0139616 0
7.9928713 4.6292882 -0.77810121 0
5.2559905 7.5760994 0.94833428 0
8.0001297 4.6325564 -0.67932838 0
7.5007653 5.1163077 1.8674378 0
8.0683327 4.560288 -0.29358411 0
7.6735024 4.9581566 1.5860236 0
8.0594597 4.5548353 -0.53569072 0
-8.6975269 3.1186471 0.78607374 0
8.0047712 4.636838 0.67038083 0
7.5621014 5.0430279 1.8486463 0
8.0813513 4.5506711 0.16905381 0
7.8678451 4.7820544 1.1504276 0
7.7894692 4.8468928 1.3897568 0
8.5020323 -3.716779 -0.10155076 0
5.2678428 7.5424199 1.2146349 0
8.4944992 -3.7112057 0.44650865 0
7.9922752 4.6289101 0.91051972 0
7.8387556 4.7972612 1.2988656 0
7.5096073 5.1210876 1.8782896 0
8.4185381 -3.7192671 1.2148032 0
8.0798187 4.5492392 0.45030957 0
7.9605112 4.6724463 1.0009497 0
8.0750256 4.5644011 0.43019974 0
-8.4880409 -3.7643735 0.11689185 0
7.5679364 5.0460849 1.8697852 0
8.063261 4.5571713 0.67076951 0
8.5069323 -3.7204034 0.17262143 0
7.9408741 4.6609201 1.214998 0
8.1495285 4.4568119 -0.1118778 0
-8.693222 3.1171036 1.0010595 0
7.7510614 4.872376 1.5845468 0
-2.9464598 8.7400494 1.1262217 0
5.3048043 7.4363074 1.7080616 0
8.3216057 -3.7204773 1.8074136 0
8.1402245 4.4690409 0.35348898 0
8.061945 4.5563622 -0.78126323 0
8.0740585 4.5438576 0.73145866 0
-8.4832935 -3.7631228 0.50242251 0
8.3613367 -3.7208581 1.6240467 0
8.1398315 4.4879913 -0.052927285 0
7.9104042 4.705956 1.2971336 0
5.254365 7.5725822 1.2055054 0
8.1364689 4.4859905 -0.29532164 0
7.8545842 4.7730994 1.3916519 0
7.7571459 4.8575191 1.6406374 0
8.1412745 4.4888501 0.18889314 0
8.5121613 -3.7242711 -0.37793732 0
8.1535168 4.4763384 -0.082392871 0
5.2630386 7.535542 1.428911 0
8.149684 4.4742346 -0.30077314 0
7.724154 4.9201455 1.6330739 0
-8.5011864 -3.7678373 -0.2699073 0
-8.5977859 3.141722 1.6617413 0
8.4994564 -3.7148736 0.72078288 0
8.5035553 -3.7179058 -0.65403938 0
7.9393277 4.7117224 1.1529547 0
8.085289 4.5543494 -0.68031228 0
8.0038223 4.636106 1.0148684 0
8.1440697 4.4711523 -0.51985514 0
-8.4848614 -3.763536 -0.65640974 0
7.9143906 4.6953969 1.3927252 0
7.7810912 4.8410587 1.6332357 0
7.5955291 5.043911 1.8781668 0
8.0655441 4.5585737 0.91269773 0
8.160203 4.4800096 0.1350159 0
7.6405735 4.9795189 1.8739676 0
8.1397047 4.487916 -0.5398702 0
8.1589756 4.4653878 0.45033449 0
8.1663704 4.4721003 0.16889122 0
8.4177399 -3.7189145 1.4296896 0
-2.9341207 8.8262539 0.50239182 0
8.1367149 4.4861369 0.67213726 0
7.8385434 4.7622666 1.6337835 0
8.1498547 4.4939547 0.43068114 0
8.2049141 4.4111924 0.1886192 0
7.8336163 4.7920294 1.5845004 0
8.1321354 4.4834123 -0.78479767 0
7.9423661 4.6617961 1.4301641 0
5.269721 7.5546589 1.4201553 0
8.3424397 -3.712369 1.8659852 0
8.0026255 4.6354766 1.1544158 0
8.1547585 4.4770203 0.56951362 0
8.0742025 4.5439925 1.0137941 0
8.4925804 -3.7097867 0.99520648 0
8.1553993 4.4621406 -0.67897499 0
5.2102499 7.7302899 -0.079226285 0
-8.7030487 3.1206267 1.2167654 0
5.2967572 7.4195318 1.9662579 0
8.0577431 4.5537806 1.1548433 0
-8.4879246 -3.764343 0.88858861 0
8.157917 4.4644265 0.73187155 0
5.2122412 7.734766 0.18007775 0
8.1739864 4.479013 -0.39696473 0
8.2086849 4.4133635 0.43085676 0
8.2366714 4.3801603 0.16904691 0
8.2374992 4.3808908 -0.11266032 0
8.2048645 4.4111633 -0.54201436 0
-2.9288211 8.8161497 0.88764751 0
7.9988079 4.6312852 1.2985032 0
8.2341938 4.377975 -0.39499557 0
5.2555599 7.5751672 1.4656841 0
8.2221661 4.4211254 -0.054881096 0
8.2182236 4.4188552 -0.29852748 0
5.2137494 7.7381554 -0.34032017 0
7.6807513 4.9659715 1.8781642 0
7.7144942 4.9132118 1.8787444 0
8.1565943 4.4780283 0.78607565 0
7.747263 4.8683968 1.8732107 0
8.1398735 4.4880166 0.91506827 0
-2.9493155 8.7443781 1.4562711 0
8.1427994 4.4704547 1.0023198 0
5.2664523 7.5404296 1.6448355 0
5.2147179 7.7403326 0.43942863 0
-8.69205 3.1166832 1.4318786 0
8.2788658 4.3387399 0.18811911 0
5.2054377 7.7649097 0.14875166 0
8.2441978 4.3867989 0.45052832 0
8.2058468 4.4117293 -0.78913808 0
7.9191651 4.714623 1.5853796 0
7.7784896 4.8392472 1.8809499 0
8.0022717 4.635252 1.3992645 0
8.2844658 4.3418579 -0.055675209 0
8.4231234 -3.7212927 1.6458677 0
8.5862961 -3.7126496 0.18813804 0
5.2169914 7.7454424 -0.60353965 0
7.7734022 4.8676987 1.8582689 0
5.2048903 7.7633266 0.47061914 0
8.2407513 4.383759 -0.68036735 0
8.2767258 4.3375478 -0.54523838 0
8.0783577 4.5478749 1.2985477 0
5.2166419 7.7446566 0.69945037 0
-2.8940015 8.9059553 0.14486411 0
8.1661654 4.4719138 1.0154407 0
7.9297595 4.7054586 1.642434 0
-8.6792479 3.1120925 1.6469696 0
5.2672596 7.5478544 1.7409723 0
8.275836 4.3370523 0.67455757 0
8.2291565 4.4251504 0.6747039 0
8.2446404 4.3871894 0.73255938 0
8.5947475 -3.7163014 -0.30040103 0
8.3162975 4.2965169 -0.39574093 0
8.3229599 4.3022251 -0.11333555 0
8.2134056 4.4160819 0.91744125 0
8.291254 4.3456383 0.43152842 0
-2.9265361 8.8117924 1.2740853 0
5.2524276 7.5683904 1.7269522 0
-2.898283 8.9126511 -0.18562639 0
7.9589038 4.6715031 1.6477424 0
7.9968066 4.6293612 1.5847548 0
8.6049376 -3.720705 -0.056346744 0
8.147049 4.4922853 1.1603194 0
8.2997808 4.3503861 -0.30178481 0
7.8364816 4.7949467 1.8750178 0
7.8502159 4.7701488 1.885584 0
8.511735 -3.7239563 1.2746886 0
-2.9367905 8.7253942 1.7851032 0
5.2041955 7.7613153 0.79273844 0
8.0725727 4.5628934 1.4026392 0
8.3466606 4.2754793 -0.089533627 0
8.3414946 4.2728333 0.34949172 0
8.3232384 4.3024635 0.45060369 0
7.9915376 4.6284423 1.6444176 0
8.3450041 4.2746305 -0.31000769 0
8.2695427 4.3335481 0.91815686 0
5.2657533 7.5394282 1.8611392 0
8.5902443 -3.7143557 0.67490792 0
8.3558083 4.266942 0.18754295 0
8.1569033 4.4781981 1.2195493 0
5.2162476 7.7437706 0.96025789 0
-2.8994412 8.9144621 0.47471216 0
8.606472 -3.7213683 0.43164563 0
-8.501955 -3.7680399 1.2773564 0
-2.8989339 8.9136686 -0.51729518 0
8.2849092 4.3421049 -0.79460096 0
8.2395992 4.3827434 1.0150263 0
8.3566303 4.2673845 -0.30265999 0
8.3375416 4.3147202 0.16846754 0
8.3925076 4.2098036 0.16891617 0
8.3578215 4.2811966 0.12932426 0
8.355485 4.2667685 0.43185067 0
8.3214111 4.3008976 -0.68116641 0
8.6061878 -3.7212453 -0.54806679 0
8.3655415 4.2721815 -0.05764851 0
8.3197556 4.29948 0.7325145 0
8.3473606 4.2758379 -0.53223145 0
8.1619625 4.4680986 1.2994634 0
8.2135315 4.4161544 1.1626425 0
8.595129 -3.7164662 -0.79485762 0
8.3499336 4.2771564 0.56768233 0
8.4022236 4.2178907 -0.11365747 0
8.4974241 -3.7133701 1.5516558 0
8.4309025 -3.7247295 1.8635688 0
7.918169 4.7136374 1.8750297 0
8.1440306 4.4904895 1.40639 0
8.3626385 4.2706189 -0.55054468 0
8.0621567 4.5564923 1.6486539 0
7.9254274 4.7026224 1.8914112 0
8.081296 4.5506196 1.5858889 0
8.5969591 -3.7172573 0.92001188 0
8.4265575 4.1908369 -0.058481455 0
8.3131218 4.2937951 1.014775 0
8.4025288 4.2181444 0.45071143 0
8.3485909 4.2764683 0.7860778 0
8.4052067 4.2203736 -0.39738542 0
8.155673 4.4775224 1.4367766 0
8.2346601 4.3783865 1.2987701 0
8.3644218 4.2715788 0.67698193 0
8.3560686 4.2670827 -0.79878032 0
5.2162724 7.743825 1.2227223 0
-8.6919861 3.1166601 1.8655362 0
7.9912672 4.6240358 1.8730416 0
8.4334431 4.194417 0.18693712 0
-2.9064384 8.9254045 0.80581975 0
5.2508631 7.5650048 1.9921291 0
8.1500778 4.4573102 1.583891 0
5.2084522 7.773633 1.1172163 0
7.9662414 4.6758099 1.8659161 0
7.9903469 4.627687 1.8946371 0
8.4257717 4.1904287 -0.55279225 0
8.2862196 4.3428349 1.1659727 0
8.4371815 4.1963606 -0.30598348 0
8.4337864 4.1945958 0.43246967 0
8.4021358 4.2178183 0.73305154 0
-2.9252768 8.809392 1.6628183 0
8.2127113 4.4156814 1.4097927 0
8.3491783 4.2767692 1.0044538 0
8.4089584 4.2234969 -0.68324715 0
8.362607 4.2706017 0.92265391 0
5.1803746 7.8900514 0.12595534 0
5.1672707 7.8998322 -0.086469233 0
8.4854317 4.1364884 -0.11432338 0
8.5997381 -3.7184582 1.1666042 0
5.1654949 7.8956828 -0.35126334 0
5.1678271 7.9011326 0.17772622 0
8.4148998 4.1847758 0.92318642 0
5.2121696 7.7346053 1.4858437 0
5.1800852 7.8896112 0.34641877 0
5.1743832 7.8809257 0.56660968 0
5.1652889 7.8952012 0.44156119 0
-8.499258 -3.767329 1.6673992 0
8.4360485 4.1957722 0.67844212 0
8.3486671 4.2630992 1.1679966 0
5.1845536 7.8964167 -0.095912874 0
-2.8657148 8.9951105 0.34630761 0
8.4897881 4.1400104 0.16837595 0
8.1538839 4.4765401 1.6545877 0
8.0587626 4.5544066 1.8990743 0
8.147707 4.4926772 1.6564651 0
5.2026682 7.756896 1.4408216 0
8.4858036 4.1367893 0.45093465 0
-8.9424191 3.046232 -0.28415263 0
5.1645298 7.8934274 -0.61761713 0
8.3184834 4.2983885 1.3000929 0
-2.9052372 8.9235258 1.1377189 0
8.0751991 4.5449233 1.874305 0
8.4996147 -3.7149904 1.8344434 0
-8.9519138 3.0480194 0.1117413 0
8.5122118 4.1213264 -0.060821682 0
-2.8708384 9.0111933 0.12464523 0
8.493619 4.1431074 -0.39907861 0
8.6983566 -3.7194583 0.1699307 0
8.6992455 -3.7200963 -0.11000624 0
8.5016823 4.1160417 -0.55693716 0
8.5877943 -3.7132969 1.4129922 0
8.6936159 -3.7160556 -0.39034426 0
8.2055016 4.4115305 1.6581925 0
-2.8674586 9.0005846 0.56617898 0
8.6920586 -3.7149379 0.44933403 0
8.408041 4.2227325 1.017108 0
8.5136337 4.1220403 -0.30898184 0
8.5093861 4.1199079 0.43305171 0
8.482338 4.1339884 0.73351496 0
8.5471392 4.0730104 -0.097936273 0
5.1686306 7.9030104 0.7060504 0
8.1374235 4.4675035 1.8712958 0
-8.9519424 3.0480249 0.5076592 0
8.5232925 4.1268878 0.18607673 0
8.3602018 4.2824159 1.2236443 0
8.545825 4.0723839 0.34509838 0
8.2455645 4.3880038 1.5878416 0
8.2974949 4.349113 1.4162825 0
8.5058384 4.1181273 0.67984796 0
8.6871281 -3.7113979 0.72862458 0
5.1828222 7.8937793 0.78607959 0
-2.8667133 8.9982443 0.78607959 0
8.4949245 4.1441636 -0.6852302 0
8.6927137 -3.7154081 -0.67262959 0
8.5697088 4.0554338 -0.11513117 0
8.5656004 4.0522084 -0.39904904 0
8.5611076 4.0796666 0.12282592 0
8.5572596 4.0778332 -0.32205653 0
8.5808554 4.0421381 -0.062213421 0
-2.8662343 9.0419245 0.11420479 0
8.3453951 4.2748313 1.4418576 0
8.1580029 4.4645047 1.8755556 0
8.5739069 4.0387745 0.43343568 0
8.4300957 4.192677 1.1727906 0
8.1392307 4.4876337 1.9069943 0
-8.9587898 3.049314 -0.68312514 0
5.1793199 7.8884449 1.0057585 0
8.576745 4.060957 0.16804855 0
8.559515 4.0474315 -0.68403262 0
8.5544338 4.0764866 0.56548691 0
8.2781944 4.338366 1.6634804 0
8.4842682 4.1355486 1.0174267 0
-2.9019613 8.9184027 1.4710231 0
8.5713253 4.0567021 0.45123118 0
8.3604727 4.269453 1.4189725 0
8.5566368 4.0775361 -0.54625058 0
-2.8642716 9.0380487 0.50511944 0
5.1692991 7.904572 0.97150928 0
8.6831894 -3.7085712 1.0086215 0
8.5874872 4.0453486 -0.31181061 0
8.5077028 4.1190634 0.92780131 0
-8.9506874 3.0477886 0.90399367 0
8.571682 4.0376973 0.68107933 0
5.21594 7.7430787 1.7549474 0
8.5930061 4.0480199 0.18559396 0
8.5471725 4.0730262 0.7860803 0
8.5635796 4.0506225 0.73412287 0
8.5871639 -3.7130244 1.6636028 0
8.4113503 4.2254877 1.3030293 0
8.3251972 4.3041425 1.5886459 0
8.5875645 4.0453858 -0.56255966 0
5.2046299 7.7625723 1.7697277 0
5.1440296 8.0001278 0.14520444 0
8.6488266 3.9617741 -0.063622773 0
-2.8603292 9.0302629 0.89597756 0
8.3432856 4.2602019 1.6672817 0
5.1655407 7.8957887 1.2373326 0
8.5428343 4.0709591 1.006375 0
8.42556 4.1903181 1.4222233 0
5.1799083 7.8893409 1.2257262 0
-2.8442922 9.0823593 -0.19164646 0
8.6519604 3.9722497 -0.11587361 0
5.1437988 7.9994278 0.47418272 0
8.5053892 4.1179023 1.1768465 0
-2.8479462 9.0882587 0.1425992 0
5.1377831 7.9811802 0.80254245 0
-2.8755181 9.0258818 1.0065994 0
8.2452221 4.3877025 1.878235 0
8.222023 4.4210424 1.9157244 0
8.3536081 4.279038 1.6624229 0
8.3999748 4.2160192 1.5886887 0
8.6528578 3.972934 0.45146233 0
8.6649532 3.9692981 0.18504956 0
8.6616039 3.9795992 0.16774578 0
8.6634884 3.9686153 -0.31493437 0
8.6878138 -3.7118905 1.291289 0
8.5861616 4.0447068 0.93108183 0
8.6590614 3.9776618 -0.40152651 0
-2.8720627 9.0150356 1.2268274 0
-2.8508191 9.0928965 0.47689605 0
-2.8964753 8.9098234 1.8061216 0
8.5747528 4.0593934 1.0194671 0
8.4953651 4.1445193 1.3046997 0
5.1775227 7.8857083 1.4458426 0
8.6703959 3.9718378 0.43445531 0
8.2846823 4.3419785 1.9193182 0
8.6522388 3.9724619 0.73529196 0
8.6552353 3.9747455 -0.68786871 0
-8.958046 3.0491736 1.3024588 0
8.6695518 3.9714441 -0.56775457 0
8.6629782 3.9683769 0.68384123 0
8.3230114 4.3022685 1.8787508 0
-2.858233 9.1048641 -0.52955544 0
8.4264812 4.1907978 1.6752673 0
8.6497593 3.9622095 0.93300891 0
8.5958309 -3.7167697 1.9199288 0
5.1173344 8.062911 0.44393697 0
-2.8489432 9.0898676 0.81150937 0
5.1686726 7.9031076 1.5075492 0
8.5621071 4.080143 1.2279041 0
8.7355652 3.8895338 0.16765738 0
8.7373133 3.8897603 0.18447912 0
5.1230731 8.0768728 0.17519957 0
8.7384405 3.8916605 -0.11696187 0
8.3462372 4.2617908 1.9228925 0
-2.8637094 9.0369377 1.2890766 0
8.4810829 4.1329741 1.590279 0
8.5898228 4.0464792 1.1822678 0
5.1224289 8.0753059 -0.36429793 0
8.6486912 3.9697578 1.0197858 0
5.117372 8.0630035 -0.63457835 0
8.7434425 3.892514 -0.06662032 0
8.5180721 4.1242676 1.4305125 0
5.1261749 8.0844183 -0.094557017 0
-2.8726935 9.0170164 1.447945 0
5.1426687 7.9959993 1.133808 0
8.7391958 3.8922193 -0.40264434 0
8.3558388 4.2801809 1.8835938 0
8.7333527 3.8879814 -0.57061106 0
8.7597332 3.8700054 -0.10806632 0
8.7456913 3.8935239 -0.31873846 0
8.7571344 3.8688571 0.34011039 0
8.7426968 3.8921788 0.4350239 0
5.1791692 7.8882155 1.6671606 0
8.7511549 3.8662155 -0.55870605 0
8.7455711 3.8969352 0.45195991 0
8.5539999 4.0762796 1.4487873 0
8.7682419 3.8737645 0.11567014 0
8.649333 3.9620106 1.1844151 0
8.4023781 4.2180195 1.879971 0
8.583806 4.0665002 1.3072244 0
8.7340384 3.8884041 0.73607492 0
8.7383041 3.8915594 -0.68989199 0
8.7684326 3.8738487 -0.33454192 0
8.7416801 3.8917224 0.68591911 0
5.1243877 8.0800705 0.71371073 0
8.7629738 3.8714371 0.56306911 0
-8.9428844 3.0463197 1.7010772 0
8.8108711 3.8096983 -0.068103939 0
8.8133545 3.8020074 0.16745979 0
8.707386 -3.7259395 1.5797045 0
8.7538404 3.8674018 -0.78704631 0
-2.8706102 9.0104771 1.6690459 0
8.8548594 -3.716248 -0.068316013 0
-2.8540792 9.0981588 1.1482654 0
8.8073292 3.8081672 0.43546498 0
8.5128269 4.121635 1.6840975 0
8.5948181 4.0488977 1.4361372 0
5.1206913 8.0710773 0.98329794 0
8.8222179 3.8083704 -0.11793953 0
8.8602009 -3.7184663 0.18369609 0
8.7383146 3.8902102 0.93743098 0
8.6531363 3.9731462 1.3069447 0
8.4306602 4.1929708 1.9326907 0
8.8178988 3.8052695 -0.40372902 0
8.7650766 3.872366 0.78608358 0
8.8242378 3.8154745 0.18361352 0
5.1715517 7.9098377 1.7812059 0
8.8228159 3.8148599 -0.32213789 0
5.1759338 7.8832879 1.888543 0
8.7367239 3.8903906 1.0217754 0
5.1423273 7.9949646 1.4661473 0
8.8533974 -3.7156413 -0.57574767 0
8.8658762 -3.720823 -0.32239723 0
8.8619614 -3.719197 0.43573719 0
8.8236361 3.8093879 0.45216113 0
-8.841341 -3.7554457 0.5624693 0
8.5793676 4.0630159 1.5955507 0
8.48703 4.1377807 1.8828011 0
-2.8646226 9.0387421 1.6844385 0
8.8168583 3.8122854 0.68784577 0
8.5618935 4.0800414 1.671628 0
8.7607164 3.8704398 1.0090407 0
8.8576403 -3.7174029 0.68787384 0
8.8262577 3.8163474 -0.5775032 0
5.1179662 8.0644484 1.2541702 0
8.8828726 -3.708298 -0.4034726 0
8.6932707 -3.7158077 1.8649598 0
8.8248501 3.8102596 -0.6926012 0
-8.8698215 -3.7675428 0.11210614 0
8.6639557 3.9688327 1.4405836 0
-9.1630087 2.9918051 0.11194831 0
-2.8702414 9.0093193 1.8914505 0
8.8935795 3.732327 -0.070513248 0
8.7452049 3.8933055 1.1916064 0
8.8307505 3.8144948 0.73789001 0
8.9008713 -3.7208316 -0.11865669 0
-9.1664724 2.9929361 0.3368969 0
8.5939693 4.0484867 1.6919581 0
8.8940306 -3.716068 0.45222408 0
8.8565845 -3.7169642 0.94091696 0
-8.8533468 -3.7605453 0.78608459 0
-8.877512 -3.7708097 0.33678263 0
8.7359381 3.8898094 1.3089306 0
-9.1606846 2.9910462 0.56175423 0
8.9048233 -3.7235839 0.1669464 0
8.892971 3.7320743 0.43632329 0
8.9060745 3.7244551 -0.11898902 0
8.6540833 3.9738672 1.5962721 0
8.9067812 3.7249472 0.16690475 0
8.5144825 4.1224661 1.9425187 0
8.7259407 3.8846517 1.4439596 0
8.9060297 3.7374971 0.18282993 0
8.8254242 3.8159871 0.94178653 0
-2.8598967 9.1075497 1.4879274 0
8.905406 3.7372384 -0.32614195 0
8.9481926 3.6501889 -0.11623651 0
8.8949165 -3.7166851 -0.69299269 0
8.8237877 3.8094966 1.0237632 0
8.7696562 3.8743894 1.2326956 0
8.8970547 3.7181737 -0.69331264 0
8.9108095 3.727752 -0.40645099 0
8.5709219 4.056386 1.8856975 0
8.5586157 4.0784793 1.8944008 0
8.6536751 3.9640367 1.6953933 0
5.0744915 8.2289591 0.14177385 0
8.8484478 -3.7135856 1.1944896 0
8.8967562 -3.7179658 0.73779392 0
8.9018936 3.73578 -0.58219528 0
8.9132099 3.7294233 0.45263201 0
-9.1667995 2.9930429 0.78608531 0
5.0758557 8.2365427 0.10943872 0
-8.8572674 -3.7622106 1.0101027 0
5.1429062 7.9967194 1.8017378 0
5.0766525 8.2378359 -0.11739635 0
8.9014845 3.7356098 0.69036186 0
5.0743647 8.2285557 0.47761881 0
8.8175144 3.8125687 1.1957335 0
-2.796092 9.2681694 -0.19864649 0
8.9081402 3.7258937 0.73852098 0
8.9711475 3.651468 -0.072681576 0
5.0740247 8.233572 0.56094384 0
5.073432 8.2515736 0.17269456 0
-9.1593733 2.990618 1.0103841 0
5.0738344 8.252594 -0.10170808 0
5.0806251 8.2442818 0.33497211 0
5.0709519 8.2452869 0.4465875 0
8.9673662 3.6580102 0.33493906 0
8.763938 3.8718631 1.4561706 0
8.96698 3.6498072 0.43697867 0
5.1249599 8.0814629 1.5309213 0
8.8165941 3.804333 1.3107533 0
8.9839973 3.6358125 -0.11972955 0
8.5893784 4.0462642 1.9502493 0
-2.8026829 9.2791567 0.14016521 0
8.7356091 3.8895662 1.5985807 0
8.8961105 -3.7175162 1.0242839 0
8.9757423 3.6532996 -0.32907414 0
-2.8059564 9.2837172 0.11089446 0
-8.8552208 -3.7613416 1.2342604 0
8.9024029 3.735991 0.94525748 0
-2.7996864 9.2741604 -0.53953642 0
-2.8015289 9.2772331 0.47919565 0
8.9847488 3.6651013 0.10744107 0
8.9802713 3.6632748 -0.34770954 0
5.0777802 8.262598 -0.37803859 0
8.9879951 3.6581833 0.18202646 0
8.9964752 3.6442387 0.16641034 0
8.9067574 3.724931 1.025419 0
-2.8543167 9.0985422 1.8278618 0
-2.792973 9.262969 0.81772876 0
8.9759769 3.6615229 0.56041861 0
5.0771556 8.2374468 0.81435436 0
-2.8056545 9.2830992 0.50849354 0
8.8546362 -3.7161555 1.4520848 0
5.0795522 8.2425413 0.78608638 0
8.9954128 3.6435211 -0.40838748 0
8.9938087 3.6424377 0.45293349 0
8.660244 3.9785631 1.8901757 0
5.0763307 8.2589235 -0.65501058 0
8.818614 3.8130441 1.452818 0
8.9812384 3.6636691 -0.57734084 0
8.8849354 -3.7097347 1.3108994 0
8.8942223 3.7325943 1.2005754 0
8.9874935 3.6381729 -0.69691503 0
8.9878693 3.658133 -0.58838022 0
8.9622383 3.6479173 0.94720232 0
8.9737177 3.6606014 0.78608668 0
8.660141 3.9670534 1.9571545 0
8.9842091 3.6566741 0.69281852 0
-9.1696606 2.9939771 1.2354312 0
5.0787134 8.2649632 0.72180498 0
8.9920483 3.6412489 0.73963869 0
5.0711832 8.2458735 0.99586564 0
8.7678432 3.8735886 1.681066 0
8.7539072 3.8972149 1.7077008 0
5.0788274 8.2413654 1.0114419 0
-2.8032002 9.2780743 0.90627259 0
-8.8612595 -3.7639065 1.4594159 0
5.1244364 8.0801878 1.8081992 0
8.9034939 3.7226579 1.3136761 0
8.9814186 3.6340702 1.0263101 0
5.0771632 8.2374716 1.1521637 0
8.9756651 3.6613958 1.0117474 0
8.8271599 3.8119171 1.6030563 0
-9.164422 2.9922664 1.4603288 0
8.8522968 -3.715184 1.7112211 0
8.8138962 3.8110054 1.7116143 0
8.7454395 3.8968379 1.8938799 0
-2.8019323 9.2779055 1.1593184 0
8.7570057 3.8688002 1.9052559 0
5.0798497 8.2430239 1.2371331 0
8.9659843 3.6574469 1.2371656 0
8.7366848 3.889478 1.9657662 0
8.9039078 3.7366159 1.4605347 0
8.9762955 3.6535201 1.2062504 0
-8.857069 -3.7621264 1.6845741 0
-9.317852 2.9467585 0.10577019 0
5.0747948 8.2550287 1.2738967 0
8.8962049 -3.7175825 1.6033598 0
-2.8017812 9.2751703 1.3053254 0
-9.319191 2.9469907 -0.3026582 0
8.9051752 3.7238286 1.6050911 0
9.1045933 3.5906687 -0.078038126 0
8.9640636 3.6486447 1.4641087 0
5.0776758 8.2394962 1.4629791 0
-9.1688643 2.9937172 1.6866543 0
9.1035528 3.590271 -0.33748597 0
5.0776033 8.2388725 1.4922227 0
8.9659615 3.6574373 1.463316 0
-9.3256283 2.9481072 0.5137676 0
8.9955482 3.6436121 1.3175083 0
8.8491201 -3.7138648 1.9735118 0
9.1135817 3.5941029 0.18039104 0
8.826416 3.8113835 1.8968182 0
8.8979511 3.7341428 1.7208302 0
-9.3220348 2.947484 -0.7128129 0
9.1248322 3.5878441 0.1650897 0
9.1144295 3.5944269 0.43902481 0
9.1025562 3.5898905 0.69732386 0
-2.8031373 9.2799149 1.502371 0
9.1309338 3.5918391 -0.12486598 0
-9.3148861 2.946244 0.92182922 0
8.8228312 3.8148665 1.9770201 0
5.0753145 8.2563467 1.5536778 0
5.0201015 8.4281979 -0.38973612 0
9.0901413 -3.7074931 -0.12644193 0
9.13025 3.5913908 -0.41568559 0
9.1299305 3.591182 0.45441669 0
8.8929005 -3.7152808 1.8965858 0
5.0771809 8.2386942 1.6896677 0
5.025146 8.4415436 -0.11002648 0
-8.8723097 -3.7686 1.9129697 0
5.0261183 8.4441166 0.16985686 0
8.8982925 3.7190359 1.897863 0
-9.1654911 2.9926157 1.9132229 0
9.1285248 3.5998123 -0.60186511 0
8.9905872 3.6402619 1.6087619 0
9.1022358 -3.7156603 0.16418277 0
5.024754 8.4405069 0.44947582 0
9.1074467 3.5917587 0.95725065 0
9.1021547 -3.715606 -0.41965622 0
-2.8033605 9.2784023 1.7074362 0
9.1347656 3.5943477 -0.70899355 0
5.0754995 8.232172 1.8339682 0
9.1339388 3.593806 0.74445421 0
9.114789 -3.7181475 -0.13303071 0
8.981884 3.6639326 1.6918116 0
5.0054207 8.4791393 0.13795084 0
5.0260658 8.4439764 -0.67398345 0
9.1150322 -3.7182469 0.32751456 0
9.1143045 -3.7179503 -0.36462772 0
9.1061554 -3.7146261 0.55714977 0
8.9823914 3.6559494 1.730305 0
5.0706062 8.2444105 1.8339013 0
9.0969772 -3.7121098 0.74627423 0
9.1208544 3.5852396 1.0341032 0
9.1140175 -3.7236168 0.45546541 0
9.1294003 -3.7145443 -0.081609756 0
9.1287889 -3.7238586 0.096565783 0
5.020278 8.4286652 1.0091798 0
-2.7519622 9.4686594 -0.20652026 0
5.0293632 8.4526997 0.73005158 0
9.105793 3.5911269 1.2182772 0
8.9088898 3.7386849 1.9884531 0
9.1352701 -3.7168839 0.17925911 0
-2.8022165 9.2783794 1.8478878 0
9.1104193 -3.7211869 -0.71512771 0
5.0080671 8.4880142 0.48161083 0
-2.7555008 9.4747562 0.13764335 0
5.0794134 8.2423162 1.9179081 0
9.1223764 -3.7212431 -0.59876251 0
-9.3254032 2.9480684 1.3325121 0
9.1380348 -3.7179859 -0.34435916 0
8.9671335 3.6579156 1.9182317 0
9.1135607 -3.7176468 0.78609097 0
-2.753089 9.4706011 0.48167282 0
9.138257 -3.7180746 0.44019705 0
-2.7518139 9.4684038 -0.55204362 0
9.1266003 -3.713428 0.7008518 0
9.1385651 -3.7181973 -0.60829896 0
9.1014385 -3.7151225 1.0389807 0
8.9700518 3.6510313 1.9939054 0
9.1077709 -3.7152848 1.0150727 0
5.0079813 8.4877243 0.82583606 0
-9.1492634 -3.7656226 0.10570465 0
8.9987698 3.645788 1.9059176 0
9.1251965 3.588083 1.3269892 0
-2.7532024 9.4707966 0.8260498 0
9.1044273 3.5906053 1.4814767 0
-9.1542301 -3.7668557 -0.30305201 0
-2.7366238 9.5191002 0.10771331 0
-2.7348208 9.5203257 0.093333006 0
5.0033188 8.4720917 1.1699016 0
9.1396084 -3.7186127 0.9639073 0
9.1000214 -3.7141654 1.3329872 0
5.02918 8.4522152 1.2944651 0
-2.7473197 9.4606638 1.1706605 0
9.1135464 -3.7176406 1.2445939 0
-2.738764 9.5340538 0.32400519 0
-2.7411184 9.5286455 0.51187086 0
-9.1580009 -3.7677915 -0.71355772 0
-9.3197899 2.9470947 1.7444497 0
-9.1712723 -3.7710862 0.51409125 0
-2.7280724 9.4968338 1.0161098 0
9.2777042 3.544409 0.16325746 0
-2.7386053 9.5335007 0.55518758 0
-2.7350519 9.5211306 0.78609282 0
9.1242542 3.587466 1.6217613 0
9.2828035 3.5431046 0.17793605 0
9.2868633 3.5445898 -0.086139947 0
9.1375294 -3.7177844 1.227562 0
9.2901497 3.5523045 -0.1307573 0
9.1089268 -3.7157567 1.4741191 0
5.0244341 8.439661 1.5778598 0
9.2836647 3.5481908 0.45626578 0
9.2860184 3.5496838 -0.42516398 0
-2.7385507 9.5231924 0.91638994 0
9.2916355 3.546335 -0.35155296 0
9.114563 3.5944777 1.7498939 0
-9.1653309 -3.7696111 0.92305142 0
4.9777269 8.6216583 0.089830935 0
4.9706326 8.6278133 0.16718538 0
4.971343 8.6297779 -0.11830103 0
9.0997353 -3.7139723 1.6296222 0
4.9800148 8.6256208 0.32212499 0
9.1282244 -3.7140756 1.4920983 0
5.0070238 8.4845152 1.518528 0
4.976717 8.6199093 0.55438858 0
9.304822 3.5511584 0.44187322 0
9.2909746 3.5460935 0.70576936 0
4.9666872 8.6169062 -0.69136977 0
9.3000784 3.5494232 -0.61942881 0
-2.7514701 9.4678125 1.5190163 0
9.2922535 3.5536392 0.75028789 0
4.97404 8.6372337 0.45238951 0
9.2963352 3.5562294 -0.72313344 0
4.9761171 8.6429768 -0.40602571 0
5.0191026 8.4255552 1.863142 0
-2.7361236 9.5248613 1.2477366 0
-2.735847 9.5174503 1.3219427 0
9.1266022 3.5890028 1.9204975 0
4.9813094 8.6278629 0.78609443 0
4.9740124 8.6371565 0.73811233 0
-9.1627026 -3.7689588 1.3333817 0
9.2985897 3.5488787 0.97160083 0
4.9755602 8.6179047 1.0177461 0
4.968904 8.6230345 1.0235704 0
9.2936335 3.5545151 1.0453531 0
9.1287298 -3.7238348 1.7066239 0
-2.7330518 9.5141678 1.4784069 0
9.2882175 3.5450847 1.237278 0
9.1048279 -3.7174113 1.930794 0
9.1058617 -3.7145059 1.9357511 0
9.1394596 -3.7185535 1.7631717 0
9.3856411 3.5180988 -0.14977169 0
9.3146286 -3.7120993 -0.13637257 0
9.2835751 3.5481336 1.3406779 0
9.3157692 -3.712846 0.16110618 0
-2.6976361 9.6598349 0.13533871 0
-2.6988254 9.661953 -0.21393663 0
9.3972692 3.5224574 0.084216118 0
9.3915997 3.5203323 -0.38639426 0
4.9795203 8.6247644 1.2500188 0
9.3938999 3.5211945 0.31876642 0
5.0104151 8.4958868 1.8708923 0
