# .PCD v0.7 - Point Cloud Data file format
VERSION 0.7
FIELDS x y z intensity
SIZE 4 4 4 4
TYPE F F F F
COUNT 1 1 1 1
WIDTH 1452
HEIGHT 1
VIEWPOINT 0 0 0 1 0 0 0
POINTS 1452
DATA ascii
7.1323848 -3.653481 1.5342698 0
-6.9875693 3.9403675 1.4952688 0
-7.2193122 3.720499 0.82392293 0
-3.8837643 7.0489721 1.3668542 0
7.1192226 -3.6518266 1.6200079 0
-3.6172662 7.3051896 0.46000835 0
7.2692018 -3.6576746 0.66896784 0
-7.3187881 -3.6174088 0.21507192 0
7.284142 -3.6712368 0.42971084 0
-7.1184878 3.8362682 1.1626203 0
-4.2329969 6.7003922 1.9859455 0
-7.3156457 -3.6158555 0.40590268 0
7.2333703 -3.6627855 1.0124784 0
-3.622406 7.310811 -0.44434518 0
-6.9808002 3.963901 1.5355814 0
-7.1467962 3.7912769 1.1629069 0
-3.5679343 7.3510332 0.21456891 0
7.2170935 -3.6540244 1.2133126 0
7.2747126 -3.662677 -0.77724183 0
-3.9209127 7.0134411 1.5424528 0
-3.6137705 7.3013663 0.76072025 0
-3.7449634 7.1835513 1.1634184 0
-3.7075958 7.2213435 1.0630748 0
-4.1388416 6.781466 1.9829866 0
-3.971714 6.9626231 1.673647 0
-3.9216356 7.0232768 1.5371013 0
-4.1289248 6.813807 1.8955086 0
-3.5680246 7.3512197 0.5958221 0
-3.7934442 7.1328359 1.3664289 0
-7.3266501 -3.6212947 0.59579027 0
-6.8842921 4.0511198 1.8290449 0
-6.8154807 4.1329694 1.9064351 0
-3.6240964 7.3126602 -0.74886024 0
-3.5745733 7.3647118 0.40469664 0
7.2755122 -3.6634033 0.91020131 0
7.133564 -3.6540849 1.7230123 0
-7.3179069 -3.6169732 0.78604305 0
-4.0866203 6.8494387 1.9071674 0
-7.2158227 3.7194719 1.1678169 0
-6.9736123 3.9598193 1.7235327 0
7.2129135 -3.6517746 1.4177531 0
-7.1528502 3.7944884 1.3523312 0
-7.3699841 -3.6167276 0.13640237 0
-3.5434008 7.407608 0.15892689 0
-7.1065764 3.832576 1.5051861 0
-3.8787694 7.0439591 1.6722423 0
-3.7198772 7.2258139 1.1924709 0
-4.0204916 6.9077077 1.8963588 0
-3.5447307 7.4091048 -0.14309216 0
-3.5376596 7.4011455 -0.44525218 0
-7.3731732 -3.6176167 -0.2107892 0
-3.746099 7.18573 1.3527914 0
-7.3578715 -3.6133499 -0.55780613 0
-3.6163692 7.3042088 1.0629625 0
-3.5725801 7.3606052 0.78604358 0
7.271039 -3.6593421 1.1517221 0
-3.817554 7.1152153 1.5447623 0
-3.919338 7.0191622 1.7258513 0
7.1244082 -3.6566708 1.867609 0
-3.7029519 7.2164083 1.3661798 0
-7.3738217 -3.6177976 0.48306721 0
-3.5459962 7.4105296 0.46054137 0
-7.3245053 -3.6202345 0.97624081 0
-4.060205 6.8766813 1.984452 0
-6.986897 3.9401486 1.8388979 0
-3.7371352 7.1685357 1.5408564 0
-7.1482506 3.7920482 1.5415668 0
-3.5428228 7.4069576 -0.75078011 0
-3.5748003 7.3651791 0.9766264 0
7.1380076 -3.6563611 1.9133626 0
-3.5640185 7.3429656 1.166265 0
-3.6080117 7.3178053 1.193347 0
7.213192 -3.6519246 1.625823 0
-6.9778614 3.9622321 1.9139733 0
-3.5459194 7.4104433 0.762586 0
-7.3231091 -3.6195445 1.1665723 0
-3.9179344 7.009562 1.8990998 0
-3.7957649 7.1352324 1.6733429 0
7.3997898 -3.6569848 0.0021678507 0
7.3976941 -3.655895 0.20731384 0
7.2687883 -3.6572993 1.3953747 0
7.3996534 -3.6569138 -0.20367551 0
7.3933959 -3.6536603 -0.40992266 0
-7.3762488 -3.6184742 0.83035654 0
-3.6135774 7.3011551 1.3663461 0
-3.9747019 6.9655371 1.9844412 0
-3.7354503 7.1653037 1.7306774 0
7.399991 -3.6570895 0.4121314 0
-3.7167587 7.2215023 1.5479573 0
-7.22611 3.7225001 1.5153271 0
7.4167209 -3.6569645 -0.055304497 0
7.3933616 -3.6536424 -0.61856228 0
7.4168835 -3.6571081 0.18812692 0
-3.9229827 7.0256896 1.9171251 0
7.4152427 -3.6556604 -0.29945993 0
-7.4140782 3.6645072 0.20764095 0
-7.3194623 -3.6177418 1.357069 0
7.4008479 -3.6575348 0.61729467 0
-7.3574405 -3.6132295 1.1771669 0
7.4206963 -3.6604707 0.43136185 0
7.4156151 -3.6559889 -0.54527664 0
-3.7070827 7.220799 1.673448 0
-7.1102576 3.8337171 1.8524131 0
-3.8845778 7.0497885 1.9835052 0
7.2607474 -3.6499999 1.6400038 0
-3.5503783 7.415462 1.0663276 0
-3.5716522 7.3586931 1.3581157 0
-7.1633754 3.800072 1.733995 0
7.2151489 -3.6529777 1.8378081 0
-7.4272857 3.6710351 0.40010512 0
-7.4175191 3.6662078 0.59343356 0
7.4170547 -3.6572587 0.6747278 0
7.40943 -3.6505339 -0.79186046 0
-3.8192935 7.1175489 1.9033145 0
7.4097395 -3.662158 0.8240701 0
-7.3217764 -3.6188858 1.5486187 0
-3.7903023 7.129591 1.9817302 0
-7.420927 3.6678922 0.78604633 0
-7.1471562 3.7914679 1.9232844 0
-3.740977 7.1759048 1.9235576 0
-3.6159139 7.3290672 1.5515295 0
-3.6150756 7.3027935 1.6730593 0
7.4216094 -3.6612761 0.91960263 0
-3.5724051 7.3602443 1.5499357 0
-7.2187219 3.7203252 1.863664 0
7.4120793 -3.6633744 1.0319083 0
-3.5092449 7.5572405 0.15735462 0
-3.5269742 7.455658 1.1992384 0
-3.5519133 7.4171901 1.3718606 0
-7.4228196 3.6688275 0.9787969 0
-7.4780116 3.6468506 -0.56871796 0
-3.5058398 7.5532951 0.46195441 0
-3.7155218 7.2197924 1.9066405 0
-3.5140467 7.5628037 -0.14809296 0
7.395144 -3.6545691 1.2382805 0
-3.5082417 7.556078 -0.45375454 0
-7.5014033 3.6533732 -0.21776581 0
-7.3667235 -3.6158183 1.5283159 0
-7.4914403 3.6505952 0.48519856 0
-3.5657177 7.3464665 1.7406797 0
7.2654552 -3.6542733 1.8911881 0
-7.5076947 3.6551278 0.13390692 0
7.4195566 -3.6594656 1.1653221 0
-7.4169545 3.6659288 1.1714518 0
-3.7080545 7.2218313 1.9836611 0
-7.3304987 -3.6231968 1.7419593 0
-3.507267 7.5549488 -0.76157486 0
-3.5092387 7.5572333 0.76710737 0
-7.4911027 3.650501 0.83660543 0
-3.5402536 7.4040651 1.6770405 0
-7.4112105 3.6630898 1.3642297 0
-3.6123395 7.2998013 1.9821205 0
-3.6116605 7.3230047 1.9104099 0
-3.4996367 7.5461078 1.0720024 0
7.4163866 -3.6566699 1.4127296 0
7.4077773 -3.6611378 1.4520857 0
-3.5661824 7.347424 1.9340528 0
-3.530302 7.4605474 1.5588346 0
-7.3311648 -3.6235261 1.9355463 0
7.5697422 -3.6568167 0.18611659 0
7.5746384 -3.6610119 -0.061689675 0
7.580049 -3.6534867 -0.0061616302 0
7.5722442 -3.6589601 -0.3100158 0
-7.4175253 3.6662109 1.5585942 0
7.5851564 -3.65605 -0.21809405 0
7.5741301 -3.6605766 0.4333843 0
7.4036341 -3.6589837 1.6654494 0
7.5870299 -3.6569903 0.204362 0
-7.4982867 3.6525042 1.1899595 0
7.5733194 -3.6598818 -0.56020403 0
-7.3793826 -3.619348 1.88372 0
-3.5002909 7.5468659 1.3796639 0
7.5879321 -3.657443 -0.43140543 0
-3.4604187 7.6934276 0.15609618 0
7.5918636 -3.6594162 0.4151324 0
-3.4610043 7.6941261 -0.15153399 0
7.5799994 -3.6534617 -0.6448741 0
7.4213295 -3.6610291 1.6646951 0
7.5849204 -3.6559317 0.62584734 0
-3.4642093 7.6915216 0.39309105 0
7.5790391 -3.6647828 0.68139338 0
-3.4620438 7.6953659 -0.46041781 0
7.3893313 -3.651547 1.8788841 0
-3.4709337 7.7064514 0.19493353 0
-3.4661176 7.6957588 0.58956921 0
-3.4695778 7.7043519 0.46355268 0
-3.5530987 7.4185243 1.991554 0
7.574482 -3.6608779 0.92967361 0
-7.4235115 3.6691697 1.7540915 0
7.5881677 -3.6575613 0.83778882 0
-7.4835572 3.648397 1.5432085 0
-3.5273118 7.4561539 1.9201641 0
-3.4628234 7.6962957 0.7710824 0
-3.4682202 7.7004271 0.78605109 0
7.5836172 -3.6552775 1.0502126 0
7.4141026 -3.6546552 1.9168218 0
-3.4714484 7.706583 -0.77290678 0
7.5698299 -3.6568916 1.1790398 0
-3.4807191 7.6497812 1.2110946 0
-3.5055485 7.5529575 1.6911614 0
-3.4675295 7.6988935 0.98261309 0
7.6749077 -3.6573615 0.19145441 0
-3.4608259 7.6939135 1.0796521 0
-7.4261661 3.6704817 1.9504452 0
7.6831756 -3.6613016 -0.0086052418 0
7.6760225 -3.6578927 -0.40916026 0
7.683095 -3.6612632 -0.20888275 0
7.5597682 -3.6482704 1.4289957 0
7.6719408 -3.6559479 0.58821589 0
7.6848092 -3.66208 0.38950127 0
7.5917592 -3.659364 1.2663581 0
-3.4708869 7.7063484 1.1797695 0
7.6748605 -3.6573391 0.7860527 0
-3.4606628 7.6836476 1.3754215 0
7.7256665 -3.6547611 -0.32003391 0
-7.7715468 3.5675576 0.18799484 0
7.7299194 -3.6583011 0.18396376 0
7.7318211 -3.6598837 -0.067945182 0
7.5932298 -3.6601019 1.4840966 0
-7.5049996 3.6543763 1.904375 0
-7.777741 3.5772219 0.1297133 0
7.7161231 -3.6468174 0.68627477 0
-7.7762628 3.5768325 -0.23061913 0
7.6800985 -3.6598351 0.98410022 0
-3.424993 7.8493791 0.15439159 0
-3.4258919 7.8504834 -0.15667883 0
7.73317 -3.6610062 0.4355101 0
7.7268815 -3.6557724 -0.57428402 0
-7.7711434 3.5754836 0.48956764 0
-3.4752913 7.7111664 1.3930413 0
-3.4248266 7.849175 0.46500385 0
-3.4952374 7.6717854 1.5779846 0
-7.7734656 3.5760953 -0.59204656 0
7.5752296 -3.6615188 1.6873347 0
-7.7913742 3.5766592 0.3866924 0
7.6737914 -3.6568296 1.1820369 0
-7.7830133 3.5728211 0.58669555 0
-3.4301844 7.8557544 -0.46945965 0
-3.4660838 7.695684 1.574109 0
-7.7661014 3.5741551 0.84946841 0
7.5869522 -3.6569512 1.7029256 0
-7.7784266 3.5707157 0.78605431 0
7.7314157 -3.6595466 0.94008839 0
-3.4311614 7.8459949 0.85686558 0
7.7878699 -3.6582575 0.20120779 0
-3.4310966 7.8568745 0.77651083 0
7.789268 -3.6589344 -0.23422307 0
-7.7727261 3.5680988 0.98514986 0
-3.4326205 7.8587456 -0.78427279 0
7.7954426 -3.6619234 -0.016482294 0
7.786788 -3.6577339 0.41817129 0
7.7778258 -3.6533954 0.63485658 0
7.7906952 -3.6596253 -0.4538548 0
7.5647593 -3.6525466 1.9427524 0
7.6833816 -3.6613996 1.3813101 0
-3.4794936 7.6479235 1.9411803 0
-3.4753375 7.7112217 1.7071542 0
7.7879148 -3.6582792 -0.67474884 0
-7.7637153 3.5735266 1.2105645 0
-3.4702222 7.7048721 1.773913 0
-3.4273767 7.8523064 1.0884707 0
7.5855603 -3.6562529 1.9262818 0
7.734107 -3.6617868 1.1948384 0
-3.4282088 7.8413773 1.2226495 0
7.6771207 -3.658416 1.580089 0
7.7908897 -3.6597195 0.85378069 0
-7.7891541 3.5756402 1.1853043 0
7.7886667 -3.6586435 1.0729781 0
-3.4209161 7.8443727 1.4013969 0
-3.4693935 7.703032 1.9735777 0
-7.7838326 3.5731974 1.3850616 0
-3.3770232 7.9940166 0.15294658 0
7.7351065 -3.6626184 1.4516793 0
-7.8895044 -3.6217065 0.1789211 0
-7.8747029 -3.6149116 0.58434987 0
-7.8858151 -3.620013 0.38185459 0
-3.3822227 8.0005913 -0.16138196 0
-7.7659039 3.5741031 1.5742817 0
7.886672 -3.6524503 0.18191303 0
7.685164 -3.6622491 1.7812634 0
-7.7721963 3.5678558 1.5845487 0
-3.3811779 7.99927 -0.476569 0
-7.8725286 -3.6139135 0.78605729 0
7.7865381 -3.6576128 1.2939067 0
-7.9150319 -3.6133957 0.1272351 0
7.8948932 -3.6590965 -0.074526697 0
-3.3849444 8.0040331 0.46667635 0
7.8888454 -3.6542075 0.43753576 0
-3.4303899 7.8447886 1.5914614 0
7.8955054 -3.6595914 -0.33179051 0
7.7232137 -3.6527193 1.7082081 0
-7.9192538 -3.6145082 0.49224114 0
-7.8741975 -3.6146796 0.9877522 0
7.6697087 -3.6548841 1.9802921 0
7.8967829 -3.6606238 -0.59079117 0
7.8921528 -3.6568811 0.69374204 0
-3.3857365 8.0050354 -0.79467893 0
-3.3879266 8.0078049 0.78126395 0
-7.9408641 -3.6202023 -0.23953992 0
7.7861676 -3.6574335 1.5175062 0
-3.4254107 7.8498921 1.7190485 0
-7.9353795 -3.6187568 -0.60669559 0
-7.7814021 3.5720818 1.7869895 0
7.8949628 -3.6591527 0.95112944 0
-3.3637512 8.0798416 0.173958 0
-3.3710122 8.0326452 0.86346519 0
-7.9263492 -3.6163776 0.85815328 0
-7.8827572 -3.618609 1.1901051 0
-3.3530273 8.0540829 0.78605908 0
-3.3856897 8.0049763 1.0966054 0
-7.7633948 3.573442 1.9405206 0
-3.365335 8.0836458 0.37816873 0
7.7245579 -3.6538384 1.9711311 0
-7.8722382 -3.6137803 1.3918676 0
7.7859783 -3.657342 1.7441797 0
-3.3684552 8.0911407 0.58203596 0
7.8972926 -3.6610363 1.2102717 0
-3.4332623 7.8492804 1.9639368 0
-8.0620136 3.4957318 -0.24407429 0
-7.9196057 -3.6146009 1.2246685 0
6.4285684 5.9973717 -0.11671522 0
-8.0731277 3.4984906 0.1250587 0
-3.3820677 8.0003958 1.4133527 0
8.0007534 -3.6594164 -0.25095266 0
6.3761854 6.0638175 -0.24257958 0
7.99336 -3.655967 -0.47613722 0
-3.3743858 8.0380917 1.2347068 0
8.0064383 -3.6620686 0.19773342 0
6.3523178 6.0972877 0.16686609 0
-3.3635123 8.0792685 0.98978496 0
8.0097713 -3.6636236 -0.026665688 0
6.1822348 6.273778 -0.12276283 0
-7.7987156 3.5800292 1.9922622 0
6.0045438 6.44454 0.16449335 0
-8.0726204 3.4983642 0.49433219 0
6.521678 5.926692 -0.11613595 0
6.4055567 6.0475545 -0.26883227 0
7.99367 -3.6561115 0.64513457 0
6.0961733 6.3633575 0.16500539 0
6.2715745 6.1920652 -0.12132141 0
6.2048197 6.2494764 0.37582299 0
-7.878727 -3.6167588 1.5954968 0
6.0289745 6.4312806 -0.0370152 0
-8.0689259 3.4974475 -0.61538446 0
6.2078009 6.2566214 0.19355427 0
6.538022 5.911541 0.19458587 0
6.602766 5.8423939 -0.035467595 0
6.139679 6.3247519 0.1933113 0
8.0094643 -3.6634805 0.42172492 0
6.388483 6.0755124 0.1694777 0
6.469708 5.9769044 0.42489874 0
6.6025739 5.8421807 0.19474265 0
6.098752 6.3681898 -0.12502393 0
6.2771482 6.1906805 0.19373006 0
6.21312 6.2578363 -0.037298203 0
6.2785449 6.1924729 -0.038611889 0
6.4102402 6.0532217 0.19414738 0
5.9249496 6.5184593 0.42670372 0
7.9945383 -3.6565168 -0.70418704 0
-3.3354902 8.1509714 0.46816891 0
6.2112465 6.2611756 -0.039319873 0
6.2053752 6.2534146 0.42577556 0
6.4764695 5.9848523 0.19431913 0
6.3600559 6.1103997 -0.11994812 0
6.1881962 6.2845745 0.16544759 0
6.2749562 6.1979876 0.16602391 0
6.0320926 6.434607 0.16921711 0
6.4441957 6.0230064 0.16715306 0
6.1417656 6.3275933 -0.27397442 0
-3.3598182 8.0703945 1.1932832 0
-3.3372669 8.153285 -0.48483646 0
6.3470721 6.1258874 0.19386008 0
6.5268726 5.9349451 0.16769981 0
5.9198208 6.5415459 -0.12880391 0
5.8608027 6.59582 -0.043129265 0
6.0742378 6.3973646 0.19295374 0
6.3884807 6.07551 0.37537718 0
6.3944206 6.0811591 -0.037857652 0
6.004159 6.4643326 0.19269948 0
-3.3459888 8.1646442 -0.16699672 0
5.9204459 6.5428033 0.1636263 0
6.0059776 6.4669642 -0.041754693 0
6.140265 6.3255496 0.42610598 0
-3.3466296 8.1654787 0.15091185 0
6.3584886 6.1077433 -0.40727746 0
6.146657 6.3342552 -0.040367931 0
6.4099712 6.052897 0.42524529 0
6.280921 6.1955214 -0.27210414 0
5.8568707 6.5897665 0.4270882 0
6.4166698 6.0610032 -0.037768841 0
-8.0592232 3.495039 0.86332363 0
7.9880304 -3.6534805 0.86912435 0
6.2737603 6.1958933 -0.41022551 0
6.0713701 6.3933387 0.42636001 0
6.4079151 6.0504084 -0.50268638 0
6.5672579 5.8961415 0.16880888 0
6.4825349 5.9919829 -0.037214696 0
6.4430065 6.0210552 -0.40457708 0
6.0049734 6.4655113 -0.27685797 0
6.6892891 5.7590561 0.16873023 0
7.7882371 -3.6584353 1.9752517 0
6.278604 6.1925483 0.4257113 0
6.0989738 6.3686051 0.45449847 0
6.0143032 6.4634757 -0.12739065 0
6.070323 6.3918691 -0.51070249 0
6.4814215 5.990674 -0.26928324 0
6.352767 6.1329832 -0.038579226 0
5.7911396 6.6660252 -0.04426223 0
6.3464775 6.1251459 0.42552334 0
6.0793195 6.4044971 -0.041282594 0
6.6115847 5.8516192 0.16812858 0
6.009685 6.454515 0.45510256 0
6.2196112 6.2643743 -0.24589694 0
5.9375429 6.5372524 -0.042782217 0
6.2211661 6.2659402 0.16852552 0
6.5493708 5.9245009 -0.036826074 0
5.7894564 6.6633511 -0.28092211 0
5.8518238 6.6126809 0.16849989 0
6.0776052 6.4020915 -0.27596599 0
5.864255 6.6011348 0.19207519 0
6.1884422 6.2850199 0.45396131 0
6.2165551 6.2681932 -0.2737177 0
5.8513341 6.6121278 -0.24611139 0
6.5476785 5.9225683 -0.26855999 0
6.3520856 6.1321344 -0.27161628 0
6.572783 5.9011021 -0.038678944 0
6.6113596 5.8519292 -0.26763999 0
6.4447498 6.0239153 0.45226556 0
6.1422715 6.3282819 -0.50955343 0
6.0392351 6.4422259 -0.24621928 0
6.7360897 5.7090607 -0.26589668 0
6.4349103 6.0077748 0.73675376 0
6.2113366 6.2560401 0.5808382 0
6.2769308 6.2014461 0.45344561 0
6.5293221 5.9388371 -0.40243888 0
6.5280108 5.9367537 0.45173752 0
6.7399168 5.7105966 0.1682387 0
5.864994 6.602273 -0.27998048 0
6.0376315 6.440515 0.37482646 0
6.280426 6.1948862 -0.50672483 0
6.0034161 6.4632568 -0.51315892 0
6.4071403 6.0494709 0.65638483 0
5.8508444 6.6115746 0.37479463 0
7.904397 -3.6667793 1.4728284 0
5.9384971 6.5386758 -0.27887774 0
5.8330555 6.637547 -0.13132864 0
5.7943773 6.6711698 0.19170237 0
6.4393849 6.0151148 -0.69188643 0
6.6911006 5.7617598 -0.3971566 0
5.9409714 6.5423684 0.19219391 0
6.6795926 5.7866116 0.19455133 0
6.0085173 6.4706388 0.42683434 0
6.6789722 5.7859426 -0.26737094 0
6.3566303 6.1045952 -0.69608164 0
6.2729993 6.1853557 -0.7415235 0
6.7436194 5.716949 -0.035667539 0
6.6178942 5.8613324 -0.11596668 0
6.6133599 5.854352 -0.40017253 0
6.6127181 5.8534365 0.42492187 0
6.4822745 5.9916768 -0.50302637 0
6.3509688 6.1307425 -0.50591987 0
6.3554845 6.1026535 0.73887676 0
6.2161546 6.267664 -0.50900674 0
6.5736566 5.9018865 0.37453124 0
6.3937302 6.080503 0.58066213 0
5.860302 6.6222615 -0.039592505 0
6.6111541 5.8517008 -0.50052083 0
6.548089 5.9230375 -0.5019263 0
6.7359366 5.7089005 -0.49808472 0
6.2713742 6.1917143 0.74070024 0
6.2792029 6.1933169 0.658068 0
5.8359551 6.6435919 0.16269289 0
6.8069391 5.6468191 -0.035335571 0
6.2115092 6.2615232 0.65874273 0
5.7414751 6.7264748 -0.13350031 0
6.0732355 6.3959575 0.66013312 0
6.0363164 6.4391122 0.58060026 0
6.8061891 5.6460557 0.19480029 0
6.5519071 5.9273973 0.42518204 0
5.7248216 6.7429442 -0.04585889 0
6.6781335 5.7850385 0.42481124 0
5.9159756 6.5338163 0.74775153 0
6.777164 5.6829042 0.16896616 0
5.9994302 6.4574895 -0.75062644 0
5.8322258 6.635818 0.45655665 0
-7.8719406 -3.6136436 1.7986383 0
6.7462668 5.7197227 0.1946041 0
6.7408504 5.7140479 0.42465898 0
5.7234087 6.7406268 -0.28362656 0
5.9381056 6.5380912 -0.51624364 0
6.3684969 6.1247029 0.45308959 0
5.7248907 6.7430573 0.19127437 0
5.7426271 6.7289672 0.16203868 0
5.8508778 6.6116118 0.58053845 0
5.6661 6.7854657 0.37426254 0
6.6157284 5.8579988 0.45140421 0
6.6868825 5.7944708 -0.036588728 0
6.3487854 6.1280222 0.65764588 0
8.0574055 -3.6532729 0.1795731 0
6.6953263 5.7680659 0.45085913 0
6.751277 5.720222 -0.040136993 0
6.581912 5.9092984 -0.24798298 0
6.5449381 5.9194388 0.65587342 0
6.005229 6.4658809 0.66108567 0
6.5251594 5.9322228 0.73587847 0
6.6087885 5.8490763 0.65533906 0
6.0093622 6.4538894 0.74622548 0
6.8562059 5.5949798 -0.11145228 0
6.4120049 6.0553575 -0.73924482 0
6.4814692 5.9907303 0.65652853 0
6.6085658 5.846972 -0.68547869 0
5.6728101 6.7935014 -0.040304422 0
6.5719209 5.9003282 0.58046234 0
6.346427 6.1250834 -0.74124956 0
6.6795058 5.7865176 -0.50027728 0
6.2121425 6.2568517 0.7860617 0
6.3892064 6.0762005 0.7860617 0
-3.3796382 7.9973235 1.732723 0
6.1010685 6.37253 0.74468178 0
6.1482716 6.3364544 0.65991092 0
-7.9231486 -3.6155343 1.5942478 0
6.6074634 5.8476062 -0.73456132 0
6.2784195 6.2040529 -0.70182168 0
6.1899233 6.2877026 0.74299645 0
6.2135558 6.2642288 -0.74569845 0
5.8698745 6.6097856 -0.51897758 0
5.9295483 6.5611019 0.45613047 0
6.7834229 5.6919613 -0.11342186 0
6.4070759 6.0493927 0.88844097 0
7.9923792 -3.6555095 1.0954044 0
8.0599422 -3.6552641 -0.34280717 0
6.5458231 5.9204497 -0.73670256 0
6.5313468 5.9420538 -0.69020659 0
-3.3448644 8.1631804 0.7863 0
6.7549992 5.7233753 -0.24894488 0
6.7064161 5.7846146 -0.11516565 0
6.1463618 6.3338532 -0.74818063 0
5.7424269 6.7285342 0.457353 0
5.6763754 6.797771 0.16668344 0
5.5770473 6.8757467 -0.28729975 0
6.7798324 5.6867652 -0.39609993 0
6.6107845 5.8503876 0.73468268 0
6.5656152 5.8946671 0.78606188 0
6.7528343 5.7215414 0.37376368 0
5.6540461 6.8140655 -0.28601491 0
5.6564703 6.8181729 -0.047397286 0
-3.3623779 8.0765438 1.3979142 0
6.9203706 5.5304151 0.16650158 0
5.802043 6.6833487 0.42794883 0
6.0785728 6.4034491 -0.75082004 0
6.6915827 5.7624788 0.7331692 0
5.7996845 6.6796017 -0.52155685 0
5.6567483 6.818644 0.19075474 0
6.8164659 5.6565175 -0.26748598 0
8.0692606 -3.6625793 -0.081788063 0
6.0371237 6.4399734 0.786062 0
6.8630176 5.6045403 0.16922508 0
5.6684079 6.7882295 0.58019018 0
6.2106009 6.2603226 0.89225429 0
6.6764979 5.7832747 -0.7344197 0
5.7296991 6.7509456 0.42828691 0
6.6818519 5.7890472 0.65560108 0
6.4869108 5.9971271 -0.73979974 0
5.870141 6.6101956 0.66342771 0
6.2070651 6.2517381 0.99114412 0
5.7966728 6.6748166 0.66420662 0
6.1431026 6.3294144 0.89357209 0
6.346909 6.1256838 0.89029264 0
6.8121285 5.652102 -0.49958241 0
6.8824129 5.5889411 -0.035978824 0
5.9433413 6.5459042 0.66272807 0
6.8814421 5.5879807 0.19459119 0
6.9410534 5.5162067 -0.11071312 0
5.6498718 6.8183293 0.45811313 0
5.728024 6.7481976 -0.52408338 0
5.6545057 6.8287439 -0.13649887 0
6.7838626 5.6925974 0.45063955 0
6.0040188 6.4641299 0.89611113 0
6.4796591 5.9886022 0.88844526 0
6.8810649 5.5876079 -0.26720452 0
6.8610792 5.60182 0.45011663 0
5.9331846 6.5307484 0.89744294 0
5.8679638 6.6068444 -0.75868702 0
6.8173904 5.6574593 0.42487875 0
7.0027852 5.4430475 -0.035227358 0
5.6554031 6.8307614 0.16104935 0
6.9261465 5.5350308 -0.25040269 0
5.5573411 6.9114137 -0.1384331 0
5.9410152 6.5424337 -0.75654387 0
6.8631787 5.6047673 -0.39441586 0
7.8925986 -3.6572416 1.7342223 0
5.5080519 6.9528332 -0.049669057 0
6.6993394 5.7740545 -0.68414372 0
6.0765557 6.4006176 0.8952077 0
6.8045506 5.6443872 -0.73251116 0
6.9429111 5.5161519 -0.26671332 0
5.6548548 6.8154354 -0.52654189 0
6.7546387 5.7230701 0.57996976 0
6.2713246 6.1916275 1.0291958 0
6.2843213 6.1998854 0.89198816 0
5.5869684 6.8931212 -0.048965514 0
6.4410973 6.0179238 1.0236562 0
6.8811479 5.5876899 0.42480159 0
5.8579931 6.6196523 0.78606236 0
5.6593118 6.822988 0.42873332 0
8.0715227 -3.664355 0.44014019 0
5.8643265 6.6012449 0.89927328 0
5.583169 6.8864675 0.42902428 0
5.7277288 6.7477136 0.66555166 0
6.5493522 5.9244795 0.88818228 0
5.486711 6.9675546 0.37293866 0
6.8801789 5.5867314 -0.49979436 0
5.7916622 6.6668563 0.90068448 0
8.0651264 -3.6593339 -0.60685998 0
5.5603819 6.9185205 0.16030876 0
6.9471664 5.5245333 0.16949587 0
5.5883837 6.8955998 0.19019216 0
6.4690266 5.9761033 1.119916 0
7.0060906 5.4461355 -0.26651162 0
6.8694615 5.5761285 -0.73210955 0
5.5109172 6.9580221 0.18990418 0
5.5817413 6.8839669 -0.52931195 0
6.9432793 5.5192389 -0.39245969 0
6.9493804 5.5223718 0.19454181 0
6.7486396 5.7222085 -0.73520589 0
5.7995968 6.6794615 -0.76254332 0
6.525825 5.9332814 1.0212646 0
6.6149077 5.855866 0.88750368 0
6.753294 5.7270846 0.65580189 0
5.7430859 6.7299604 0.75310159 0
5.504827 6.9469924 -0.53143543 0
6.9516253 5.5245299 -0.036218762 0
-8.1714487 3.4709027 0.1651507 0
6.9369531 5.5436668 -0.043047845 0
6.0097675 6.4546747 1.0385056 0
6.8568325 5.5958591 0.73090887 0
6.9429736 5.5188227 0.44978049 0
5.4346409 7.0237193 -0.051098406 0
6.1363478 6.3202147 1.1277246 0
6.0360188 6.4387951 0.99151385 0
6.1887407 6.2855601 1.0328237 0
6.7809677 5.6884084 0.73259556 0
6.7834525 5.6920037 -0.68162543 0
5.8390379 6.6500187 0.75145364 0
6.395905 6.082571 0.99153185 0
5.9253597 6.5190711 1.1328323 0
5.4942131 6.9770818 0.16496843 0
6.1007748 6.3719802 1.0357966 0
6.8613658 5.602222 -0.67809641 0
6.8178115 5.6578879 0.65554869 0
5.727716 6.7476926 -0.76573491 0
-3.3846016 8.0545826 1.6102678 0
6.3626008 6.1147118 1.0273855 0
6.5697098 5.8983431 0.99159294 0
8.0657988 -3.6598618 0.70095742 0
6.7435346 5.7168603 0.88624007 0
6.9482627 5.521297 0.42483115 0
6.9456058 5.5187426 -0.499717 0
5.657115 6.8192658 0.6668638 0
7.0259786 5.438168 -0.11009353 0
6.6020603 5.8416114 1.118253 0
5.5135984 6.9628773 -0.29122847 0
6.6108246 5.8504491 1.0191654 0
7.9912977 -3.655005 1.3230207 0
5.4641771 7.00666 -0.14114761 0
6.8058267 5.6456861 0.88555771 0
6.9330945 5.5405836 -0.46143711 0
-8.1729231 3.471529 0.37242094 0
6.7544141 5.7228799 0.78606272 0
5.6502132 6.819097 0.75534558 0
6.3442345 6.1223507 1.1239988 0
6.9376807 5.5442486 0.37236351 0
5.7235384 6.7408395 0.9030484 0
-8.0773773 3.4995456 1.2355464 0
7.0100584 5.4498425 0.42475611 0
6.88205 5.588582 0.65535212 0
5.4652615 7.0092974 0.1594898 0
5.4379292 7.029881 0.18940967 0
6.6849751 5.7924147 0.88754326 0
6.2067504 6.2514205 1.1964287 0
5.9229822 6.5479026 1.0423522 0
6.9305778 5.5385723 0.57953686 0
7.0244079 5.4360909 -0.39086843 0
5.6763864 6.7977843 0.78606284 0
7.0227823 5.4339423 0.44942501 0
6.2114472 6.2614412 1.1274487 0
5.4892354 6.9707608 0.57951784 0
7.1012044 5.3481932 0.17032857 0
5.5135469 6.9627843 0.42959079 0
7.0090718 5.4489207 -0.4994759 0
-3.345715 8.1642885 1.1054502 0
6.9434814 5.5167003 0.65502667 0
5.562252 6.9228907 0.45917425 0
5.4380655 7.0301375 -0.29324728 0
6.0269876 6.4291611 1.1965733 0
6.9393888 5.5139403 0.72996581 0
5.4628658 7.0034695 0.45980024 0
7.0192876 5.4584646 0.19442347 0
6.6945438 5.7668982 1.0170977 0
6.4145122 6.058392 1.1233581 0
5.6575403 6.8199863 -0.7698369 0
7.0777292 5.3838606 0.19455522 0
5.4364114 7.0270376 0.42993408 0
7.0797944 5.3857355 -0.036161453 0
5.5082083 6.9531164 0.66908604 0
5.5041556 6.9897079 -0.04461354 0
6.5462284 5.9209123 1.1209795 0
7.1072526 5.3530293 -0.044698536 0
6.3891015 6.0761008 1.1967872 0
5.3622217 7.09828 0.18896617 0
5.8330355 6.6375055 1.0459418 0
7.0333357 5.4478931 0.16966967 0
-8.1728001 3.4714763 0.57935727 0
6.0768709 6.4010606 1.1314882 0
5.5873146 6.8937278 0.66840219 0
6.7749462 5.6796951 1.0147481 0
6.2840466 6.199533 1.1268481 0
-3.3645301 8.0817127 1.6034243 0
6.9462404 5.5232716 -0.67634898 0
5.3028202 7.1466651 0.16367608 0
6.9262853 5.5351419 0.78606313 0
6.9353919 5.5089231 0.8852008 0
6.6750069 5.7816672 1.118865 0
5.8459191 6.6060085 1.1969841 0
7.0047317 5.4448662 -0.73314583 0
7.0095596 5.4493761 0.65511322 0
7.0748343 5.3812327 -0.49978554 0
5.7405248 6.7244186 1.0493729 0
7.1094599 5.3587871 -0.10945821 0
7.1428895 5.3154454 -0.036169231 0
7.0635748 5.3710117 -0.73207748 0
6.7516894 5.7205715 0.99206591 0
5.3061199 7.1511121 -0.045355856 0
6.8551693 5.5935245 1.0126083 0
5.8649926 6.627562 0.9920823 0
7.1107616 5.3556724 -0.25459981 0
7.1041842 5.350718 -0.46407676 0
6.3541541 6.1003985 1.3148834 0
6.9491935 5.5221915 -0.73518574 0
5.3670731 7.1076922 -0.053351015 0
8.063549 -3.6580951 0.96260828 0
5.5806618 6.8820763 0.90733743 0
5.4394507 7.032733 -0.5368579 0
5.5873256 6.8937469 -0.77435696 0
5.5600214 6.9176774 0.75819016 0
7.0215392 5.4322991 0.72910792 0
6.011342 6.4747267 1.1342709 0
5.8669448 6.6052756 1.1377172 0
7.0815587 5.3873372 0.42493507 0
5.7937889 6.6702347 1.1395979 0
5.3708344 7.1055613 0.15854688 0
6.7354398 5.7068033 1.1973001 0
7.0867867 5.3920827 -0.26850146 0
6.9172235 5.5279002 0.99219149 0
5.6592312 6.8228507 0.90630746 0
7.0956955 5.3411231 0.72768462 0
5.5115929 6.9592457 -0.77752924 0
5.676373 6.7977686 0.99222469 0
7.1098785 5.3593249 -0.39009529 0
7.1177621 5.3609447 0.16286141 0
5.3675814 7.1086779 -0.29646826 0
6.8843465 5.5908542 0.88700837 0
6.2723665 6.1845436 1.3607606 0
7.0278401 5.4406281 -0.67420006 0
5.6481228 6.8143983 1.0532032 0
6.5244603 5.9311128 1.3080193 0
7.147625 5.319622 -0.26824069 0
6.3401065 6.1172075 1.3590502 0
6.18606 6.280705 1.3238753 0
5.4936318 6.9763436 0.78606349 0
6.2731481 6.1948209 1.3199164 0
5.3734674 7.112237 -0.14450422 0
5.2901764 7.1757169 -0.054710954 0
6.4070144 6.0493183 1.357404 0
7.1155801 5.3593011 0.37109819 0
7.1886258 5.2745466 -0.10856882 0
5.3642888 7.1022902 -0.54013473 0
6.4438953 6.0225139 1.3123505 0
5.4639997 7.006228 0.7605232 0
6.5764046 5.9043536 1.1977664 0
7.0792742 5.3852634 0.65552467 0
7.0068178 5.446815 0.88599873 0
7.2542782 5.1746774 -0.38540262 0
7.2107954 5.2492466 -0.036578804 0
7.1533518 5.3246732 0.19426045 0
7.1475663 5.3195705 0.42500493 0
6.8106709 5.6506181 1.118727 0
6.2091708 6.2584319 1.3639473 0
5.3692536 7.1119227 0.43070176 0
5.9288821 6.5243278 1.3724917 0
6.0006247 6.459218 1.3703593 0
7.2120409 5.2503138 0.19433889 0
5.4427142 7.0388484 0.67139715 0
7.1126742 5.3571129 0.57877815 0
6.0116224 6.4582744 1.3330277 0
-3.3176732 8.2377167 0.87118703 0
5.2730241 7.197319 -0.14676741 0
7.1473346 5.319366 -0.50135404 0
7.9913216 -3.6550159 1.5533222 0
-3.358669 8.0676346 1.8076533 0
6.0723352 6.3946934 1.3685174 0
5.2731962 7.1977749 0.15765934 0
6.7525005 5.726253 1.1204302 0
5.2937145 7.1828299 0.18818972 0
5.3652239 7.0913363 0.76272678 0
-7.9212594 -3.6150367 1.9663773 0
5.7287817 6.7494411 1.1436622 0
8.0536346 -3.6503122 1.2244661 0
-8.1847868 3.476568 0.78606385 0
6.5610857 5.8906002 1.4027371 0
7.1185069 5.3703971 0.44956279 0
7.2102556 5.2487836 0.4250201 0
6.877099 5.5836844 1.1186625 0
5.9227376 6.54741 1.3378615 0
7.1903262 5.2766652 0.4490571 0
6.3906865 6.0776076 1.4028609 0
6.9451079 5.5217295 1.01213 0
6.105166 6.3802085 1.3298739 0
6.614677 5.85638 1.3062562 0
5.3755236 7.1174488 0.4610762 0
7.2171702 5.2547088 -0.26910651 0
6.4831424 5.9926968 1.3582786 0
5.4429088 7.0392132 -0.78347027 0
7.2851439 5.1662745 0.16144514 0
-8.0616341 3.4956374 1.6070725 0
7.0746965 5.3811078 0.88647294 0
6.2156968 6.2604318 1.4030579 0
7.21064 5.2491131 -0.50156075 0
7.1985111 5.2868652 0.17011467 0
6.5480375 5.9229784 1.356635 0
5.5160503 6.9673185 0.91107237 0
5.3185315 7.1678395 0.37028605 0
7.1943331 5.2816586 -0.38934875 0
7.1081591 5.3537121 0.78606403 0
6.6749005 5.7815528 1.3534478 0
6.1481352 6.3362689 1.3680553 0
5.1719007 7.2842293 -0.14920115 0
7.1333375 5.3070202 0.88597399 0
6.6130672 5.8538237 1.3552871 0
7.2701378 5.193871 -0.10798779 0
7.114223 5.3649001 -0.67328435 0
-8.1738272 3.4719126 0.99279594 0
5.2922277 7.179841 -0.54463273 0
5.2974744 7.1903892 -0.30007523 0
7.1449814 5.3172908 -0.73601234 0
7.2799926 5.1838059 -0.037136585 0
5.8327436 6.6368971 1.3428839 0
5.295567 7.1865549 0.43128294 0
5.2175241 7.2543554 0.18765169 0
5.791749 6.6669936 1.3796101 0
5.4959178 6.9792466 0.99286079 0
6.7403378 5.713511 1.3527015 0
5.3661089 7.1058216 -0.78716314 0
5.2189546 7.2573376 -0.056916058 0
5.3705149 7.1143703 0.67314482 0
5.2749076 7.202302 0.46182519 0
5.6597977 6.8238106 1.147136 0
6.0382328 6.4411564 1.403537 0
7.2588315 5.1661925 -0.73413324 0
7.0248213 5.4366379 1.0103285 0
-3.3474274 8.1665182 1.426828 0
7.1529341 5.3243046 0.65627116 0
7.2816215 5.1851616 0.19414476 0
7.1888318 5.2748036 -0.67028946 0
-3.2930908 8.3115149 -0.17146286 0
5.3170857 7.1658912 0.57834435 0
7.0047379 5.4448714 1.1181476 0
5.3619156 7.0976853 0.91478634 0
6.333035 6.1083956 1.5953387 0
5.2182837 7.255939 -0.30218697 0
6.7012024 5.7768345 1.3039546 0
7.1868796 5.2723708 0.7278226 0
5.8682675 6.6073122 1.3781754 0
7.2113457 5.2497177 0.65601683 0
7.2775803 5.181798 0.42516348 0
7.2751403 5.1999249 0.1704468 0
7.2830644 5.1863627 -0.26965284 0
6.9484653 5.5214915 1.1196041 0
5.4629345 7.0036368 1.0620515 0
7.2703614 5.1941419 0.44882226 0
5.6830101 6.8057165 1.199093 0
5.4442592 7.0417433 0.91379821 0
5.1766071 7.2972412 0.15661572 0
5.587533 6.8941097 1.1501461 0
7.2099204 5.2484965 -0.73662579 0
7.2931628 5.1719608 0.36957023 0
5.7429409 6.7296467 1.3484893 0
5.2189693 7.2573686 0.43180668 0
6.7831249 5.6915298 1.3009547 0
7.290379 5.1699867 -0.47021449 0
5.1734772 7.2885876 0.46262366 0
7.1050797 5.3513927 0.99312896 0
-8.1636629 3.4675953 1.1992382 0
7.3433924 5.1132622 0.19410709 0
5.1248965 7.3377519 -0.049610436 0
-3.2918773 8.3098869 0.46992189 0
5.5652423 6.9298787 1.059563 0
5.858417 6.6201315 1.4043229 0
6.3807478 6.0681562 1.6082236 0
7.3478193 5.1091461 0.17084599 0
5.1413116 7.3279848 -0.058532178 0
7.3385978 5.109386 0.42518532 0
-3.2998805 8.3206253 0.14924438 0
6.8613973 5.6022663 1.2975031 0
7.2811279 5.184751 -0.50307411 0
6.0657897 6.3855062 1.606961 0
7.3497114 5.1113706 -0.1073539 0
6.9367642 5.5103655 1.2937832 0
-3.3810081 8.0487823 1.9862707 0
7.3030901 5.1790009 -0.049871147 0
5.2097721 7.2381945 -0.79490793 0
5.1399598 7.3250594 -0.30473864 0
7.34764 5.1166959 -0.037647009 0
5.214282 7.2475967 0.6757499 0
6.2732062 6.1856213 1.5998995 0
7.1058621 5.3541703 1.0089235 0
5.2185788 7.2565541 -0.5491268 0
7.2898326 5.1695995 0.57802534 0
5.6489878 6.8163428 1.3534189 0
6.933147 5.5406251 1.1994941 0
5.142909 7.33144 0.18698925 0
7.3475828 5.1166496 -0.27014887 0
7.3039956 5.1796432 -0.26069272 0
5.7274303 6.7472239 1.385048 0
7.3482685 5.1096745 -0.38632786 0
5.2983513 7.1921525 0.67507303 0
5.1288919 7.3434725 0.15961456 0
7.4057913 5.0417523 -0.037583411 0
6.0054464 6.4462905 1.6275938 0
7.2702422 5.1939974 -0.66890788 0
7.2791486 5.1831036 0.65647906 0
5.2749319 7.2023659 0.76645017 0
5.1405458 7.3263283 0.43231249 0
6.2091689 6.2584295 1.6035444 0
6.476018 5.9843221 1.5944507 0
5.2949233 7.1852608 -0.79329479 0
5.3196073 7.1692891 0.78606486 0
5.1703782 7.2800207 0.76836663 0
6.8792152 5.5857778 1.3536826 0
-3.2865672 8.3027611 0.79029071 0
6.1870794 6.2825518 1.6182572 0
5.5180464 6.9709334 1.1541934 0
6.0986891 6.3680711 1.6234819 0
6.4138722 6.0576177 1.5976073 0
6.527153 5.9353909 1.5982703 0
7.4080586 5.0435324 -0.27030128 0
7.3516026 5.1135936 0.44865596 0
6.4450073 6.0243378 1.603395 0
5.6562386 6.817781 1.3888313 0
6.1439357 6.3305488 1.6072072 0
7.2137685 5.2517939 0.88811457 0
-3.3019123 8.3233509 -0.49483669 0
7.4267144 5.0264239 -0.10662046 0
5.5805221 6.8818316 1.3915838 0
5.3700848 7.1036615 1.0671344 0
5.4988408 6.9829583 1.2001027 0
6.0042768 6.4645028 1.6126629 0
5.5560694 6.9084411 1.3592201 0
6.2764201 6.2005515 1.6138613 0
6.8228273 5.6629944 1.3560421 0
6.9430933 5.5163274 1.3532456 0
6.6107688 5.8512735 1.5922493 0
6.5668721 5.8957953 1.6100657 0
7.0838461 5.3894138 1.1206801 0
6.7603636 5.7279205 1.4057631 0
6.3634071 6.1160779 1.6092075 0
6.6114178 5.8513627 1.5942478 0
7.4291391 5.0291934 0.17097503 0
6.0372944 6.4401555 1.6102791 0
5.2133198 7.2455902 0.92058283 0
5.1339746 7.35075 0.36839563 0
7.4252439 5.0247445 -0.38510305 0
7.997149 -3.6577349 1.7882518 0
6.6759229 5.7826552 1.5909514 0
5.2957797 7.1869822 0.91914231 0
5.3151641 7.163301 0.99371022 0
6.6929297 5.7644897 1.589873 0
5.935976 6.534914 1.6165084 0
7.2935491 5.172235 0.78606528 0
7.3412042 5.1114931 -0.73872578 0
6.5505161 5.9258089 1.5953021 0
5.1290665 7.3437223 0.57754314 0
5.852118 6.6130137 1.6105684 0
7.4709325 4.9721551 0.1938768 0
7.4177976 5.0511775 0.1937665 0
6.2218466 6.2666259 1.6105829 0
5.4446821 7.0425363 1.1576223 0
7.0258536 5.4380021 1.2931957 0
7.1463332 5.3184824 1.1205901 0
-3.323308 8.2471104 1.2479954 0
7.0078955 5.4478211 1.3532315 0
7.2798171 5.205585 0.72818422 0
7.3565679 5.1239133 -0.50549817 0
7.2787957 5.1828098 0.88856697 0
5.6846619 6.8076949 1.4063492 0
-3.3362284 8.1519327 1.7478131 0
5.1461563 7.3384671 -0.55443758 0
5.8660669 6.6039243 1.6202213 0
7.4119444 5.0465827 -0.50490004 0
7.4284244 5.0283771 0.44840604 0
7.1099849 5.3550873 1.2007051 0
7.1946144 5.2820091 1.0087881 0
8.066637 -3.6605198 1.4923095 0
6.742816 5.7130532 1.6112309 0
7.354248 5.116703 -0.66826224 0
7.3526974 5.1207843 0.65738785 0
5.9251623 6.5522852 1.6368266 0
5.4621325 7.0016847 1.3653165 0
5.368845 7.1111307 1.1607559 0
5.2727499 7.1965942 1.0716512 0
7.4191251 5.0522194 0.42566299 0
7.3532596 5.1155415 0.72704089 0
7.2673993 5.1905565 1.0066048 0
5.1271229 7.3409395 0.78606564 0
5.8334723 6.6384153 1.6427096 0
7.4783139 4.9871516 -0.053198993 0
5.5126896 6.9612317 1.3972887 0
5.7971563 6.6755848 1.6247405 0
-8.1730003 3.4715617 1.4070966 0
7.5066934 4.9453435 0.17117015 0
6.7803946 5.6875787 1.5875962 0
6.8112192 5.6511765 1.5906233 0
7.4823408 4.9808502 -0.27208656 0
7.5091262 4.9480429 -0.10641798 0
7.4278002 5.0276642 -0.66588664 0
5.4958382 6.9791455 1.4073448 0
7.4869571 4.9843678 -0.039108068 0
7.0772271 5.3834047 1.3543978 0
7.1085191 5.3575802 1.2915449 0
5.1488323 7.3442554 0.67887157 0
5.6497316 6.8067541 1.6315955 0
5.2925882 7.1805668 1.1641322 0
7.2943463 5.1728005 0.99423414 0
7.4845433 4.9913058 0.15689117 0
7.3477793 5.1168084 0.88957095 0
6.7541494 5.7279806 1.5936316 0
5.7271333 6.7467365 1.6293303 0
7.5078664 4.9466448 -0.38479567 0
6.0281491 6.4304004 1.8164549 0
7.1003904 5.3478608 1.4077482 0
6.8622408 5.6034503 1.5841348 0
6.4719257 5.9795113 1.8341581 0
5.3151379 7.1632662 1.2015792 0
6.9449873 5.5500875 1.4078314 0
7.4856391 4.9920368 -0.26575899 0
7.2201662 5.2572756 1.1225011 0
6.2058692 6.2540674 1.8451542 0
5.6765857 6.7980227 1.6129844 0
5.3671083 7.0961142 1.3717129 0
6.1375618 6.3218679 1.848281 0
6.2126522 6.2573652 1.816873 0
7.4845948 4.9913402 0.36699238 0
8.2225761 -3.6585219 -0.26856577 0
6.2756257 6.1887264 1.8429966 0
7.481236 4.9891005 -0.47790861 0
7.4076614 5.0432205 0.88965714 0
8.2151146 -3.6551702 -0.50085354 0
6.9212737 5.531137 1.6133046 0
8.2280464 -3.6609795 -0.037009209 0
7.471756 4.9727831 -0.74142504 0
5.1252646 7.3382792 0.99443388 0
8.2320166 -3.652199 -0.088202268 0
5.1443796 7.3346219 0.92506033 0
5.442297 7.0380664 1.4026644 0
6.4105668 6.0536175 1.8381674 0
6.6671939 5.7732444 1.8284967 0
7.5495582 4.9121909 -0.039460331 0
6.3927441 6.0795646 1.8173808 0
7.3488593 5.1103683 1.0058076 0
7.4785247 4.9872923 0.57681262 0
7.4338174 5.0345354 0.72658551 0
6.8827143 5.5892396 1.5919043 0
7.4254408 5.0571775 0.65829265 0
7.5471554 4.9104133 -0.27292091 0
8.2283726 -3.6611261 0.19421794 0
7.5831704 4.8607683 0.17135888 0
5.6501961 6.8190575 1.6565031 0
5.3638763 7.1014895 1.4057913 0
7.488091 4.9852324 -0.50768673 0
-3.2937746 8.3124323 1.1130453 0
5.7475991 6.7397246 1.651432 0
6.5431304 5.9173741 1.8340391 0
-8.064909 3.4964502 1.9837641 0
7.514226 4.9537015 0.44842625 0
5.8491364 6.6096444 1.8178546 0
7.1905823 5.2769847 1.2900329 0
6.0929804 6.3573737 1.9197068 0
7.284266 5.1873627 1.1229753 0
8.2261772 -3.6601393 0.42514005 0
5.2184782 7.2563443 1.1684983 0
8.2141571 -3.6547396 0.65561116 0
7.4949403 4.9904523 0.4260501 0
7.5443096 4.908308 -0.50753528 0
7.5545368 4.9158735 0.19329971 0
7.5481248 4.9111304 0.42596108 0
6.7379084 5.7088947 1.8184578 0
6.4412971 6.0182514 1.8960261 0
6.5720587 5.9004517 1.8185664 0
7.1513519 5.3229094 1.3567576 0
5.9333854 6.5310478 1.8607399 0
6.9493971 5.5223875 1.5921109 0
6.1845589 6.2779865 1.9146379 0
6.0764813 6.4005136 1.8547289 0
7.5099955 4.949007 -0.66536927 0
7.6076512 4.8365164 -0.27339077 0
6.9491296 5.5272069 1.5824151 0
7.4288635 5.0598645 -0.74449015 0
8.2340698 -3.653764 0.44227141 0
5.1794672 7.3051472 1.077728 0
5.4900818 6.9718356 1.6146213 0
5.3087988 7.1547222 1.4091566 0
6.3525057 6.1326575 1.8438529 0
7.5918131 4.8700867 -0.10632694 0
7.4766884 4.9860678 0.78606653 0
8.2437153 -3.6611149 0.17691696 0
7.4899797 4.9866719 0.65870726 0
8.239769 -3.658107 -0.35540408 0
5.2887197 7.1727886 1.4104885 0
5.8632555 6.599596 1.8650328 0
7.2947621 5.1730952 1.2026527 0
6.3606443 6.1113963 1.9034885 0
7.2125607 5.2507591 1.3565766 0
6.0088582 6.4711323 1.8591075 0
7.0706205 5.3774076 1.5900908 0
7.0266333 5.439033 1.5785531 0
5.0956526 7.4472618 0.15461804 0
7.59026 4.868412 -0.38460857 0
7.4770579 4.9768238 0.89090544 0
5.5887003 6.8961539 1.6406683 0
-8.1753159 3.4725451 1.6153939 0
6.7433238 5.7166395 1.8310238 0
6.5301876 5.9402118 1.8922297 0
6.6916819 5.7626266 1.8803806 0
6.612143 5.8524795 1.8864444 0
5.5122757 6.9604826 1.6442975 0
7.5435934 4.9077783 -0.74434149 0
7.5489902 4.9117708 0.65882337 0
6.2783265 6.2038894 1.9110039 0
7.5155253 4.955143 0.72631896 0
7.3534989 5.1214323 1.1244136 0
8.2357388 -3.6550353 -0.62310737 0
5.125596 7.3387537 1.2030554 0
-3.3197994 8.2412615 1.625698 0
6.8085093 5.6484175 1.8301774 0
7.4335003 5.0341735 1.0055995 0
6.6223941 5.8641725 1.8370105 0
7.653944 4.7928939 -0.26964521 0
7.5823097 4.8598409 0.72499454 0
5.1443982 7.3346624 1.173323 0
5.4361563 7.0265598 1.6485262 0
7.4109211 5.0457792 1.1241404 0
7.6652179 4.782444 0.17137314 0
7.2779036 5.1820669 1.3574635 0
7.1070762 5.3557281 1.5758469 0
7.5972891 4.8759904 0.44840354 0
6.872611 5.5792441 1.8293107 0
8.2311211 -3.6623609 -0.73864293 0
5.0970526 7.451313 0.4648568 0
7.4751763 4.9850593 0.99522704 0
7.6272669 4.8505974 0.19294477 0
7.2846527 5.165926 1.4106451 0
5.5647917 6.9288259 1.6670275 0
7.6570735 4.7948537 0.36521402 0
8.2220726 -3.6582959 0.88791758 0
7.2803979 5.2062879 1.2902656 0
7.6706934 4.7881804 -0.10603368 0
5.4650021 7.008667 1.6725752 0
5.9249058 6.5517702 1.9383295 0
8.0761728 -3.6680052 1.7634363 0
7.6637206 4.7808752 0.44798905 0
8.241087 -3.6591117 0.70819992 0
7.6318626 4.8538961 -0.041147083 0
5.095171 7.471653 0.18510449 0
6.0184054 6.4714346 1.9326085 0
5.279685 7.214941 1.3814565 0
7.5459065 4.9094896 0.89218497 0
7.6663923 4.8006892 0.15344769 0
7.5939136 4.8723512 -0.66537583 0
5.2176933 7.2547083 1.4172088 0
7.1450682 5.3173671 1.5930927 0
6.7810693 5.6885552 1.8782531 0
5.8030586 6.6849623 1.8741499 0
5.1749439 7.2926435 1.3859439 0
7.0308437 5.4692602 1.5964984 0
8.2765503 -3.6565375 0.1532492 0
6.9986033 5.4391408 1.8278623 0
5.6823683 6.8049479 1.8224603 0
7.3540821 5.116508 1.2876308 0
7.6710591 4.8036113 -0.059009492 0
8.2790012 -3.6576204 -0.059010625 0
7.6884403 4.7765403 -0.041227669 0
5.0878229 7.4551392 0.68284333 0
5.0984902 7.4791136 -0.064818472 0
7.1875463 5.2732015 1.5735002 0
7.6265993 4.8501182 -0.51149321 0
7.6303325 4.852798 0.42652112 0
7.661696 4.7977486 -0.4846108 0
7.672555 4.7901306 -0.38455468 0
6.942122 5.5153933 1.8305073 0
7.6868281 4.7754173 -0.27596086 0
-8.3810883 3.4148211 -0.25934035 0
7.5131536 4.9525113 1.0048866 0
-8.3851719 3.4157729 0.12010084 0
5.0977812 7.47752 -0.31536222 0
6.8626676 5.6040497 1.8739172 0
7.6601686 4.796792 0.57566994 0
5.73246 6.7554741 1.8794057 0
5.3106337 7.1571951 1.6181961 0
7.6231451 4.8476386 0.65998471 0
5.3685184 7.0996895 1.6802393 0
5.8376622 6.6471505 1.9475445 0
5.3667736 7.1071115 1.6561282 0
5.0970221 7.4758139 0.43437502 0
7.482111 4.9806747 1.1261636 0
8.2823095 -3.6590817 -0.27242935 0
7.2096648 5.2482777 1.5937577 0
8.2802458 -3.65817 0.36438191 0
-8.3773918 3.4139593 0.49915975 0
7.6875763 4.7759385 0.42656249 0
7.1209793 5.3633676 1.6184361 0
7.7463603 4.7000136 -0.041462779 0
7.6843934 4.7737222 -0.51187211 0
5.095057 7.4713974 -0.56671077 0
-8.3699684 3.4122291 -0.63924736 0
7.6205068 4.8457446 -0.74840021 0
7.6099706 4.8381815 0.89304054 0
5.491631 6.9738026 1.8237475 0
5.7440157 6.7319722 1.954706 0
5.6594472 6.8232174 1.884147 0
6.935811 5.5427542 1.8239824 0
7.4300399 5.0302219 1.2857041 0
7.3539872 5.1218266 1.3607292 0
7.5398011 4.904973 1.1262467 0
7.6663194 4.7835979 0.72510171 0
5.2892542 7.1738634 1.6608969 0
8.2207642 -3.6577079 1.121014 0
7.7443404 4.7011418 -0.38333035 0
7.7490473 4.705934 0.17131467 0
7.7004352 4.784893 0.19256404 0
5.6493583 6.8171754 1.9621892 0
7.4783134 4.9871511 1.2047905 0
8.2836256 -3.6596634 -0.48687553 0
-3.3019538 8.3234062 1.4388226 0
8.2797546 -3.6579533 0.57535177 0
7.6841183 4.7735305 0.66035169 0
7.0719929 5.3786535 1.8308659 0
7.4136672 5.047935 1.3608303 0
7.7527204 4.7096734 -0.10606831 0
7.6745448 4.7922153 -0.66499442 0
7.6609507 4.7972817 0.78606802 0
6.9488978 5.5268912 1.8715876 0
5.5101995 6.9567223 1.8938282 0
5.1329074 7.3492217 1.41301 0
7.27847 5.1825385 1.5957309 0
5.271667 7.1937294 1.6886076 0
7.7563758 4.7067771 -0.27758253 0
8.2724762 -3.6547377 0.7860682 0
5.5899105 6.898273 1.8910729 0
7.2742872 5.1988931 1.5730491 0
5.1479788 7.3424087 1.4250715 0
-8.1870003 3.4775081 1.8259063 0
8.2501392 -3.6660106 0.97594482 0
7.474514 4.974885 1.3613743 0
7.0276489 5.4403758 1.8672512 0
-8.3701534 3.4122722 0.87815189 0
5.0931644 7.4400625 1.086339 0
7.5074334 4.9461646 1.2842995 0
7.6593766 4.7763247 1.0022849 0
5.2140865 7.2471895 1.6672903 0
7.5971193 4.8758068 1.0048909 0
7.3460636 5.1070824 1.5692099 0
5.1046534 7.4733038 0.77676833 0
7.7637415 4.7117515 0.19237477 0
-3.2533517 8.4807863 0.14747156 0
7.690557 4.7780142 -0.75126648 0
5.4366875 7.0275545 1.9001027 0
7.7571802 4.7142138 0.44828793 0
8.2883415 -3.661747 -0.70340729 0
7.611012 4.8389292 1.1285374 0
7.6835833 4.7731576 0.89501494 0
7.758306 4.7080808 -0.51479828 0
-3.2580147 8.4403639 0.87874448 0
-3.2511134 8.4876728 0.15040165 0
-3.2572198 8.4861345 -0.17772707 0
7.3450975 5.1146407 1.5973737 0
7.8223052 4.6187973 -0.38304168 0
7.2980514 5.1754274 1.6214298 0
7.1153655 5.3591394 1.8274089 0
7.7535334 4.7048573 0.66131639 0
7.8291149 4.6255341 -0.10577065 0
8.2162933 -3.6556993 1.3554682 0
7.7524276 4.7093749 -0.6643393 0
7.8235421 4.6359205 0.19223848 0
-3.2525654 8.4796991 -0.50330764 0
7.8171539 4.6317382 0.42702827 0
7.1098886 5.3593378 1.8644923 0
5.5619678 6.9222255 1.9741104 0
7.4763932 4.9858708 1.4145596 0
5.4618554 7.0010114 1.9807055 0
7.83181 4.628201 0.17125614 0
7.8468218 4.6057158 -0.063460052 0
-3.2522128 8.4905424 0.36253065 0
7.7703891 4.7162404 0.42716527 0
7.8476028 4.6061745 0.14966601 0
7.7537889 4.7050304 -0.7529881 0
7.6672096 4.8012009 0.99665999 0
5.3135772 7.1611624 1.828508 0
-3.2497215 8.4840393 0.57457662 0
7.8318419 4.6413541 -0.043491066 0
5.1003952 7.4833956 0.93532491 0
-3.2590103 8.4886103 0.47209701 0
5.0893445 7.458559 1.1843854 0
5.3670087 7.1075673 1.9089898 0
7.1563187 5.3272901 1.8374667 0
7.5907011 4.8688874 1.2841959 0
7.1892934 5.2753787 1.8612652 0
5.1775331 7.2998009 1.6991932 0
7.834271 4.6429443 -0.2801652 0
7.2146354 5.2525368 1.8363043 0
7.8262081 4.6376657 -0.51695353 0
7.8467307 4.6056623 -0.49284935 0
7.5514674 4.9136033 1.3652929 0
7.7425113 4.6992798 1.002502 0
7.855216 4.6106429 -0.27871549 0
8.285428 -3.6604595 0.99692988 0
7.8529367 4.6093049 0.36189592 0
7.6558824 4.7941079 1.2068574 0
7.902287 4.5384908 -0.105331 0
5.135119 7.3523884 1.6234133 0
7.8231544 4.6196375 0.72473127 0
7.6827602 4.7725849 1.1310277 0
7.7635145 4.7206621 0.72627556 0
7.8369775 4.6333132 0.44827077 0
7.263124 5.1853828 1.8567624 0
8.2528152 -3.6680501 1.2451438 0
-3.2491605 8.4825745 0.78606933 0
7.8843303 4.5604277 0.42733955 0
7.7587304 4.7083673 0.8972311 0
-3.2543569 8.4821758 0.79687107 0
5.2909842 7.1773415 1.9154321 0
7.4211931 5.053843 1.6015793 0
7.8194194 4.6332211 -0.75534642 0
-3.2981439 8.3182945 1.7651881 0
5.1470132 7.3403206 1.6781136 0
7.2781224 5.1822495 1.8370324 0
7.4393935 5.0409036 1.5709333 0
7.8283315 4.6390557 0.66267121 0
7.8941579 4.5666628 -0.28095382 0
7.8964233 4.5681 0.19181047 0
7.8342562 4.630621 -0.66458136 0
7.8867273 4.5619483 -0.51816308 0
5.3706298 7.1050425 1.992839 0
7.8557491 4.6109557 0.57402194 0
5.1206727 7.3317041 1.831512 0
7.480999 4.9798274 1.6019721 0
8.2791281 -3.6576765 1.2076991 0
-3.247004 8.476944 0.99738526 0
5.0959463 7.4481106 1.400707 0
7.6214294 4.8464069 1.3679802 0
7.9072452 4.5749655 -0.044927835 0
7.8871179 4.5621963 0.66307867 0
7.9561639 4.4913573 -0.044781655 0
7.8506184 4.6079445 0.78606987 0
7.9141641 4.5499091 -0.38458717 0
5.2160444 7.2512712 1.9231739 0
5.0426035 7.6084886 0.43611768 0
7.8237691 4.6360688 0.89846706 0
7.5164375 4.9561548 1.5690027 0
-3.2602649 8.4442406 1.2600454 0
7.3036208 5.1793771 1.8327773 0
-8.3842201 3.4155514 1.2599277 0
7.4021039 5.0388579 1.8384802 0
7.6764064 4.7941656 1.2847254 0
8.2400265 -3.6583035 1.5138174 0
7.9228058 4.5582175 0.17097193 0
8.2257013 -3.6599259 1.5951438 0
7.3503299 5.1120977 1.8567373 0
7.7583699 4.7081242 1.1342077 0
7.5860467 4.8638697 1.5656549 0
7.9190826 4.5546379 0.44833794 0
7.682097 4.7721229 1.3690336 0
7.4888229 4.9941602 1.6265166 0
7.8909135 4.5646048 -0.75897717 0
7.3530374 5.1210594 1.841445 0
8.0125217 4.4122453 0.19150823 0
7.8311272 4.6275249 1.0035274 0
7.9677005 4.4984465 0.19139911 0
5.0503407 7.6265712 -0.32565421 0
5.0941296 7.4693131 1.439854 0
7.9637675 4.4960299 0.42792034 0
7.9162202 4.5518861 -0.66503644 0
7.8938293 4.5303593 1.0015193 0
7.4262757 5.0259233 1.8537021 0
8.2748642 -3.6557927 1.418761 0
7.9701028 4.4999232 -0.2834971 0
7.9922447 4.4674253 0.17118232 0
7.7501674 4.7070737 1.2833433 0
5.0540199 7.6351686 0.1827758 0
7.5574684 4.9180427 1.6066474 0
5.0556316 7.6389351 -0.07159701 0
7.9566798 4.4916744 0.66421342 0
7.6724148 4.8044605 1.4191885 0
5.1438169 7.3334045 1.9332249 0
7.9683223 4.4988289 -0.52255636 0
7.920176 4.5556893 0.72603154 0
7.8245869 4.6366043 1.1361157 0
7.9942064 4.4692583 -0.38481629 0
7.9826093 4.4584241 -0.66305912 0
-3.262331 8.4932013 1.1241655 0
5.0510511 7.628231 -0.58219934 0
8.0005608 4.4751945 -0.10678744 0
7.6170306 4.8432493 1.607442 0
7.9933085 4.4684191 0.44824311 0
-3.2509069 8.487134 1.2094395 0
8.0273914 4.4210916 -0.28421718 0
7.7506561 4.7029147 1.3717893 0
7.8619609 4.6146021 0.99828637 0
7.9011865 4.5711217 0.90108204 0
7.4774814 4.9865966 1.8367531 0
8.212923 -3.6541851 1.833205 0
5.0314293 7.663198 0.35902825 0
5.0357609 7.6697955 -0.070608139 0
8.4109764 -3.649421 -0.36692601 0
8.039937 4.4139824 -0.28614068 0
7.4829974 4.9813504 1.8451296 0
8.0393324 4.4136505 0.35884726 0
8.04636 4.4175091 -0.070982695 0
5.0364509 7.67381 0.15120187 0
7.9899945 4.465323 0.72542965 0
7.6584706 4.7957287 1.6297636 0
8.0340919 4.4250784 0.42832989 0
8.0426369 4.4301624 -0.04700014 0
8.4224625 -3.6579168 -0.096363664 0
7.9705186 4.5001788 -0.76426721 0
5.0551052 7.6377053 0.69092691 0
8.0696278 4.3842797 0.17117189 0
8.070591 4.3851538 -0.10629052 0
8.0398788 4.4139504 -0.50315118 0
8.2691622 -3.6532736 1.6301472 0
5.096137 7.4486637 1.7171237 0
8.0352011 4.4257388 -0.52493942 0
5.0902462 7.4605856 1.6948462 0
7.6793103 4.7972074 1.5680882 0
5.0484457 7.6221418 0.94463271 0
7.8188524 4.6328502 1.3746393 0
8.2406769 -3.6587989 1.7876347 0
7.8953242 4.5674028 1.1388133 0
7.5161805 4.9558697 1.8551285 0
-3.2570281 8.4386644 1.6426554 0
8.0316563 4.4236293 0.66573054 0
8.0982637 4.3497872 0.19076729 0
-8.3778324 3.414062 1.6424764 0
