# .PCD v0.7 - Point Cloud Data file format
VERSION 0.7
FIELDS x y z intensity
SIZE 4 4 4 4
TYPE F F F F
COUNT 1 1 1 1
WIDTH 1442
HEIGHT 1
VIEWPOINT 0 0 0 1 0 0 0
POINTS 1442
DATA ascii
5.0016909 -3.3563354 -0.14438558 0
5.0573072 2.950583 1.4268836 0
5.064332 3.0798037 1.0933669 0
5.0619931 3.2689755 -0.14321417 0
5.065372 3.171932 0.78598064 0
4.8960457 -3.4748795 -0.54417747 0
5.0593147 3.2668102 -0.27398551 0
5.0531149 3.1294689 1.008605 0
4.8916535 -3.4762156 0.5813719 0
4.995616 -3.3511298 -0.40760803 0
-4.9502292 -3.4048283 0.50610358 0
5.0086699 -3.1600008 1.1359956 0
4.6130829 -3.4744744 1.7353045 0
5.0711088 3.1431828 0.88276327 0
5.0656796 3.2719557 0.11613552 0
5.0567603 3.2647455 -0.40600073 0
5.0094595 -3.3629918 -0.014748245 0
5.0021539 -3.3358457 0.50590301 0
5.0089998 -3.3625982 0.11537953 0
5.0537801 3.1646733 0.92479008 0
5.0505333 3.2597115 -0.53849912 0
5.0028248 -3.221144 1.0119195 0
5.0072279 -3.3610797 0.24501988 0
5.0689125 3.2072916 -0.66983289 0
5.0182056 -2.945451 1.6038876 0
5.0121145 -3.2961466 -0.67296565 0
5.061666 3.2687111 0.37407899 0
4.8261013 -3.4810636 1.0195837 0
-4.9710102 -3.3975046 0.44185096 0
4.9077806 -3.4803624 0.50571018 0
5.0144763 -3.344063 0.36444846 0
5.0700326 3.0779743 1.135784 0
-4.9880519 -3.4033263 -0.088019043 0
4.9068379 -3.4849615 0.50430679 0
5.0692215 3.2748187 0.24515146 0
4.807785 -3.4800756 1.1244259 0
5.0076928 -3.2496693 0.93042898 0
5.0516787 3.1937628 0.88523054 0
-4.9908757 -3.4042909 0.17718261 0
4.7188292 -3.4727585 1.4855084 0
5.0061522 -3.3801196 0.21957129 0
4.9014373 -3.4799161 0.63392669 0
5.022234 -3.1449192 1.2004089 0
5.0615439 3.2686124 0.50298578 0
5.0575914 2.9685686 1.4715457 0
-4.9531555 -3.406841 0.64603573 0
4.899003 -3.4776418 -0.68240768 0
5.0694189 3.207689 0.7586385 0
5.0496807 3.3123271 -0.32029003 0
-4.9869113 -3.4029367 -0.35414004 0
5.0131397 -3.2969997 0.76015878 0
5.0158134 -3.3684361 -0.27898771 0
4.6469707 -3.4934156 1.6697599 0
4.9076538 -3.4802725 0.64592546 0
-4.9435482 -3.4002333 0.7859813 0
4.8927469 -3.478009 0.7634083 0
-4.9613705 -3.3942113 0.70594144 0
5.0052471 -3.3593826 -0.54518497 0
5.0173182 -3.1363313 1.2752154 0
5.0588703 3.0721371 1.2696404 0
5.0532646 3.3303978 -0.14716879 0
5.0164833 -3.3690104 0.3745929 0
5.0093718 -3.3850763 -0.32502019 0
5.0080948 -3.1595492 1.2685155 0
5.0154829 -3.3944843 0.038196266 0
5.0603733 3.3282831 0.039796561 0
5.0570641 3.1324787 1.1409457 0
5.0529394 3.3301268 -0.27956522 0
5.0644331 3.073832 1.2665995 0
5.059711 3.3272946 0.21982607 0
5.0521636 2.7736738 1.8717066 0
5.0086665 -3.2932765 0.88984191 0
4.9018879 -3.4803371 0.76480645 0
5.0052814 -3.3787796 -0.50786036 0
5.0096421 -3.1370339 1.3378661 0
5.0515957 3.26057 0.7609725 0
-4.9786439 -3.4001124 -0.62088299 0
4.8891578 -3.4684443 0.89399976 0
5.0619535 3.330641 -0.14112061 0
5.0141978 -3.3438776 0.64568156 0
5.00138 -3.3560691 -0.68112814 0
5.0624695 3.2016671 0.9293403 0
4.9028101 -3.4768376 0.7859816 0
-4.6545196 -3.4021673 1.8720608 0
5.0178175 -3.3980782 -0.14391869 0
4.9708204 -3.4627168 0.21868888 0
5.0151262 -3.3678472 0.50444329 0
5.0004797 -3.425842 -0.14987275 0
5.0098238 -2.9405313 1.7408757 0
4.8283749 -3.4832494 1.1535668 0
5.0633564 3.3387976 0.11400791 0
5.0552292 3.3320327 0.37469313 0
4.9725571 -3.4728434 -0.15116611 0
5.0042562 -3.429173 0.11327799 0
5.0143862 -3.3927958 0.40009257 0
5.0547371 3.3316231 -0.4139415 0
5.0593977 3.3268268 0.39956412 0
5.0659537 3.2721772 -0.68004602 0
4.8033438 -3.4725506 1.3078895 0
4.9767809 -3.4721868 -0.14744702 0
5.0673337 3.3421078 -0.017437786 0
5.0709543 3.2762198 0.63342667 0
5.0078974 -3.3396759 0.78598183 0
4.8810668 -3.4608853 1.0246406 0
5.0642114 3.339509 0.2445029 0
5.0661907 3.1724448 1.0644332 0
5.0089273 -3.3843925 0.58057308 0
5.0142689 -3.3671131 0.63470244 0
5.0087204 -3.2512028 1.1106942 0
5.0101132 -3.4343388 -0.018886864 0
5.014595 -3.230659 1.1472301 0
5.0193682 -3.0166893 1.6147156 0
4.9998169 -3.4252572 -0.417678 0
4.9801302 -3.4797177 -0.019579381 0
5.0037255 -3.3763845 -0.69311118 0
4.8921385 -3.4770119 0.94630623 0
5.0443425 3.1880038 1.1464657 0
5.0553589 3.3713272 -0.068133235 0
4.9740782 -3.4678929 0.4008179 0
5.053391 3.3305027 -0.54937476 0
5.0058928 -3.2909677 1.0209887 0
5.0610676 2.9557045 1.6080229 0
5.0640569 3.2034798 1.0190897 0
-4.9498935 -3.4045973 0.92583543 0
4.9985676 -3.3334539 0.92584485 0
5.0088177 -3.4331961 -0.28488111 0
5.0611334 3.3294165 -0.50620615 0
4.6192212 -3.4790978 1.8753569 0
5.0582104 3.3345144 0.50504124 0
5.0077782 -3.3615513 0.76476985 0
5.04954 3.3674467 0.36150208 0
4.982945 -3.4822729 0.11225462 0
5.0135241 -3.4373472 0.2440635 0
5.0599489 3.3276494 0.5795635 0
5.0560269 3.2641523 0.89271599 0
5.0585833 3.3734775 0.21827602 0
4.9818435 -3.4812732 -0.28677499 0
4.9833698 -3.4826586 0.24392834 0
5.0528593 3.33006 0.63519019 0
4.981143 -3.4791167 -0.33288103 0
5.0097237 -3.4339955 0.37524807 0
4.9867821 -3.488076 0.034874201 0
5.0049286 -3.3782365 0.76124871 0
5.013031 -3.1301272 1.4547151 0
5.0594292 3.1972678 1.1081505 0
5.0575361 3.1670253 1.2033232 0
4.907949 -3.4804819 0.92604667 0
5.0560236 3.3217919 -0.68985224 0
5.0054383 -3.2232563 1.2785953 0
5.0059023 -3.4306245 0.50623703 0
-4.9401078 -3.3978667 1.0652876 0
4.9830618 -3.4823792 0.37546444 0
5.0658326 2.9734058 1.6116518 0
5.0505958 3.3681507 0.50319231 0
4.8290553 -3.4839036 1.2893578 0
4.7183952 -3.4719985 1.674127 0
4.9834795 -3.4827585 -0.42276478 0
5.0723572 3.382663 0.073254466 0
5.0084167 -3.4328425 -0.55686438 0
4.9809461 -3.4804585 0.5070039 0
5.0141902 -3.1398823 1.4775937 0
5.0682058 3.1409702 1.2782102 0
-4.65558 -3.3997586 1.9890131 0
5.0619287 3.0764301 1.4510512 0
5.0044823 -3.2897937 1.1540837 0
4.9995437 -3.4250164 -0.69287789 0
5.0559778 3.4028516 -0.28736496 0
5.0574713 3.4041319 0.24386495 0
5.0607185 3.406914 0.11181015 0
-4.9737115 -3.3984275 0.97231972 0
4.9838305 -3.4833872 -0.51998872 0
5.0066075 -3.4312468 0.63787794 0
5.0551028 3.2634053 1.0249865 0
5.0635214 3.4093161 -0.020976931 0
5.0645819 3.3398175 -0.69125676 0
4.9839401 -3.483176 -0.56040204 0
5.0621328 3.3309081 0.76054871 0
4.9797659 -3.479387 0.6389364 0
4.8909311 -3.4701006 1.1619613 0
5.0170937 -3.3695335 0.89865482 0
4.973527 -3.4670174 0.7663126 0
5.0148621 -2.9434886 1.8813944 0
4.9857583 -3.48645 0.58442509 0
4.9779615 -3.4777491 -0.69799042 0
5.0107288 -3.2542002 1.2934365 0
4.8957586 -3.4829495 1.1319838 0
4.9119034 -3.4832859 1.0664897 0
4.9804168 -3.4779632 -0.70730543 0
5.070838 3.415585 -0.15556625 0
5.0614529 3.4075432 -0.42446083 0
5.057982 3.1673045 1.3431931 0
5.0663428 3.3412833 0.76865804 0
5.0127535 -3.3429141 1.0666548 0
5.0661731 3.411588 0.37573507 0
5.007452 -3.4319916 0.77041423 0
5.0519476 3.4506195 -0.14940014 0
4.8089867 -3.4821126 1.4978267 0
5.0118828 -3.3889425 0.94498628 0
5.0074406 -3.1220376 1.6359873 0
5.0609841 2.9705601 1.7506289 0
-4.9469485 -3.4025719 1.205901 0
5.0536494 3.3701868 0.78598338 0
5.0539122 3.4536445 0.21804091 0
4.898735 -3.4739475 1.205995 0
5.0584359 3.3253915 0.94162107 0
5.0151711 -3.3678863 1.0320139 0
5.0635958 3.2032974 1.2910382 0
5.0565338 3.2645624 1.1596806 0
5.0623236 3.3379376 0.90089893 0
5.0008936 -3.335005 1.2063751 0
5.0499144 3.4694436 0.24321654 0
5.0589705 3.4054165 0.63985264 0
5.0034084 -3.4284256 0.90313882 0
5.0651207 3.410686 -0.56338817 0
5.0699825 3.4148521 0.50822926 0
5.068675 3.2071049 1.2891519 0
5.0570192 3.4584281 -0.33576006 0
4.9889379 -3.4877131 0.77328253 0
5.0771971 3.3858905 0.64392096 0
4.8881679 -3.4704978 1.3160287 0
5.0638342 3.4689195 0.03354454 0
5.058712 3.405195 -0.70135832 0
5.0143075 -3.2979717 1.2931302 0
5.058074 3.4766402 -0.15930206 0
5.0204821 -3.1438222 1.618624 0
5.0606556 3.4789169 -0.024782896 0
5.0601635 3.4784827 0.10937123 0
4.8983245 -3.4770081 1.301559 0
5.0587158 3.3349347 1.0343478 0
5.0636473 3.0788419 1.6351634 0
5.0600119 3.4063084 0.77321577 0
5.0122204 -3.3653579 1.1667051 0
5.0513587 3.1855896 1.4702795 0
5.0589757 3.373739 0.9275372 0
4.9711809 -3.4715941 1.0389361 0
4.8965344 -3.4723871 1.3464584 0
-4.9758372 -3.3991535 1.2399188 0
4.9875603 -3.4864628 0.90739793 0
4.9829235 -3.4819458 0.9526915 0
5.0100899 -3.253247 1.4778327 0
5.0618267 3.47995 0.37646073 0
5.0567141 3.3228223 1.1243489 0
-4.948545 -3.4036701 1.346766 0
5.0666251 3.4732158 0.40176648 0
5.061111 3.4793186 -0.43356448 0
5.0526881 3.47189 -0.57049274 0
5.0137424 -3.3918045 1.1297203 0
5.0650487 3.1717296 1.4846103 0
5.0633073 3.4681079 -0.5247314 0
5.0563741 2.967854 1.8904634 0
5.0618796 3.4659102 0.58566743 0
5.0654144 3.2717412 1.2992601 0
5.0763474 3.4927571 -0.29914248 0
4.8078728 -3.4802248 1.6880709 0
5.057682 3.4762943 0.64383602 0
5.0630322 3.4088969 0.9082365 0
5.0678864 3.4852948 0.5105685 0
5.0143867 -3.1400051 1.7585242 0
5.0598722 3.4628193 -0.71314597 0
5.0101123 -3.3635514 1.3036094 0
5.0196991 -3.4427936 1.0422313 0
-4.7840796 -3.4069493 1.9086837 0
5.0591888 3.4617679 0.76996326 0
5.0534458 3.5462718 -0.30209148 0
5.056365 3.5489213 0.24220753 0
5.060874 3.4791095 -0.71478975 0
5.0667791 3.378943 1.0696816 0
5.0206723 -3.3481951 1.3494382 0
5.0685997 3.3431618 1.1733432 0
5.0086555 -3.3839738 1.3142704 0
5.0583782 3.4049087 1.0430739 0
4.984642 -3.4846756 1.1396298 0
5.0590544 3.4775047 0.77886254 0
5.0660334 3.5576982 -0.029729694 0
5.0655575 3.5572667 0.10640724 0
5.058259 3.3251278 1.3100328 0
5.0149164 -3.438575 1.1782652 0
4.9840245 -3.483253 1.1798285 0
5.0497212 3.5810199 0.20797831 0
5.0590811 3.5513873 -0.44261205 0
-4.9569464 -3.4094484 1.489301 0
5.0693712 3.1744363 1.6267338 0
5.0596771 3.3742068 1.2113186 0
4.9106283 -3.4823818 1.4897439 0
4.9005771 -3.4908535 1.5104345 0
5.0059681 -3.1347334 1.8986467 0
5.0117092 -3.2556632 1.6662321 0
5.0754862 3.5662796 -0.16823477 0
5.0601583 3.4784784 0.91512364 0
5.0708585 3.5620785 0.37753418 0
-4.937479 -3.3960586 1.6283346 0
5.0625343 3.4669178 0.95640302 0
5.0650978 3.5919244 -0.08683151 0
5.0580626 3.6013253 -0.16079679 0
5.0685911 3.3431544 1.3120545 0
4.9772482 -3.4771016 1.3171322 0
5.0179367 -3.3463709 1.4910697 0
5.008563 -3.4329715 1.3155003 0
5.0614214 3.2001507 1.6614292 0
5.0614438 3.6066978 0.027528614 0
4.9789171 -3.4755805 1.3261583 0
5.0709066 3.5621221 0.51337135 0
5.0620308 3.6076305 0.21570006 0
5.0554633 3.1657274 1.7664924 0
5.068326 3.5597794 -0.58671397 0
5.0746098 3.5986698 0.05872947 0
4.8989472 -3.4740984 1.6301758 0
5.0691228 3.5947785 0.3513667 0
-4.9880333 -3.4033198 1.5116656 0
5.0086918 -3.3840296 1.5028576 0
5.0692797 3.5606453 0.6495133 0
5.0584412 3.5508063 0.78480816 0
5.0597658 3.6278305 0.24123079 0
5.0732131 3.4176204 1.1852486 0
5.0632553 3.6310906 -0.17252097 0
5.0580935 3.5869572 0.64163738 0
5.0673556 3.6160901 -0.35275328 0
5.0662766 3.6339133 0.10365833 0
5.0707026 3.5958986 0.49641183 0
5.0677061 3.6352482 -0.034433573 0
5.0672903 3.6159861 0.40387228 0
5.0670877 3.3791487 1.3546488 0
5.0594158 3.6034758 0.59167194 0
5.0618052 3.6297359 0.37821794 0
5.0614738 3.3299253 1.4991424 0
5.0722399 3.5633326 -0.73210835 0
5.0133662 -3.343323 1.6330109 0
5.0571737 3.6254094 0.51508886 0
5.0643845 3.6113694 -0.54394007 0
4.8960867 -3.4834878 1.7009796 0
5.0683346 3.6358359 -0.31343591 0
4.9716535 -3.4640405 1.5138135 0
5.0649738 3.4706728 1.1446159 0
5.0737228 3.4904423 1.0562333 0
5.0658479 3.6335127 -0.45439392 0
5.0674973 3.4127226 1.3238583 0
-4.9411025 -3.398551 1.7717854 0
5.0610142 3.5890281 0.78598714 0
5.0634766 3.6312973 -0.59707576 0
5.0592341 3.6031873 0.78038931 0
5.0674157 3.5589533 0.92447972 0
5.0546045 3.1651895 1.9094586 0
5.0662613 3.4838614 1.1940711 0
5.0529947 3.6991975 -0.17735898 0
5.0661778 3.614219 -0.73860049 0
4.9040556 -3.477721 1.774245 0
-5.2489586 -3.3926942 0.49484548 0
5.0577679 3.7037866 0.10146302 0
5.060657 3.6286631 -0.74168396 0
5.0044661 -3.3373876 1.7747718 0
5.056478 3.7025466 0.24037531 0
5.0685601 3.6360464 0.65393591 0
5.0059671 -3.3798349 1.6931567 0
5.0629554 3.5549045 1.0630292 0
5.0661659 3.5926816 0.9305675 0
5.0641508 3.4694064 1.3340727 0
5.0554762 3.7015831 -0.46203244 0
5.0766273 3.3855104 1.4993186 0
5.0606084 3.7065175 0.37912473 0
5.063169 3.7089791 -0.32081115 0
5.0600786 3.3278434 1.6895138 0
5.0636907 3.4815941 1.3351963 0
5.0515895 3.3688135 1.6394701 0
-4.9818063 -3.4011927 1.783556 0
5.0742269 3.7196102 -0.03992483 0
5.0637755 3.6104023 0.97132814 0
5.0602822 3.6283131 0.93109059 0
5.0585032 3.5508628 1.2030513 0
5.0629969 3.5904343 1.0751235 0
5.0769486 3.6438832 0.79422188 0
5.0608435 3.7537553 0.21354264 0
-5.2683144 -3.405205 0.63995987 0
5.0493469 3.6956911 0.79613781 0
4.9785976 -3.4750726 1.7107055 0
4.9028249 -3.4768481 1.9182497 0
5.0656223 3.7113378 -0.61014676 0
-4.952456 -3.4063601 1.9183116 0
5.0613236 3.7545426 -0.36681527 0
5.0033317 -3.3366311 1.9188808 0
-5.2604332 -3.400111 0.78598881 0
5.0749211 3.7202778 0.51918405 0
-5.3212986 -3.3976402 -0.10449207 0
5.0658159 3.7115235 0.65830404 0
-5.3210831 -3.3975701 0.17175213 0
5.0602403 3.6282737 1.0723022 0
5.0651541 3.7608263 0.40600196 0
5.0725098 3.7728927 0.019818664 0
5.0589256 3.7506092 -0.56223297 0
5.0618458 3.7878151 0.09823525 0
-5.3154454 -3.3957338 0.4475444 0
5.072113 3.7722414 -0.17415631 0
5.061347 3.5892644 1.2199429 0
5.0577421 3.7486675 0.59809446 0
5.0664825 3.7121649 -0.75820804 0
5.0570393 3.7830603 0.38001299 0
-5.324276 -3.3986101 -0.38201922 0
5.0651312 3.6125557 1.1635621 0
5.0642881 3.7902317 0.23920906 0
5.0684566 3.7943552 -0.044129252 0
5.0677271 3.4749124 1.5278776 0
5.0638876 3.5557504 1.3484857 0
5.0640435 3.7899897 -0.32986897 0
5.0594678 3.8106821 0.1945926 0
5.0523376 3.778409 -0.61876261 0
5.0642381 3.8142748 -0.10517532 0
-5.2482924 -3.3922639 1.0770952 0
5.073637 3.7994807 -0.18777078 0
5.0653052 3.8150785 0.044680834 0
-5.2708368 -3.4068356 0.93208849 0
5.0615778 3.629523 1.2158757 0
5.0667486 3.3789227 1.7870798 0
5.0599256 3.752249 0.79150784 0
5.069582 3.7954688 -0.4767375 0
5.058136 3.809679 0.49101058 0
5.0659661 3.8155763 0.34243521 0
5.0672922 3.7129433 0.94111711 0
5.0645189 3.759784 -0.76248479 0
5.0696878 3.7955737 0.52174294 0
-5.3278046 -3.3997593 -0.66153789 0
5.0643234 3.7902668 0.66302067 0
5.0670938 3.5933397 1.3659873 0
5.0627365 3.6087515 1.3567446 0
5.0550213 3.6233981 1.3590174 0
5.059267 3.8676 0.095368624 0
5.0595398 3.7855339 0.80473596 0
5.058526 3.8668454 -0.19232047 0
5.0638676 3.7096508 1.0836952 0
5.0577455 3.7486727 0.98537123 0
5.0650253 3.790961 -0.77267015 0
5.0569563 3.8652468 -0.3375203 0
5.0658312 3.8154747 0.63835651 0
-5.3401241 -3.4037721 0.72492969 0
5.054997 3.3710856 1.9305811 0
5.0612411 3.8696091 0.2382651 0
5.06638 3.4728382 1.722873 0
5.057466 3.865766 -0.4847548 0
5.0611825 3.8119736 0.78599089 0
5.0631056 3.8715072 0.38118136 0
5.0712423 3.8797908 -0.04959622 0
5.0593462 3.7853422 0.9482224 0
5.0640373 3.5911722 1.511735 0
-5.2690072 -3.4056528 1.2247696 0
5.0605373 3.908365 0.21123102 0
5.0647011 3.7104526 1.2292519 0
5.0698538 3.8783777 0.52482313 0
5.0617647 3.6072075 1.5528684 0
5.0625458 3.9117687 -0.38344795 0
-5.3387847 -3.4033358 1.0027542 0
5.0698938 3.9242198 0.013087988 0
5.0685782 3.9219902 -0.18523261 0
5.0644312 3.9149625 0.40830272 0
5.0702839 3.8188283 0.9337557 0
5.0708113 3.8793526 -0.63828176 0
5.0585451 3.8668647 0.81172383 0
5.0702915 3.878823 0.6688776 0
-5.2665658 -3.4040749 1.371501 0
5.0592947 3.5878088 1.6578128 0
5.0612693 3.9096048 -0.58401972 0
5.067173 3.7641375 1.1841424 0
5.0609612 3.954145 0.092048392 0
5.0638676 3.8722827 -0.78788698 0
5.0621233 3.7079742 1.3759879 0
5.0649691 3.958344 -0.054151773 0
5.0670419 3.9193866 0.60601795 0
5.0667601 3.9602201 0.23706183 0
5.0628691 3.9561439 0.38223982 0
5.0800009 3.8057764 1.0989864 0
5.0612059 3.9544013 -0.49763811 0
-5.3224545 -3.3980169 1.2802471 0
5.0631399 3.8715427 0.95831805 0
5.0704279 3.9640622 -0.3502484 0
5.0788774 3.8253009 1.082182 0
5.0585604 3.8099988 1.2289 0
5.0787449 3.9727755 -0.20339161 0
5.0685148 3.7944129 1.2434161 0
5.0621009 3.7558177 1.3809819 0
5.0670414 3.9605145 0.52781314 0
5.058917 3.5875411 1.8054581 0
5.0640383 3.9573686 -0.65013373 0
5.0689335 3.9225924 0.80469382 0
5.063859 3.6105349 1.7535938 0
-5.2755718 -3.4098959 1.52033 0
5.059937 3.8682816 1.1048403 0
5.0728369 3.9292061 -0.79155862 0
5.0700064 3.9636207 0.67419004 0
5.0570941 4.0373788 -0.058715582 0
5.0588121 3.9518931 0.81924701 0
5.0582118 4.0422707 0.029056847 0
5.0591426 4.0430145 -0.12431765 0
5.0639076 3.9140751 1.0031768 0
-5.2629137 -3.4017141 1.6668453 0
5.0644531 4.0453124 -0.20867556 0
5.0634308 3.8136668 1.3778555 0
5.0713925 3.79726 1.3944701 0
5.0644908 4.0472884 0.33258542 0
5.0714769 4.0528717 0.17984748 0
5.0703926 4.0517163 0.23585522 0
5.0622549 4.0455017 0.48412824 0
5.075808 4.0575547 0.087568164 0
5.0614624 4.0420885 0.53072631 0
5.0699692 4.0512595 -0.36025697 0
5.0713224 4.0527182 0.38356864 0
5.0645609 3.7598531 1.5831676 0
5.0683346 3.8768308 1.2568657 0
5.0652409 4.0794263 -0.1969983 0
-5.3242607 -3.3986051 1.5619462 0
5.065238 4.079421 0.20860755 0
5.0619402 3.910742 1.2036288 0
5.0694709 4.0507226 -0.512375 0
5.0661354 3.5926602 1.9559708 0
5.0696449 4.0871382 0.0057103038 0
5.06213 4.0428076 -0.66419756 0
5.0730143 3.9667718 0.97024167 0
5.0645032 4.0781336 -0.40123487 0
-5.2550325 -3.3966203 1.8145542 0
5.0673714 4.0495906 0.63499105 0
5.0682955 4.0847754 0.41090009 0
5.0575047 4.0378213 0.82682103 0
5.0716701 3.8198724 1.5282379 0
5.0654984 3.8739431 1.4079106 0
5.0706306 3.9642749 1.1196914 0
5.067152 4.0494151 0.78599519 0
5.0648966 4.1360574 -0.21693558 0
5.0612025 4.1319585 -0.36875314 0
5.0828552 4.0651522 0.68142974 0
5.0717974 4.0909076 0.61391723 0
5.0669622 4.1383495 0.23477958 0
5.0698376 4.1415396 -0.066193491 0
5.0704737 4.1422453 0.084481105 0
5.0639372 4.1349931 0.38454157 0
5.062624 3.756676 1.7867091 0
5.0760193 4.0983014 -0.61104006 0
5.0661411 3.9595714 1.2702367 0
-5.5993447 -3.3954933 0.32801247 0
5.0711265 4.0525913 0.93711156 0
5.0672598 3.9197557 1.4088255 0
5.0678606 4.0840135 0.81686056 0
5.0658283 3.8154724 1.6774443 0
5.0688734 4.0500784 0.97940183 0
5.0668182 4.1381898 -0.52457505 0
-5.3099942 -3.3939581 1.8436263 0
5.0695624 4.1412344 0.53484762 0
5.0591612 4.039607 1.128828 0
5.0640745 4.1351452 -0.68023378 0
-5.6057115 -3.3993542 0.4806031 0
-5.5973125 -3.3942609 0.63361114 0
5.0692091 4.0510592 1.0882775 0
-5.273818 -3.4087622 1.9689417 0
5.0654345 4.0797639 1.0208654 0
5.0732307 4.1453047 0.68603694 0
5.0604582 3.9082305 1.6120571 0
5.0746775 3.9685147 1.4278265 0
5.0629015 4.2269597 -0.22511727 0
5.0657082 3.815382 1.8284668 0
5.0717058 4.1436129 0.83758444 0
-5.6060362 -3.3995512 0.78599715 0
5.0674195 4.0496292 1.2396688 0
5.0638313 4.2280211 -0.38040453 0
5.0721865 4.2375627 0.080686867 0
5.0670052 4.0480638 1.2852528 0
5.07411 4.239759 -0.072866082 0
5.0600576 4.223711 0.53774828 0
5.0733733 4.2389178 0.23339288 0
5.0677443 4.1392174 0.98970085 0
-5.6015968 -3.3968589 0.93849957 0
5.0656853 4.080204 1.2271394 0
5.0714064 4.2366719 0.38595504 0
5.0696349 4.2588606 -0.0021366179 0
5.0570393 4.2202649 0.6899991 0
-5.6936374 -3.3946283 -0.12304154 0
5.0715942 4.236886 -0.53953427 0
5.0732803 4.2654624 0.2057073 0
5.0689411 4.2576032 0.41353601 0
5.0689836 4.0508785 1.3918483 0
5.0637174 4.2903862 0.166318 0
5.0675354 4.2322512 -0.69752502 0
5.0664992 4.2927432 0.0097056031 0
5.0707788 4.1425843 1.1451249 0
5.068676 3.8176172 1.9813708 0
-5.7000923 -3.3966289 -0.41330266 0
5.0552387 4.3141618 -0.23260826 0
-5.7136989 -3.4008465 0.16520344 0
5.0722885 4.0537605 1.4440234 0
-5.6111841 -3.4026728 1.0916903 0
-5.7021513 -3.3972671 0.45398557 0
5.0712161 4.261724 0.62170804 0
5.0713797 4.2968783 0.32112494 0
-5.5952082 -3.3929851 1.2436447 0
-5.6888347 -3.3931396 -0.70353937 0
5.0579147 4.3173075 -0.39049798 0
5.0720849 4.2374468 0.84622884 0
5.0709867 4.2965455 0.47638714 0
5.0696821 3.9238603 1.8260987 0
5.0685892 4.3298554 -0.078517824 0
5.0607271 4.2244759 0.99905819 0
5.0629778 4.3232584 0.38700306 0
5.0664787 4.292726 0.63141459 0
5.067956 4.1394525 1.3009725 0
5.0692554 4.2581725 0.8302061 0
5.0725398 4.0922084 1.4383318 0
5.0726643 4.0538206 1.5451012 0
5.0576978 4.2852859 0.78599924 0
5.0749502 4.3373322 0.076633871 0
-5.7007022 -3.3968179 0.7428292 0
5.0735006 4.335629 0.23211345 0
5.067112 4.3281188 -0.55239034 0
5.0705538 4.3321648 0.54241061 0
5.0591607 4.0430288 1.6963179 0
-5.5996623 -3.3956859 1.3974552 0
5.0649214 4.3255434 0.69742262 0
5.0671358 4.254334 1.0396575 0
5.0643396 4.1354394 1.4587386 0
5.0667953 4.3277464 -0.71410382 0
5.0675554 4.2322745 1.1577427 0
5.0611238 4.3210793 0.85312337 0
5.0692081 4.2950387 0.94066811 0
-5.6956105 -3.3952398 1.0322921 0
5.0687485 4.085568 1.6484264 0
5.059516 4.4185748 -0.083955914 0
-5.589736 -3.3896666 1.5502125 0
5.059268 4.4182749 -0.24272233 0
5.0646429 4.4303861 -0.009912163 0
5.0668969 4.4275074 0.073283508 0
5.0668898 4.231514 1.3166988 0
5.0675058 4.2550044 1.251421 0
5.0596046 4.0433836 1.8506557 0
5.0692329 4.4303341 0.23089454 0
5.072506 4.2978325 1.095706 0
5.069314 4.4304323 -0.4053883 0
5.0708108 4.3324666 1.0130503 0
5.0639114 4.4238944 -0.56625712 0
5.0739584 4.4478426 0.20290381 0
5.0682144 4.4291015 0.54622489 0
5.0773745 4.4401875 0.38872859 0
5.0617208 4.0732613 1.8596492 0
-5.6933503 -3.3945391 1.3235198 0
5.0660048 4.2305026 1.4780782 0
5.0640922 4.4241133 -0.73075187 0
5.0667167 4.3276539 1.1716717 0
5.0683079 4.437253 0.62972009 0
5.0777087 4.4548697 0.41663525 0
5.0773954 4.3019757 1.2514281 0
5.0725012 4.4342899 0.70513952 0
-5.6080804 -3.4007907 1.7079101 0
5.0681305 4.2561355 1.4656961 0
5.0662384 4.2925224 1.4059929 0
5.0698786 4.4401975 0.84422815 0
5.0721312 4.4338422 0.86460185 0
5.0694604 4.3308792 1.3344533 0
5.0693178 4.5336785 0.068888739 0
5.0644407 4.5276012 0.3897692 0
-5.5966287 -3.3938463 1.8619163 0
5.0694509 4.5338445 -0.25451535 0
5.0722437 4.5373249 -0.092715323 0
5.0644584 4.5469151 0.15052509 0
5.0712633 4.5361032 0.22944054 0
5.0685101 4.5326724 -0.41786468 0
5.0729113 4.5545039 -0.010970592 0
5.0693197 4.4391499 1.0597291 0
5.0705695 4.5524015 0.30942437 0
5.0769906 4.439723 1.0266972 0
5.0691595 4.5334816 -0.5834192 0
5.0724301 4.5375566 0.55077189 0
5.0688038 4.2573547 1.6830142 0
5.075593 4.5569119 0.4682571 0
5.0710139 4.4324899 1.1878245 0
5.0815182 4.3054686 1.5646005 0
-5.7118492 -3.4002731 1.6205319 0
5.0729151 4.5381608 0.71220911 0
5.0739503 4.5554371 0.62726825 0
5.0735941 4.5390072 -0.75270569 0
5.0791607 4.3422818 1.5030558 0
5.0589371 4.2863359 1.7180324 0
-5.9618392 -3.3853054 0.30651563 0
5.0732751 4.554831 0.78600466 0
5.0667663 4.6250248 0.20022319 0
5.068203 4.6278124 -0.01916188 0
5.0649462 4.6350598 -0.099026412 0
5.0615253 4.5442815 0.94435209 0
5.074481 4.4488215 1.2789272 0
5.0707989 4.4322295 1.3525827 0
5.0675488 4.6383996 -0.26444042 0
5.0816555 4.5490527 0.87630969 0
5.0660534 4.6364803 0.3912774 0
5.0660515 4.6364775 -0.4305194 0
5.0725212 4.6447806 0.22793895 0
5.0750756 4.6480589 0.063999563 0
5.071754 4.5367146 1.0380856 0
5.0719414 4.6350651 0.41937399 0
5.0694232 4.2584767 1.903933 0
5.0631609 4.5260062 1.2009561 0
5.0710287 4.6428657 0.55505544 0
5.068872 4.6400976 -0.59964037 0
-5.9854097 -3.3986893 0.46537253 0
5.0650973 4.2915554 1.8772826 0
5.0689602 4.4300041 1.5193121 0
5.0728178 4.636766 0.63908982 0
5.0708294 4.441978 1.4976947 0
-5.7011123 -3.3969452 1.9162583 0
-5.9825907 -3.3970888 0.62585163 0
5.0748162 4.5562143 1.1037045 0
5.0735674 4.6461229 -0.77209961 0
5.0780053 4.6518183 0.72028518 0
-5.9844046 -3.3981187 0.78600645 0
5.0711169 4.5528932 1.2626381 0
5.0670919 4.5309048 1.3697073 0
5.0766668 4.6442351 0.86031294 0
5.0764036 4.6497631 0.88560921 0
-5.9854221 -3.3986967 0.94623727 0
5.0686398 4.7507687 0.22651279 0
5.0706377 4.6325364 1.080833 0
5.0699205 4.6414437 1.0509166 0
-5.9716287 -3.3908641 1.1059027 0
5.0766611 4.7613721 0.059238613 0
5.0690956 4.7513709 -0.44524699 0
5.0731087 4.44625 1.7218157 0
5.0776544 4.7626848 -0.27730036 0
5.0806131 4.7665963 -0.10898915 0
5.0754337 4.5567689 1.4228644 0
-4.7153578 5.1278086 0.16877285 0
-5.0641375 4.7896972 -0.1206024 0
5.0773234 4.7622476 0.39313847 0
-4.894907 4.9639263 0.167513 0
5.0716901 4.7548008 0.55972958 0
5.0675173 4.6383591 1.218612 0
-4.9857535 4.8807521 -0.1192469 0
5.0724812 4.5376205 1.5422682 0
-5.0698013 4.7926936 0.16627057 0
-4.9009395 4.9673424 -0.11757123 0
-4.8141398 5.0517383 0.16796996 0
5.0722399 4.7555275 -0.61783612 0
-4.8163428 5.0530281 -0.11596969 0
-5.0639162 4.7895799 -0.40861768 0
-4.8956356 4.9643393 -0.40304613 0
-4.9818501 4.8786149 -0.40598738 0
-6.1066279 -3.3929963 0.1586774 0
5.070539 4.7532792 0.72692823 0
-4.9940724 4.8853068 0.16666836 0
-4.6438088 5.2193594 0.16900021 0
-4.7344232 5.1393375 -0.11459297 0
-4.8131475 5.0511575 -0.4005819 0
-5.9766746 -3.3937292 1.2666913 0
-4.7020283 5.1622725 0.29765329 0
-5.2455235 4.6171131 0.16493332 0
-4.6465731 5.221086 -0.11291346 0
-6.0963283 -3.3899648 0.46053523 0
-4.5571542 5.3007598 -0.11119321 0
-5.165998 4.7097778 -0.12340665 0
-4.6389127 5.2163024 -0.39501363 0
-5.2481284 4.6183977 -0.12510547 0
-6.0995336 -3.390908 -0.44661176 0
-4.8154364 5.0524974 0.45145631 0
-6.1134114 -3.3949928 -0.14410684 0
5.067883 4.8196087 0.13301414 0
5.0591488 4.6276197 1.3860841 0
-5.1688571 4.7112384 0.1653924 0
-4.7323442 5.1380801 -0.39839494 0
-5.2401385 4.6144586 0.45436192 0
5.0712051 4.8227682 -0.032104552 0
-4.8486547 5.0257559 0.4607009 0
-4.9740033 4.8743186 -0.69362152 0
-5.1623182 4.7078977 -0.41295946 0
-4.9924588 4.8844233 0.45269954 0
-5.1293697 4.7398548 0.46067095 0
-5.2634096 4.590919 0.46065974 0
-5.2453094 4.6170077 -0.41588193 0
-4.6434379 5.2191281 0.45039219 0
-4.5562606 5.3001838 -0.39283901 0
-4.9082537 4.9714842 0.45215476 0
-4.8417621 5.0186114 0.62367398 0
5.074872 4.5562644 1.5832932 0
-4.62851 5.2098064 -0.67781323 0
-4.5603538 5.3047423 0.29675812 0
5.0746374 4.758697 -0.79286504 0
-5.3383965 4.5298309 -0.12734109 0
5.0761919 4.6433125 1.3063335 0
-4.4748783 5.3840833 0.16992119 0
-5.0811992 4.7987237 0.45335454 0
5.0683908 4.829844 0.19702078 0
-5.1654701 4.7095079 0.45394123 0
-4.7068911 5.1676116 0.4603965 0
-4.3842711 5.4609175 0.17048129 0
-4.568675 5.3081846 0.16927704 0
-5.340713 4.5309319 0.16409326 0
-4.5586848 5.3017459 0.44991553 0
-4.9768333 4.8708982 0.78600878 0
-5.1268291 4.7375069 0.62350863 0
-4.7399182 5.1426606 0.45112818 0
-4.7010803 5.161232 0.62349176 0
5.0681233 4.8198371 0.46020451 0
5.0725908 4.8382869 -0.029106796 0
-4.4824696 5.3891311 -0.11045524 0
-4.7254043 5.133884 -0.68306875 0
-5.4258676 4.4386139 -0.12947422 0
-4.9911513 4.884912 0.6234327 0
-4.4750423 5.3841925 -0.3909198 0
5.0771098 4.8283834 0.29599315 0
-5.0013638 4.894907 0.4600147 0
-6.0938783 -3.3892436 -0.75100994 0
-5.3362231 4.5287981 0.45521998 0
-4.8123055 5.0506649 0.73512459 0
-4.8166895 5.0532308 -0.68763763 0
-4.4746532 5.383934 0.44947413 0
-5.1198082 4.731019 0.78600901 0
-5.9727998 -3.3915291 1.4273171 0
-4.8995733 4.9665689 0.736889 0
5.0753274 4.7596087 0.89622682 0
-4.9040499 4.9691038 -0.69177949 0
-4.840651 5.0174599 0.78600901 0
5.0705404 4.4414377 1.9471617 0
-5.406158 4.4489188 0.45986286 0
-4.6367803 5.2149706 0.73170841 0
-4.3005953 5.5415554 0.17087553 0
-4.4163227 5.4457345 0.29564604 0
-4.4108295 5.438961 0.45980203 0
-5.5100112 4.3446307 -0.13147843 0
-5.0757704 4.7958517 -0.7000581 0
-4.3851156 5.4614964 0.44893661 0
-4.3035665 5.5436563 -0.10730281 0
-4.3974671 5.4699669 -0.10913438 0
-4.7293401 5.1362638 0.73368168 0
-4.9902592 4.8832192 0.73891616 0
-4.5673337 5.3128614 0.45963812 0
-5.4245806 4.4380245 -0.42332619 0
-4.5592651 5.3034759 0.62320018 0
-5.3463998 4.5336347 -0.42066431 0
-4.406589 5.4337316 0.62315077 0
-4.3935237 5.4672623 -0.38907665 0
-5.161478 4.7074685 0.74254072 0
-4.5544181 5.298996 0.73042262 0
5.0739174 4.8409538 0.42259583 0
-4.7016449 5.1618519 0.78600931 0
-5.1661487 4.7098546 -0.70503294 0
-6.1058116 -3.392756 0.76309168 0
-5.2747068 4.6007729 0.62307405 0
-4.299367 5.5406871 0.44849825 0
-5.0809364 4.7985849 0.74099845 0
-5.4410992 4.4455881 0.16313514 0
-5.5207572 4.3493662 0.16255505 0
5.0706735 4.7534571 1.0650613 0
-4.9795856 4.8735919 0.94820905 0
-4.3065438 5.5457611 -0.38675648 0
-5.4335728 4.442142 0.4561204 0
5.0692911 4.6299229 1.5299094 0
5.0712247 4.8695383 0.22482353 0
-4.4761395 5.3849225 -0.67373538 0
-5.2522907 4.6204495 0.74474871 0
-4.5576735 5.3016248 0.78600961 0
-5.2544165 4.583075 0.94831824 0
-4.2231956 5.6259966 0.17111355 0
5.0715494 4.8699803 -0.28741586 0
-4.5693727 5.3086348 -0.67818242 0
-4.2250571 5.6273527 -0.10651818 0
5.0750904 4.8748035 -0.1162912 0
-5.2710295 4.5975657 0.78600967 0
5.0691104 4.8207755 0.78600973 0
-4.4756007 5.3845639 0.72942299 0
-5.3374166 4.5293651 0.74668425 0
5.075397 4.556736 1.7447679 0
-4.2733688 5.58991 0.29390997 0
-4.9774323 4.8761959 1.0249467 0
5.0835867 4.8345428 0.62269914 0
5.0723372 4.8710532 0.39460927 0
-4.8459864 5.0229902 0.94848621 0
-5.1264186 4.7371273 0.94849712 0
-4.70047 5.160562 0.94850588 0
-5.4214001 4.4365683 0.7486167 0
-4.4103494 5.4383688 0.78600991 0
-5.4193611 4.459784 0.62262702 0
-5.5551133 4.3102827 0.45847476 0
5.0804987 4.8821692 0.05404228 0
-6.0866256 -3.3871088 1.0648346 0
5.075984 4.8451085 0.64890611 0
-5.5249305 4.3512053 0.45692456 0
-4.2251468 5.6274185 -0.38513738 0
-4.8965907 4.96488 1.0225422 0
-5.3489394 4.534842 -0.71566331 0
5.0696206 4.8673539 0.56439447 0
-5.2702284 4.629292 -0.71201754 0
-5.6048336 4.2539563 0.45753151 0
-4.398356 5.4705763 -0.67170632 0
-4.7257004 5.1340628 1.0171157 0
-4.3936424 5.4673438 0.72829133 0
-4.3057179 5.5451775 -0.66760647 0
-4.8142395 5.0517964 1.0200926 0
-4.2264252 5.6283498 0.44835621 0
-4.2746577 5.5915961 0.45814112 0
-4.6904397 5.1495495 1.1104846 0
-5.6195731 4.2602015 0.16158912 0
-5.5329027 4.3547182 -0.4289844 0
-4.8372855 5.0139718 1.1105554 0
-4.13622 5.7027879 -0.3828041 0
-4.5587058 5.3028255 0.94879937 0
-5.0755992 4.7957611 1.0291741 0
-4.2706189 5.5863132 0.62231934 0
-5.7000413 4.1618342 0.16095041 0
5.0795174 4.8808327 -0.46267462 0
-4.1468921 5.7108011 0.17130397 0
-4.4064579 5.4335704 0.94886404 0
-5.7008309 4.1621552 -0.13695636 0
5.0764499 4.6498222 1.5665102 0
-4.9828582 4.8767948 1.1107987 0
-5.982368 -3.3969622 1.5902427 0
-5.2431884 4.615962 1.0350751 0
-4.1393037 5.7051034 0.4479304 0
5.0735512 4.8727069 -0.63625187 0
-5.6293116 4.264327 -0.13554829 0
-5.5947499 4.2496843 -0.72884965 0
-5.4203296 4.4605808 0.78601038 0
-5.1637006 4.7086039 1.0324953 0
-5.5198507 4.3489666 -0.72524345 0
-4.1529093 5.7153196 -0.10622013 0
5.0740709 4.8254929 0.94901556 0
5.0735521 4.84022 0.87548721 0
-4.2654343 5.5795307 0.7860105 0
-5.5199537 4.3490119 0.7514478 0
-5.4077229 4.4502068 0.94904256 0
-4.1260386 5.7307286 0.29214129 0
-4.0505805 5.7797647 -0.38092721 0
-5.4460821 4.4478693 -0.72195756 0
-5.6228652 4.2615962 -0.4329775 0
-4.4715738 5.381886 1.0099554 0
-5.3312721 4.5264444 1.0385989 0
5.0774717 4.7624435 1.2389219 0
-4.6538529 5.2256317 1.0159547 0
-4.5652514 5.3059783 1.0131748 0
-5.6879554 4.1575451 0.62200069 0
-4.0634866 5.7897477 -0.10485712 0
-4.2257757 5.6278768 0.72596478 0
-5.1318469 4.7421432 1.1115059 0
-5.5691171 4.3211484 0.62191927 0
-4.1261134 5.7308326 0.45705616 0
-5.6048064 4.2539449 0.75355357 0
-4.3214908 5.5563293 0.7278533 0
-5.2675343 4.5945168 1.1116149 0
-4.066638 5.7921853 0.17155704 0
-5.5586495 4.3130269 0.78601086 0
-5.7069068 4.1646276 0.458579 0
-5.7084322 4.1652484 -0.43665856 0
5.0745344 4.5559611 1.9070293 0
-4.9796119 4.8736176 1.2733169 0
-4.1424956 5.7075005 -0.66314739 0
-5.5460153 4.3032236 0.94942188 0
-5.7071967 4.1716094 0.4567031 0
-4.1384425 5.7044568 0.72467202 0
-4.392447 5.4665241 1.0083625 0
-4.4074206 5.4347577 1.1119664 0
-4.5615296 5.3061104 1.1119678 0
-3.9752922 5.8642325 -0.10363179 0
-4.240129 5.6383362 -0.6677345 0
-4.0632277 5.7895474 0.44776773 0
5.0720482 4.8235698 1.1120682 0
-4.115932 5.716692 0.7860111 0
5.0836678 4.8864856 0.73695916 0
-4.3039699 5.5439415 1.0058807 0
5.0697665 4.8326092 1.1027012 0
-4.842968 5.0198617 1.2738421 0
-4.7192116 5.1301389 1.3015802 0
-5.9768753 -3.3938434 1.7521365 0
5.0721531 4.6354766 1.760402 0
-4.1288152 5.7345858 0.62151539 0
-5.807404 4.072813 0.15978487 0
-4.2704515 5.5860939 0.94969589 0
-5.411118 4.4530005 1.1124572 0
-4.0568323 5.7846007 -0.66052014 0
-3.9712529 5.8634248 0.45612347 0
-3.9774203 5.8659277 -0.38054717 0
-5.435595 4.443068 1.043786 0
5.0742445 4.7581773 1.4121146 0
-5.7021322 4.1626849 -0.73692977 0
-3.9778864 5.8732195 0.28990477 0
-5.8003387 4.0700555 -0.44104439 0
-5.1295738 4.7400427 1.2744796 0
-4.6385274 5.2160616 1.2986634 0
-5.06984 4.7927141 1.3186343 0
-4.5537062 5.2970095 1.2745497 0
-4.8152957 5.0524149 1.3068395 0
-4.5505981 5.2965341 1.2948399 0
-4.7048016 5.1653175 1.2746556 0
5.0791888 4.8803854 0.90840077 0
-5.8164067 4.0763268 -0.14091763 0
-3.9815888 5.8692484 0.44750583 0
-4.2235484 5.6262536 1.0043644 0
-5.1583471 4.7058687 1.3233572 0
-3.9919181 5.8774772 0.17166366 0
-4.2631516 5.5765452 1.1129985 0
-5.7026348 4.1682749 0.78601164 0
-4.9073849 4.9709926 1.31165 0
-3.8959475 5.9451404 -0.10306373 0
-4.9953089 4.8859839 1.316004 0
-5.7117634 4.166604 0.75697494 0
-5.8098187 4.0737557 0.45966041 0
-5.2718749 4.5983028 1.275263 0
-3.9736114 5.8628931 -0.65841842 0
-3.8985462 5.9472723 0.17216523 0
5.0729961 4.824471 1.2756317 0
-5.2488418 4.6187491 1.3284899 0
-3.976079 5.8705506 0.62095702 0
-4.4115081 5.4397974 1.2758415 0
-5.5335798 4.3550167 1.0484492 0
-3.8061476 6.0168433 -0.10185054 0
-5.9047599 3.9779832 0.15878822 0
-5.9054646 3.9782465 -0.14344293 0
-4.0737257 5.7976675 0.72493553 0
-6.1104198 -3.3941123 1.3725271 0
5.0765505 4.996954 0.049289137 0
-5.5588622 4.3131914 1.1137687 0
-4.9863081 4.8801718 1.4374528 0
-4.8442655 5.0212064 1.4374534 0
-5.3359861 4.5286851 1.3333024 0
5.0780787 4.8788738 1.0816897 0
-3.9782171 5.8665624 0.7232278 0
5.0742841 4.9937725 -0.29992896 0
-5.849009 4.0230203 0.62075543 0
-3.822202 6.0076003 0.28802496 0
-3.9035892 5.9514093 -0.3802256 0
-3.9010215 5.9493027 0.44729069 0
-5.4182181 4.4351115 1.3375946 0
-4.1472459 5.7110667 1.0034103 0
5.0778942 4.9988399 0.2229265 0
-5.9006553 3.9764485 -0.44632 0
-5.862515 4.0323095 0.45455605 0
5.0683298 4.985415 0.56936842 0
-5.8067336 4.0725513 0.75977349 0
-5.7078524 4.1720886 0.95059621 0
5.0733938 4.7570524 1.5888015 0
-3.8095994 6.0197587 -0.37773085 0
5.0719213 4.8369417 1.3333887 0
-5.1321363 4.7424111 1.4384557 0
-4.705606 5.1662006 1.4384762 0
-5.88199 3.9694693 -0.74887741 0
-4.0566292 5.7844434 1.0009962 0
5.0775561 4.9983654 0.39646336 0
5.0834589 5.0066514 -0.12606722 0
-4.4896736 5.3939214 1.295131 0
-5.9068828 3.9787769 0.46065134 0
-4.3984122 5.4706149 1.2911148 0
-4.1331706 5.7406349 0.95068204 0
-5.9789162 -3.3950021 1.9162226 0
-5.6272244 4.263443 1.0527917 0
-5.4233351 4.4630547 1.2772312 0
5.0767202 4.9971919 -0.47734833 0
5.0712404 4.8695598 1.2548931 0
-3.8231521 6.0312042 0.17223947 0
-3.8997555 5.9482646 -0.65795612 0
-5.8179202 4.0769176 -0.74623752 0
5.0704284 4.8220291 1.4393368 0
-4.561635 5.3062329 1.4393594 0
-4.3114095 5.5492015 1.2878623 0
-3.9833834 5.8813357 0.78601277 0
-5.8931365 3.9736371 0.76215321 0
-4.1262593 5.7310357 1.1149795 0
-5.2787561 4.6043048 1.4400283 0
-4.2739453 5.5906644 1.2781801 0
-3.831712 6.0225477 0.45349616 0
5.0713472 4.6339126 1.9929357 0
-3.9029856 5.9509144 0.7229408 0
-3.822114 6.0303273 0.44713685 0
-5.8585777 4.0296021 0.78601301 0
-4.8961959 4.9646564 1.6001166 0
-5.7179446 4.1691189 1.056957 0
-4.7240796 5.1330829 1.5900648 0
5.0707116 5.0482974 -0.038953006 0
-3.7332158 6.1023636 0.17262335 0
-5.521348 4.3496265 1.3448443 0
-4.9831376 4.8793197 1.6055717 0
5.0737038 4.9929581 0.74399632 0
-3.8277915 6.0163856 0.62001479 0
-5.5642004 4.3173337 1.2785655 0
-3.7360077 6.1047902 -0.10205826 0
-4.8440218 5.0209537 1.6016053 0
-4.2307019 5.6314664 1.2857022 0
-4.4178891 5.4476657 1.4408939 0
-3.9809058 5.8776774 0.95126867 0
5.081912 5.0044794 -0.65795934 0
-4.5517168 5.2946959 1.6022537 0
-4.9900379 4.883822 1.6022558 0
-4.8191838 5.0546908 1.5966613 0
-4.554616 5.2991238 1.5812263 0
-5.1289787 4.7394934 1.6023984 0
-4.7027373 5.1630511 1.6024287 0
-4.1195693 5.7217436 1.2791092 0
-3.818985 6.0276852 -0.6565721 0
-3.9845829 5.8716335 1.0007484 0
-4.6468139 5.2212362 1.5869484 0
-5.8539243 4.026401 0.95140916 0
-5.1599255 4.7066751 1.6175355 0
-3.8167791 6.0258222 0.72197986 0
-5.0783157 4.7971983 1.6126812 0
5.0716991 5.0503564 0.42586312 0
5.0764332 5.060226 0.19334584 0
5.06949 4.9870434 0.91831446 0
-5.7183204 4.1797404 1.1159637 0
-5.6961608 4.1635427 1.279467 0
-5.805984 4.0722589 1.0609746 0
-5.4238243 4.4634571 1.441862 0
-5.2426114 4.6156778 1.6227753 0
-5.2689977 4.5957932 1.6033559 0
-4.4726558 5.3826056 1.5776078 0
-5.5523467 4.308136 1.4421828 0
-3.7400866 6.1083364 0.44693559 0
-3.8970156 5.9460168 0.9988817 0
-3.9772162 5.8722296 1.1163974 0
-4.1521935 5.7147822 1.2840364 0
-6.1022544 -3.3917089 1.6793325 0
-5.6202335 4.2604814 1.351648 0
-4.3877273 5.4632874 1.5736119 0
-3.6551456 6.1833262 -0.10160261 0
5.0768285 4.877171 1.4344988 0
5.0712652 5.0494518 0.65842015 0
-3.8346949 6.0272365 0.78601396 0
-3.6579471 6.185833 0.17264493 0
-3.7528443 6.1194277 -0.37963414 0
5.0752592 4.8436513 1.567498 0
-3.680686 6.1690664 0.2836051 0
-5.851954 4.0250459 1.1168736 0
-4.2778811 5.5958128 1.4436749 0
-4.0660415 5.7917237 1.2813497 0
-3.6780291 6.1646132 0.45161906 0
-5.3422303 4.5316529 1.6311783 0
-4.9835029 4.8774261 1.7661829 0
5.0820513 4.8330827 1.6058798 0
-4.3066235 5.5458179 1.5705402 0
-5.1227317 4.7337203 1.766444 0
-4.4179444 5.4477339 1.6059639 0
-3.6542549 6.1825294 0.44666862 0
-3.7380009 6.1065235 0.72159672 0
5.0701213 4.9879293 1.0949471 0
-5.9024024 3.9771016 1.0658832 0
5.0696239 5.11202 0.044561177 0
-3.8318205 6.0227184 0.95218754 0
5.0644631 5.1009126 0.45117271 0
-4.7022734 5.1625419 1.7675796 0
-4.8488379 5.0259457 1.7676615 0
5.0761309 5.1126642 -0.056216836 0
-5.69871 4.1654062 1.4450824 0
-4.5536494 5.2969437 1.7678826 0
-3.7506127 6.1174874 -0.65737188 0
5.0732093 5.1097212 0.28242958 0
5.0767779 5.1133156 0.11324328 0
-3.8207903 6.0292096 0.99841237 0
-5.7199016 4.1699152 1.3586854 0
5.0737886 5.1180458 -0.13355911 0
-4.2242775 5.6267848 1.5674232 0
-4.1265545 5.7314458 1.4454265 0
5.0687895 5.1108117 0.39798218 0
5.0716877 5.115006 -0.31193119 0
-5.7960238 4.0683713 1.3627515 0
-3.8244121 6.0110741 1.1178983 0
-3.5756721 6.2628341 -0.1013194 0
5.0717192 5.0503983 0.89193928 0
-4.2705383 5.5862074 1.6080217 0
-3.6712389 6.1977267 -0.378811 0
-5.4299955 4.4685354 1.6081003 0
-3.5763636 6.2634702 0.17278847 0
-5.4409022 4.4454975 1.6395717 0
-3.9899879 5.8759394 1.2803893 0
-5.5200644 4.349061 1.6447496 0
-3.5745239 6.261776 -0.37631226 0
-3.6857605 6.1775713 0.61855662 0
-3.9844584 5.8829226 1.2829422 0
-5.5619001 4.3155489 1.6089814 0
-3.6637764 6.1910491 -0.65535015 0
5.0820742 5.1300359 0.22100997 0
-4.9802313 4.8777285 1.8994391 0
-4.5480442 5.294888 1.868685 0
-5.2795835 4.6050262 1.770766 0
-6.0580664 3.9156656 0.44999439 0
5.0796618 4.8810301 1.6164416 0
-4.8984365 4.9659252 1.8938888 0
-4.8130999 5.0511293 1.8877772 0
5.0781832 4.8294039 1.7710751 0
-4.4141383 5.4430408 1.7710774 0
-5.4112983 4.4531488 1.7710912 0
-4.6393862 5.216598 1.8755251 0
5.0732527 5.1172709 0.57517338 0
-5.8625121 4.0323076 1.28365 0
-3.6640844 6.1913247 0.72163123 0
-4.7291861 5.1361704 1.8822118 0
5.0735912 4.9928002 1.2745719 0
-5.0690036 4.7922716 1.9067605 0
-5.8871865 3.9714124 1.3689586 0
-6.083281 3.9104221 -0.15097398 0
-6.0710759 3.9060564 -0.45820725 0
-6.0837579 3.9105926 0.15625796 0
-3.6847222 6.1758313 0.78601527 0
5.0709867 4.8350616 1.8013893 0
5.0802479 5.1273937 -0.49455047 0
-3.9073782 5.9545174 1.2785667 0
-5.6127982 4.2573309 1.652469 0
-3.5840621 6.2705603 0.44679424 0
5.0682201 5.0431042 1.1258411 0
-6.3823047 -3.3857245 0.44946447 0
-4.1548586 5.716783 1.5670612 0
-4.8436995 5.0206194 1.9327749 0
5.0818462 5.1184211 0.6181109 0
-5.545692 4.3029728 1.7726707 0
-3.5747385 6.2619743 -0.65310878 0
-4.9868269 4.8806791 1.9330274 0
-6.0454092 3.9074845 0.78601551 0
-3.5713463 6.2588501 0.72041118 0
-3.6785913 6.1655555 0.95314819 0
-3.9794931 5.8755918 1.4485995 0
-3.5242414 6.3115816 0.44927317 0
-4.700429 5.1605163 1.9334455 0
-6.0619807 3.9181957 0.61798775 0
-3.5293076 6.3206549 0.2797184 0
-3.8273191 6.0156431 1.2846706 0
-3.81603 6.0251894 1.2754972 0
-5.1630301 4.7082615 1.9154435 0
-6.3961515 -3.3930702 0.27963638 0
-4.1286726 5.7343879 1.6120522 0
-4.477282 5.3856821 1.8668438 0
5.0796165 5.1264791 -0.67711556 0
-3.4939957 6.3400722 -0.37584037 0
5.0772791 5.1138206 0.78601575 0
-3.4999804 6.3457441 0.17278235 0
-3.7540011 6.1204333 0.99916828 0
-3.5015168 6.3472004 -0.10149795 0
5.0761356 5.1214423 0.75332034 0
-5.1328979 4.7431145 1.9348438 0
-4.1948071 5.6473384 1.7641988 0
-3.975347 5.8642759 1.558864 0
-5.252317 4.6204624 1.9232999 0
-4.0730124 5.7971158 1.5644634 0
-6.0926337 3.9137671 0.46330661 0
-5.8582616 4.0293841 1.4498894 0
-4.393981 5.467576 1.8623338 0
-5.7131367 4.175951 1.6132871 0
-4.2743759 5.5912271 1.7752894 0
-3.6607575 6.1883478 0.99698049 0
-6.3892689 -3.3894191 0.61764812 0
-3.499197 6.3450012 0.44659883 0
-6.1023707 -3.3917432 1.9906311 0
-3.527149 6.3167887 0.61759722 0
-4.3051739 5.5447927 1.8567449 0
-6.0730662 3.9067683 0.76980543 0
-6.0753617 3.9075892 -0.76856601 0
5.0740628 5.1105814 0.95366359 0
-5.3416576 4.5313807 1.931386 0
-5.7153568 4.168066 1.6620487 0
5.0743189 5.118813 0.93189943 0
-3.6793783 6.1668749 1.1205344 0
-5.4090853 4.4513278 1.9375312 0
5.0768299 4.8281174 1.9376768 0
-4.4131365 5.4418054 1.9377248 0
5.0763474 4.9966683 1.4567882 0
-4.5688128 5.3145823 1.9380747 0
-5.2820635 4.6071897 1.9381633 0
-3.4143677 6.4190621 0.17297266 0
-4.1206441 5.7232366 1.7773154 0
-3.7386312 6.1070709 1.2748225 0
-4.1031232 5.7416949 1.7649827 0
-3.5257225 6.3142343 0.78601646 0
-3.9792223 5.8751917 1.6155443 0
-5.6975346 4.164547 1.7780149 0
5.0680666 5.0427837 1.362415 0
-3.4196296 6.4241939 -0.10120076 0
-3.898078 5.9468884 1.5575725 0
-4.2275038 5.6291361 1.8540406 0
-4.2621827 5.5752783 1.9396113 0
-6.0623288 3.9184208 0.9540543 0
-6.3951435 -3.3925354 0.78601664 0
-3.505332 6.3508158 -0.65432829 0
-3.5796385 6.2664866 0.99632061 0
-5.4370909 4.4437528 1.9409953 0
-3.5039754 6.3495302 0.72107548 0
-5.5159087 4.3472295 1.9472822 0
5.0741372 5.1106563 1.1214986 0
-5.8099742 4.0738163 1.6704427 0
-3.6763961 6.1618762 1.2878412 0
-4.1422787 5.7073374 1.8497626 0
-5.8584876 4.0295396 1.6172481 0
-3.3691812 6.4627299 0.27629417 0
-5.5557947 4.3108115 1.941952 0
-3.8129177 6.0225611 1.5548732 0
-3.8379264 6.0323153 1.4535792 0
-3.4270515 6.4314327 -0.37715787 0
-3.6574225 6.1853638 1.2737033 0
-3.4246001 6.4290414 0.44667685 0
5.0774565 5.123354 1.1131728 0
-3.5281322 6.3185496 0.95448309 0
-6.393188 -3.3914981 0.9544884 0
5.0699525 5.2425776 -0.32476115 0
5.076334 5.2521 0.038294017 0
5.0756526 5.2510834 -0.14327353 0
-3.333869 6.4971037 0.17301349 0
-6.0775743 3.9083807 1.0782111 0
-5.8965611 3.9749174 1.6776627 0
-3.3714149 6.4670143 0.44628415 0
-6.0645237 3.9198394 1.1223967 0
5.0767164 5.2526712 0.21929285 0
-3.4212241 6.4257488 -0.65326011 0
5.0766954 4.9971576 1.6411892 0
5.0733995 5.2477217 0.40000317 0
-3.8265903 6.0144978 1.6193659 0
-5.6117673 4.2568941 1.9574209 0
-4.0193896 5.8449969 1.7679596 0
-3.4178119 6.4224215 0.72046775 0
-3.9761856 5.870708 1.7826846 0
-4.0641012 5.7902231 1.8474423 0
-3.4987383 6.3445668 0.995812 0
5.0716209 5.2450676 -0.5091902 0
-6.3860235 -3.3876975 1.1227651 0
-4.1213756 5.7242527 1.9454869 0
-5.8486776 4.0227923 1.7838204 0
-3.9163575 5.9274259 1.7667325 0
-3.3722577 6.4686313 0.61620069 0
-3.7340994 6.1031313 1.5536969 0
-3.347506 6.5107894 -0.10170549 0
-3.5745592 6.2618089 1.2724788 0
-3.5279932 6.3183012 1.1231191 0
-3.3391385 6.5023918 0.44651681 0
5.0735688 5.2814193 -0.050070196 0
5.0795317 5.1160898 1.2902315 0
5.0692997 5.2721829 0.42934835 0
-3.9813223 5.8690362 1.8442452 0
-3.3459764 6.509254 -0.37690383 0
5.0756865 5.2860012 0.18978594 0
5.0787859 5.2557588 0.58133686 0
-6.0615544 3.9179201 1.2907965 0
5.0802693 5.1274242 1.2967389 0
-3.6827388 6.1725068 1.4571223 0
5.075036 5.2501631 -0.69649088 0
5.0724654 5.2463274 0.76217264 0
-3.9677334 5.8582287 1.9490819 0
-3.6367593 6.2094278 1.4433674 0
-3.5225003 6.3084636 1.29134 0
-3.2549725 6.576736 0.17298691 0
-3.894443 5.9439063 1.8402612 0
-5.7138801 4.1674652 1.9690856 0
-6.0433025 3.9061229 1.4578813 0
5.0756979 5.058692 1.605094 0
-3.2590308 6.5809274 -0.10107857 0
-5.7168427 4.1786599 1.9500312 0
-6.0649266 3.903857 1.3866053 0
-3.3395147 6.5027695 0.72051221 0
-6.3883176 -3.3889146 1.2917786 0
-3.3770213 6.4777689 0.78601855 0
-3.8230352 6.0208068 1.7681221 0
-3.347013 6.5102944 -0.65408349 0
-3.6734166 6.1568823 1.6241436 0
5.0770378 5.1135778 1.4588262 0
-3.2568994 6.5787258 0.44646144 0
-3.3712857 6.4667668 0.955787 0
-3.427381 6.4317536 0.99659812 0
-3.2616725 6.5836554 -0.37637907 0
-5.8027201 4.0709848 1.9781836 0
-3.50139 6.3470798 1.2730615 0
-3.8118143 6.0216293 1.8375816 0
5.075038 5.2501659 0.94528282 0
-3.6679773 6.1948085 1.5554475 0
-3.8354104 6.0283608 1.7903509 0
5.0791731 5.2935443 0.67017025 0
5.0812941 5.1289067 1.4824358 0
-3.2539983 6.5757298 0.72009945 0
-3.2598915 6.5818162 -0.6528523 0
5.0679326 5.1044068 1.6268933 0
-3.3374119 6.500659 0.9952423 0
-5.8589435 4.0298533 1.9549365 0
-6.2907672 3.8483596 0.15320551 0
-3.7291489 6.1139479 1.7697235 0
-3.1757998 6.6561723 0.17293812 0
-3.2196801 6.6335235 0.27032584 0
-3.4129515 6.4176812 1.2712414 0
-3.5267205 6.3160214 1.4614451 0
-3.5471225 6.309114 1.446025 0
-3.2118475 6.6173863 0.61478758 0
5.065033 5.1053772 1.6631315 0
-3.3728933 6.4698505 1.1259022 0
-3.2180083 6.6300788 0.44271284 0
-3.1814613 6.662189 -0.10135227 0
-5.8978953 3.9754164 1.9888351 0
-6.5590339 -3.3905959 -0.16649428 0
-6.3967004 -3.3933613 1.4621084 0
-6.2889132 3.8477263 -0.47451383 0
-3.1784949 6.6590366 -0.37612504 0
-6.5626397 -3.3916013 0.15103222 0
-3.5862994 6.2726207 1.5541525 0
-3.6740656 6.1579704 1.7939636 0
-6.5528913 -3.3888829 0.46819115 0
-6.3066783 3.8537953 -0.16104648 0
-3.1794505 6.6600518 0.4465549 0
-3.739758 6.1080508 1.8378762 0
-6.5556531 -3.389653 -0.48494363 0
5.079618 5.2570009 1.1308653 0
-3.4909081 6.3371458 1.550089 0
5.0754671 5.0582123 1.8481345 0
-3.8307092 6.0209718 1.959085 0
5.0831261 5.3020964 0.91228724 0
-3.2525144 6.5741973 0.99462724 0
-3.4430847 6.3911052 1.4461143 0
-3.2143769 6.6225972 0.78602016 0
-6.3063846 3.8536949 0.46648258 0
-3.1774354 6.6579103 -0.65262026 0
-6.0702701 3.9235537 1.6309762 0
-3.6523247 6.1808019 1.8344843 0
-6.332231 3.8399222 0.26809233 0
-3.0935431 6.7323875 0.17293917 0
5.0794988 5.3930335 0.21722105 0
-6.3897386 -3.3896682 1.631592 0
-6.2893271 3.8478675 -0.79094589 0
-3.2108407 6.6153116 0.95719886 0
5.0730448 5.2471919 1.3151956 0
5.0777884 5.3904009 0.40212417 0
5.0834827 5.3991666 -0.1544649 0
-3.2480087 6.5733991 1.1220274 0
5.075922 5.2865105 1.1532831 0
-6.5535531 -3.3890674 0.78559607 0
5.081696 5.3964162 -0.34132212 0
-3.643096 6.2172098 1.7736497 0
5.0865793 5.4039345 0.031356305 0
-6.0471787 3.9086285 1.7981349 0
5.0762882 5.3880916 -0.52850574 0
5.0760341 5.414752 -0.081620336 0
-3.5302999 6.322432 1.6325417 0
5.0770583 5.415844 0.092900872 0
-3.3801899 6.4838467 1.2974102 0
-3.1061163 6.7461395 -0.10189271 0
-3.3454623 6.5087385 1.2732137 0
-3.1009355 6.7404733 -0.3767342 0
5.0792742 5.1158299 1.7993544 0
-3.6722386 6.1549082 1.9641632 0
5.0658259 5.4038625 0.61359286 0
-3.1921301 6.6735272 0.72156823 0
-6.0870986 3.9117875 1.7025703 0
-6.3448548 3.8475776 0.44035992 0
5.0807924 5.3950257 0.58748698 0
-3.344243 6.4801488 1.4475118 0
-3.103128 6.7428713 0.4467088 0
5.0757055 5.3871942 -0.71879578 0
-3.004396 6.8008795 0.17309286 0
-6.3116393 3.85549 0.78072125 0
-3.5726085 6.2600126 1.8333602 0
-3.0934963 6.732337 -0.65231144 0
-3.0894346 6.7278943 0.71999711 0
5.0845385 5.4238238 0.2660749 0
-3.0537944 6.7802849 0.26594549 0
-6.3414311 3.8455014 0.61337751 0
-3.2133055 6.6203899 1.1288269 0
-3.5428753 6.3037429 1.7744039 0
5.083446 5.4226584 0.43977815 0
