# .PCD v0.7 - Point Cloud Data file format
VERSION 0.7
FIELDS x y z intensity
SIZE 4 4 4 4
TYPE F F F F
COUNT 1 1 1 1
WIDTH 1430
HEIGHT 1
VIEWPOINT 0 0 0 1 0 0 0
POINTS 1430
DATA ascii
7.0200481 -3.8540564 1.1590976 0
7.0324831 -3.8374093 1.1455002 0
-4.4718652 -6.7445154 0.15553914 0
-4.4723797 -6.7449632 -0.15319446 0
2.8785841 -7.529397 -0.73800814 0
7.3646049 3.3626218 0.010644823 0
-7.6135001 2.7299507 0.40926942 0
-4.4667234 -6.7400455 -0.46239245 0
7.3682132 3.3572361 0.19217823 0
2.9748061 -7.4447498 1.1595017 0
3.2884426 -7.1315064 1.9918154 0
2.8361695 -7.5879745 0.16024761 0
2.8778532 -7.5223775 0.88781738 0
7.0608983 -3.846051 1.0051372 0
7.3635297 3.3621202 0.40928337 0
7.2422233 3.3761761 1.3627634 0
7.365356 3.3629723 -0.39104891 0
7.3542953 3.3578119 -0.59228933 0
7.1522045 -3.8173654 -0.050800681 0
6.9339399 -3.8761122 1.6246644 0
7.3682985 3.3573072 0.42722374 0
7.1516261 -3.8168094 -0.29204357 0
-7.6334372 2.7370994 0.21889204 0
2.8362079 -7.5884848 0.45916134 0
6.9492478 -3.8725832 1.5984221 0
7.149375 -3.8146451 0.42970073 0
3.0466185 -7.3569517 1.5660779 0
7.3635292 3.3621199 0.608693 0
7.3814621 3.368264 -0.28085339 0
-7.6215391 2.7328329 0.59755856 0
7.167449 -3.8138609 0.0089014173 0
2.9466662 -7.4482069 1.3450081 0
-4.4643192 -6.5726943 1.6899155 0
7.1627502 -3.8275044 0.1893754 0
2.9637105 -7.4433241 1.3453516 0
7.175271 3.3617013 1.7927752 0
-7.5339913 2.6373274 1.5219072 0
7.1660924 -3.8130798 -0.39483947 0
7.1726146 -3.8168352 0.20941125 0
7.3797221 3.3668158 -0.5188247 0
7.3577838 3.3594394 0.80827916 0
7.3658872 3.3553002 -0.75619435 0
7.3731666 3.3613594 0.66288984 0
7.2277651 3.3637869 1.5983909 0
7.0290356 -3.8589904 1.3468511 0
-4.4917469 -6.7618003 0.46432072 0
3.1300135 -7.2884955 1.7889446 0
7.1572618 -3.8222277 -0.53576726 0
-7.6199245 2.7322543 0.78604108 0
7.034255 -3.8391621 1.388225 0
7.1780787 -3.8199813 -0.1935212 0
7.0646205 -3.8482656 1.2074568 0
2.8782635 -7.5263195 1.1215361 0
3.0588837 -7.3607016 1.6331024 0
7.3602037 3.3505695 0.89783359 0
3.1456752 -7.2606325 1.8982903 0
2.9783807 -7.4536958 1.3474144 0
6.934557 -3.8635552 1.8007904 0
-4.4801936 -6.7517562 -0.77607238 0
7.1661601 -3.8131189 0.61042064 0
-7.6079416 2.7279575 0.97418731 0
7.178575 -3.820267 0.41010883 0
-4.4821939 -6.7534947 0.77327597 0
-4.4848933 -6.6217985 1.5327744 0
7.1527634 -3.8179028 -0.77991176 0
3.1669624 -7.2566328 1.9160911 0
7.1732001 -3.8171723 -0.60041106 0
7.1631751 -3.8279126 0.67099822 0
2.8374248 -7.6046476 0.75929809 0
-4.4687915 -6.5492706 1.8984748 0
7.1493158 -3.8145883 0.91116315 0
2.9725924 -7.4392099 1.5340327 0
2.8771245 -7.5153823 1.3551764 0
7.3668218 3.363656 1.0106475 0
7.0592327 -3.8450599 1.4102703 0
2.9631701 -7.4387674 1.579831 0
7.1716094 -3.8162563 0.81226808 0
-4.4761877 -6.6089449 1.71917 0
7.0319324 -3.8605809 1.5350463 0
7.3483968 3.3550599 1.2106584 0
6.9405384 -3.8828304 1.8736753 0
7.2193003 3.3565338 1.8377227 0
-4.4798412 -6.7514496 1.0833132 0
3.0480237 -7.3675027 1.8043749 0
7.3754663 3.3632734 1.1375449 0
2.817122 -7.6827526 0.21374381 0
-7.6274529 2.7349536 1.1635042 0
2.8375869 -7.6068029 1.0604405 0
7.1735973 -3.8174009 1.0153028 0
2.9709001 -7.4349747 1.7220272 0
7.042573 -3.8473909 1.6356145 0
7.1530128 -3.8181427 1.1544435 0
2.8163805 -7.6807303 0.40495533 0
3.0581489 -7.3536453 1.9324917 0
2.8087196 -7.6598377 0.78604293 0
2.8144197 -7.6753826 0.59573501 0
2.7992711 -7.7048907 -0.045729429 0
-7.614285 2.730232 1.3517697 0
2.9489336 -7.4734869 1.6492031 0
7.2698507 -3.792547 0.18843824 0
7.2726078 -3.7951224 -0.0545789 0
7.0307918 -3.8599546 1.7236774 0
-7.5385938 2.6381257 1.8741115 0
7.0629821 -3.8472905 1.6178699 0
7.2661028 -3.7890456 0.43087226 0
7.2614441 -3.7846935 -0.54188198 0
-7.7062383 2.8135307 -0.21822947 0
-7.7082944 2.8139176 0.13383001 0
7.2806158 -3.7828565 -0.199727 0
2.962728 -7.435041 1.8173858 0
-4.4763927 -6.6092477 1.9080923 0
-7.6985717 2.8120873 0.48539734 0
2.800523 -7.7188468 0.19107521 0
7.1712637 -3.8160574 1.2194571 0
7.3604507 3.3606837 1.4180038 0
7.2805214 -3.7828038 0.41133508 0
7.2781477 -3.8002985 -0.29908437 0
2.8785324 -7.5288992 1.5954224 0
-7.7019334 2.8127201 -0.57123321 0
2.8366027 -7.593729 1.3617049 0
2.8009372 -7.7234659 -0.28527957 0
7.2949162 -3.7908196 0.0036833584 0
2.9671564 -7.4256063 1.9100578 0
7.3748298 3.3627436 1.3774371 0
7.2657914 -3.7887542 0.67349005 0
-4.4807792 -6.752265 1.3955677 0
2.7991421 -7.7034521 0.66505373 0
7.1515999 -3.8167841 1.3990561 0
2.8120232 -7.6688466 0.97618973 0
7.0463195 -3.8373766 1.8227869 0
2.8011992 -7.7263851 0.4284569 0
2.8008802 -7.7228308 -0.52523619 0
7.3023677 -3.7949693 0.20762846 0
7.285871 -3.7857828 0.61517411 0
7.5180454 3.3544519 0.19018695 0
7.2869358 -3.7863758 -0.61368304 0
7.2983441 -3.7927287 -0.40773869 0
7.0389047 -3.8437622 1.8833158 0
-7.6996045 2.8122818 0.83727568 0
7.2717938 -3.7943623 -0.791031 0
-7.6197195 2.7321806 1.5418427 0
-4.4758883 -6.9177332 0.15348643 0
7.2782545 -3.7815413 0.81889057 0
2.7988892 -7.7006302 0.90267366 0
7.5269794 3.3616741 -0.049732804 0
7.5256147 3.3605711 -0.29017752 0
7.51759 3.3540838 -0.53092152 0
7.0336418 -3.8615193 1.9139174 0
2.8007965 -7.7218957 -0.76716697 0
7.1742482 -3.8177757 1.4268861 0
2.8124785 -7.6700888 1.1666045 0
7.5257282 3.3606627 0.42938551 0
7.27177 -3.7943399 0.91772079 0
7.3610063 3.3609428 1.6261894 0
-4.4878778 -6.928462 -0.16016501 0
7.1405921 -3.8062012 1.6436648 0
7.5458512 3.3545129 0.0021850467 0
7.5443106 3.3538206 0.2073078 0
7.5376697 3.3508375 0.41196513 0
7.545393 3.3543072 -0.20361638 0
7.3711395 3.3596718 1.6191674 0
2.9484026 -7.4675655 1.952475 0
7.5231977 3.3586175 0.66887796 0
-4.4873757 -6.9280128 -0.47462577 0
-4.4887271 -6.9292216 0.4662143 0
7.5082102 3.3465011 0.90761954 0
-7.6136546 2.730006 1.731585 0
7.3622026 -3.7712026 0.20752758 0
7.5531688 3.3578002 -0.41175228 0
2.811034 -7.6661491 1.3571084 0
7.2887778 -3.7874014 1.0257943 0
7.5252867 3.360306 -0.77621698 0
2.879688 -7.5399981 1.8393465 0
2.8368173 -7.5965786 1.6671736 0
-4.4778447 -6.9194841 0.7788595 0
-7.6964784 2.8116934 1.1901476 0
-4.4802675 -6.7518201 1.7102942 0
7.3713679 -3.7758973 0.012748659 0
7.2711482 -3.7937591 1.1629126 0
7.364789 -3.7725275 0.4005802 0
7.3717008 -3.7760677 -0.18219912 0
7.3666825 -3.7734971 -0.37738323 0
2.8003526 -7.7169471 1.1439109 0
7.5566044 3.3593435 -0.62152499 0
7.5408454 3.3522642 0.82258022 0
7.5861025 3.3515012 0.011695385 0
-4.4884453 -6.9289694 -0.79122567 0
7.1803718 -3.8213015 1.6382288 0
7.5879703 3.3523264 -0.18371296 0
7.3929954 -3.7700508 -0.05832997 0
7.563098 3.3622606 0.61820585 0
7.362762 3.361762 1.8381571 0
7.5846243 3.3508482 0.39978597 0
7.3944583 -3.7713792 0.18708855 0
7.5929871 3.3545427 0.20549262 0
7.3890319 -3.766453 0.43218356 0
7.3948684 -3.7717512 -0.30490434 0
7.376193 -3.7783689 0.59311962 0
7.3866301 -3.7642729 -0.55149043 0
7.5941987 3.355078 -0.38095272 0
7.585618 3.3512871 -0.57714462 0
7.2948999 -3.7908108 1.2345269 0
7.4127674 -3.7593467 -0.20888066 0
7.4155273 -3.7608323 -0.0011063516 0
7.3676438 -3.7739894 0.78604633 0
7.3853884 -3.7631452 0.67719156 0
-7.6166582 2.7310829 1.9234167 0
7.4099064 -3.757807 -0.41769481 0
7.3526182 -3.766293 0.97835648 0
2.8143432 -7.6751738 1.5493279 0
7.5260539 3.3609264 1.1516578 0
7.421061 -3.7638109 0.20607239 0
7.3799024 3.3669655 1.8676046 0
7.5956874 3.3557358 0.5927397 0
7.4050078 -3.7551701 0.61988026 0
-4.4873943 -6.9280291 1.094028 0
7.409236 -3.7574461 -0.6284734 0
7.1559815 -3.820997 1.8989971 0
2.8009305 -7.7233911 1.3868048 0
7.4220185 -3.7643263 0.41334662 0
7.2811718 -3.8031232 1.4124635 0
7.5919671 3.3540924 0.78604692 0
7.176609 -3.8191352 1.8504477 0
7.5607543 3.361208 1.0321734 0
7.3852687 -3.763037 0.92317003 0
7.2921238 -3.7892647 1.4440936 0
2.8366411 -7.5942402 1.9752293 0
7.5434251 3.3534229 1.2386367 0
7.409121 -3.7573843 0.82791841 0
-4.4800134 -6.7819996 1.9273778 0
2.8139703 -7.6741567 1.7415829 0
-4.4811335 -7.0432854 0.39717361 0
7.524961 3.3600428 1.3955506 0
7.5929427 3.3545234 0.97928476 0
-4.4867129 -7.0520544 0.2014823 0
-7.7201877 2.8161564 1.5483123 0
7.3707519 -3.7755816 1.1718255 0
7.6645808 3.3449037 -0.29883301 0
7.5815163 3.3494749 1.1721501 0
7.6696301 3.3488672 0.18817814 0
7.6631479 3.3437788 0.43107805 0
7.2757473 -3.7980559 1.6616447 0
-4.4882574 -6.9288015 1.4105947 0
7.4992971 -3.7297966 -0.061074913 0
2.8009863 -7.7240133 1.6317188 0
-4.4853959 -7.0499849 0.59153157 0
7.2879896 -3.7869625 1.6559426 0
7.3927341 -3.7698138 1.1719027 0
7.6820588 3.3586237 -0.05599016 0
7.5053859 -3.7351673 0.18606707 0
7.5187712 -3.7188473 -0.0048601329 0
7.5013857 -3.7316391 0.43323985 0
2.810487 -7.6646581 1.9335666 0
-4.4681673 -7.0847473 -0.48259842 0
-4.4779453 -7.0937519 0.15139471 0
7.673883 3.352206 -0.54578793 0
7.4269929 -3.7670038 1.0394773 0
7.49788 -3.7285469 -0.55874509 0
-4.4797049 -7.0953727 -0.1657275 0
7.553576 3.3579831 1.4519182 0
7.3748512 -3.7776814 1.3655612 0
-4.4882679 -7.0544987 0.78604871 0
7.5258093 -3.7225068 -0.21611542 0
-7.6869082 2.8098919 1.9020693 0
7.5157967 -3.7443492 -0.31119013 0
7.530406 -3.7248967 0.20470294 0
2.7987671 -7.6992702 1.8741447 0
-4.4808507 -7.0964279 0.46807426 0
7.6784487 3.3557899 0.67514968 0
7.6705203 3.3495662 -0.79314911 0
7.5913892 3.353837 1.3664814 0
2.7356949 -7.9540195 0.15399203 0
7.5335531 3.3669884 1.6444783 0
7.3906722 -3.7679422 1.4214468 0
7.4241214 -3.7654581 1.2505507 0
7.2690864 -3.7918327 1.9133189 0
7.5417533 3.3526719 1.6633362 0
-4.4890103 -7.0556655 0.98072267 0
7.5401282 -3.7299516 0.41488835 0
7.5717368 3.3451545 1.5589354 0
7.2899985 -3.7880814 1.8727862 0
7.5435615 -3.7317364 -0.43070388 0
7.5000572 -3.7304671 0.92875409 0
-7.8750176 2.9949257 -0.22873586 0
-4.4843054 -6.9252653 1.7289457 0
2.7225022 -7.9781199 -0.059669912 0
7.5364542 -3.7280412 0.6253047 0
7.521173 -3.7490909 0.68200362 0
2.7361887 -7.9621258 0.46554977 0
2.7213666 -7.9630365 -0.55382806 0
7.6813607 3.3580759 0.92009938 0
2.7224283 -7.977139 -0.30683386 0
7.3813839 -3.7810278 1.5603993 0
2.7352362 -7.9464884 0.77680844 0
-7.8908687 2.9981451 0.13008489 0
2.7226877 -7.9805851 0.43276644 0
7.4168406 -3.7615392 1.4627699 0
7.546967 -3.7335074 -0.64598292 0
7.5184555 3.3547838 1.8905528 0
-4.4904122 -7.057869 1.1757298 0
-7.8842082 2.9967923 0.48919648 0
7.6714401 3.3502882 1.1648066 0
7.7557192 3.3537207 -0.22043478 0
2.7241888 -8.0005255 0.18628457 0
7.5401006 -3.7299373 0.83692467 0
7.7606101 3.3558345 -0.0081425309 0
7.7604227 3.3557534 0.20384216 0
-4.4759741 -7.0919366 1.102927 0
7.388443 -3.7659185 1.673527 0
2.734374 -7.9323339 1.0882423 0
-4.5057302 -7.1193395 0.7869817 0
-7.8910356 2.998179 -0.59058577 0
7.7600446 3.3555899 0.41555068 0
-7.8733945 2.9945962 0.8480491 0
2.7232544 -7.988112 0.67959511 0
-4.4851041 -7.0495257 1.3704076 0
7.7488084 3.3507342 -0.6488331 0
7.5769796 3.347471 1.7544081 0
7.5077763 -3.7372749 1.1797652 0
7.5341969 -3.7268674 1.0488079 0
7.7653561 3.3578854 -0.43559819 0
7.3771329 -3.7788503 1.7550123 0
7.5491123 3.3559778 1.8829128 0
7.6216593 -3.7013028 0.1849232 0
7.4094491 -3.7575607 1.677279 0
7.766572 3.3584106 0.6278829 0
7.7508655 3.3516233 0.83937222 0
7.6247458 -3.7039473 0.43454778 0
2.7230694 -7.9856548 0.92698103 0
7.6341753 -3.7120273 -0.06579867 0
7.6208806 -3.7006357 -0.56789446 0
7.359479 -3.7698073 1.9483472 0
7.636436 -3.7139642 -0.3174116 0
7.6787863 3.356055 1.4142135 0
2.6935344 -8.053297 0.39047703 0
7.6582437 -3.6927316 -0.010746807 0
7.3826528 -3.7606618 1.9277308 0
-7.8707328 2.9940555 1.2081733 0
7.5410671 -3.7304399 1.2643297 0
7.6291971 -3.7077615 0.6848551 0
2.7224298 -7.9771581 1.1749668 0
2.6992958 -8.0705223 0.1908831 0
7.6651998 -3.6962228 0.20283535 0
7.4017587 -3.7534211 1.8945931 0
7.6134567 -3.6942742 0.93416405 0
7.5132604 -3.7421124 1.4331882 0
-4.4935918 -7.0628672 1.5676599 0
7.6715927 -3.6994314 -0.22655523 0
7.8357387 3.3501847 -0.062090337 0
7.6563401 -3.6917763 0.63003522 0
2.7354443 -7.9499035 1.4044939 0
7.7655811 3.3579826 1.0550283 0
7.669466 -3.698364 -0.44260669 0
7.8351474 3.3497341 -0.3108955 0
2.6982517 -8.0674009 0.58802599 0
7.673882 -3.7005804 0.41673425 0
7.8413029 3.3544252 0.18574849 0
7.5960045 3.355876 1.9533337 0
7.663198 -3.6952181 -0.65961796 0
7.494339 -3.7254236 1.6836181 0
-4.4992342 -7.1133571 1.4268241 0
-3.9436941 7.564755 0.38865149 0
-4.4857855 -7.0505972 1.7629601 0
7.8422594 3.3551543 0.43367255 0
7.5394616 -3.729605 1.4809357 0
7.6763754 3.3541625 1.6646394 0
-3.9474478 7.5719552 0.18884385 0
-4.478529 -7.0077491 1.9544603 0
2.6997159 -8.0717783 0.786053 0
7.661881 -3.694557 0.84500456 0
-4.4832006 -7.277564 0.14913732 0
7.7597132 3.3554468 1.2701147 0
7.8357005 3.3501551 0.6814878 0
2.7225485 -7.978734 1.4260907 0
7.844183 3.3566201 -0.56265968 0
7.6249008 -3.7040803 1.1879445 0
-3.9485743 7.5741158 0.58721459 0
2.6981225 -8.0670147 0.98407042 0
7.7310104 -3.6840963 -0.013551176 0
-4.4869676 -7.2811341 0.47035331 0
2.7344513 -7.9336023 1.7193294 0
-7.8710198 2.9941139 1.570684 0
7.731154 -3.684165 -0.2151047 0
7.7318435 -3.6844935 0.18704528 0
7.8323574 3.3476079 0.92998862 0
-4.4986777 -7.2922316 -0.17349732 0
7.660296 -3.6937616 1.0607469 0
-4.4900098 -7.2840171 -0.4958967 0
7.7200336 -3.6788657 0.58697724 0
7.5322127 -3.725836 1.6989065 0
7.7521701 3.3521872 1.4867898 0
7.7487803 -3.6739995 -0.069101542 0
7.7487707 -3.6739919 0.18353564 0
-4.4829774 -7.0461836 1.9599566 0
7.7351575 -3.6860728 -0.41836619 0
-4.4886818 -7.1036396 1.7484485 0
7.6684079 3.3479078 1.9166417 0
-3.9523518 7.5813618 0.78605407 0
7.8215585 3.3393776 1.1785669 0
-4.4851995 -7.279458 0.79192412 0
7.7469673 -3.6917005 0.38629577 0
-7.9998364 3.1302702 0.18525594 0
7.7466979 -3.6722662 -0.57744974 0
7.6214461 -3.7011201 1.4418602 0
-3.9468338 7.5707774 0.98480558 0
-7.9957585 3.1286745 0.38608804 0
7.7274885 -3.6824181 0.78605437 0
7.7586398 -3.6822064 0.4360885 0
2.7228894 -7.9832659 1.6806951 0
7.5014949 -3.731735 1.9437243 0
7.76443 -3.6870258 -0.32444632 0
7.7480674 -3.6734064 0.68845296 0
2.7029212 -8.0813618 1.1830082 0
2.6957426 -8.0598993 1.3804414 0
7.7472792 3.3500736 1.7065158 0
7.6712737 -3.6992712 1.2804492 0
-3.9443793 7.5660691 1.1835258 0
7.7949681 -3.6616936 0.20107013 0
7.800251 -3.6642513 -0.016762286 0
-8.0070953 3.1331105 0.58589673 0
7.531126 -3.7252712 1.9217064 0
7.7908607 -3.6597054 -0.45387739 0
-7.9936657 3.1278555 0.78605503 0
7.7999859 -3.6641228 -0.23526484 0
-4.4877148 -7.2818422 1.11502 0
7.8012919 -3.6647551 0.41845253 0
7.7407174 -3.6887221 0.98566532 0
7.7540255 -3.6783655 0.942662 0
7.7939382 -3.6611953 0.63579476 0
7.9634094 3.3460631 -0.017729133 0
-3.9428861 7.5632048 1.3825756 0
7.6664944 -3.6968725 1.5000308 0
-7.8727298 2.9944611 1.9365671 0
7.7309933 -3.6840885 1.1849904 0
2.6966558 -8.0626287 1.5798459 0
7.8414268 3.3545196 1.4344409 0
7.7915764 -3.6600518 0.85384744 0
7.7404494 3.347122 1.9288723 0
7.6299009 -3.7083647 1.7013294 0
-8.0053387 3.1324229 0.98617041 0
7.8088231 -3.668401 -0.67842805 0
7.967813 3.3478918 -0.45800906 0
7.746604 -3.672188 1.1968348 0
7.9787116 3.3524177 0.20035642 0
7.9781485 3.3521838 -0.23830098 0
2.7230885 -7.985908 1.9386616 0
-8.0511608 3.18383 0.12667911 0
7.9632349 3.3459909 -0.67981178 0
7.9961085 3.3425243 -0.068570286 0
7.9814024 3.3535349 0.41909444 0
-4.4840107 -7.2783318 1.4392869 0
7.7256241 -3.6815298 1.3845842 0
7.9713769 3.3493719 0.63758135 0
8.0007076 3.3459265 0.18361251 0
7.9959321 3.3423936 0.43568385 0
7.8739142 -3.6421373 0.18219939 0
8.0002337 3.3455756 -0.322227 0
7.6628847 -3.6950607 1.7225399 0
2.6390667 -8.2674685 0.18173663 0
7.8777771 -3.6452601 -0.073373258 0
-8.008441 3.133637 1.186658 0
-8.0724716 3.188477 -0.24095237 0
7.9936123 3.3406775 -0.57615656 0
-8.0630493 3.1864223 0.49293333 0
7.8767929 -3.6444643 -0.32968527 0
7.8733139 -3.6416519 0.43718717 0
-3.9490056 7.5749435 1.5836625 0
2.6392028 -8.269702 0.43770242 0
7.8070483 -3.6675417 1.0754857 0
7.9753156 3.3510075 0.85743266 0
2.6399801 -8.282465 -0.075289696 0
-4.4957728 -7.2642956 1.6104015 0
7.7461081 -3.6717751 1.4539464 0
7.875802 -3.6436632 -0.58747864 0
7.8447995 3.3570902 1.6908839 0
2.7008653 -8.0752153 1.7814691 0
2.640089 -8.2842522 -0.33315188 0
2.639257 -8.2705898 -0.59081954 0
-4.0084543 7.6248064 1.2355516 0
7.9623642 3.3456292 1.0766847 0
-8.0544529 3.1845479 0.85938579 0
7.876369 -3.6441214 0.69267839 0
-8.0779667 3.1896751 -0.61004174 0
7.6290865 -3.7076671 1.9623098 0
-8.0050879 3.1323247 1.3872514 0
7.7940311 -3.6612403 1.2952251 0
2.6393521 -8.2721519 0.69414824 0
-4.4888482 -7.4669662 0.14677492 0
7.7351646 -3.6860759 1.5860941 0
-3.9441006 7.5655346 1.7834547 0
8.0147219 3.3562934 0.68918371 0
7.8730049 -3.641402 0.94865918 0
7.9342413 -3.6283853 0.19912401 0
-4.4991322 -7.4769959 -0.18022558 0
7.9577279 3.343704 1.2982674 0
7.9365993 -3.6294854 -0.24475908 0
-7.9949512 3.1283586 1.5876511 0
2.6976671 -8.0656528 1.9815289 0
-4.4943814 -7.4723625 0.47276002 0
8.0086002 3.3517649 0.94253755 0
7.9316797 -3.6271901 -0.46778017 0
-4.494163 -7.4721494 -0.50756621 0
7.6685576 -3.6979082 1.9511646 0
7.9442635 -3.6330609 -0.022877306 0
7.938715 -3.6304724 0.42036217 0
7.7900519 -3.6593139 1.5183451 0
7.7234702 -3.6805034 1.7862251 0
-4.494122 -7.2879148 1.7690033 0
2.6258557 -8.3400393 0.14736642 0
7.9319224 -3.6273036 0.64156365 0
7.7514362 -3.6762106 1.7153456 0
2.6402256 -8.2864962 0.95274866 0
7.9971261 3.3432767 1.1960932 0
7.8424501 3.3552992 1.9494691 0
2.6256042 -8.3346395 0.47193927 0
7.9344254 -3.6284711 -0.69368088 0
-4.4861293 -7.2524538 1.985105 0
-8.0649548 3.1868379 1.2282767 0
-4.4970636 -7.474978 0.79947412 0
2.6250196 -8.3220768 0.79615438 0
-3.9454958 7.5682111 1.9857582 0
7.8784051 -3.6457675 1.2072896 0
7.9624643 3.3456707 1.523935 0
2.6398096 -8.2796631 1.2113358 0
7.9418302 -3.6319258 0.86466408 0
-4.0163889 7.6357765 1.6107339 0
-8.0036106 3.131747 1.7907764 0
-4.494185 -7.5325427 0.377462 0
-4.4982762 -7.5394001 0.17205048 0
8.0050297 -3.6121576 0.18073535 0
8.007019 -3.6137187 -0.07764107 0
8.0021935 -3.6099317 -0.33638406 0
7.7249069 -3.6811879 1.9888887 0
7.9951272 3.3417985 1.4526982 0
8.0004025 -3.6085255 0.43856198 0
7.7984805 -3.6633942 1.7473865 0
-4.4941492 -7.472136 1.1269646 0
7.8710017 -3.6397827 1.4660269 0
8.0001421 -3.608321 -0.59671605 0
7.9407067 -3.6314018 1.0884032 0
-4.4927197 -7.530087 0.78606033 0
2.6253459 -8.3290882 1.1223929 0
-4.5026851 -7.5467896 0.58148605 0
2.6394088 -8.2730856 1.4717103 0
7.9598222 3.3445737 1.7512032 0
7.7575769 -3.6813214 1.9810493 0
8.0076618 -3.6142242 0.69708401 0
-7.9954605 3.1285579 1.9929067 0
-4.4889994 -7.5238514 0.99001342 0
-8.0691833 3.1877596 1.5993929 0
8.0646458 -3.587574 0.19735093 0
-4.486146 -7.4643307 1.4553041 0
7.7894864 -3.65904 1.9756235 0
8.0034199 -3.6108944 0.95592052 0
7.9437008 -3.6327987 1.314702 0
8.1796112 3.3366659 0.16823077 0
8.1804543 3.3476927 -0.076537937 0
8.1793594 3.3469069 0.18108216 0
8.1781816 3.346061 -0.33483434 0
8.1866665 3.3387907 0.1970838 0
2.638684 -8.2611847 1.7334814 0
8.080409 -3.5946553 -0.25493038 0
8.0075626 3.3509967 1.7154728 0
8.1929703 3.3421154 -0.040104389 0
8.1798382 3.3472497 0.43832815 0
8.1906118 3.3411534 -0.24803615 0
8.0853806 -3.5968888 -0.028812617 0
8.1883926 3.3402479 0.3741051 0
-4.015151 7.6340647 1.9876181 0
7.9274635 -3.6252229 1.5396249 0
8.1865311 3.3394883 -0.45672202 0
8.0771074 -3.5931721 -0.48227704 0
8.1759624 3.3444684 -0.59452605 0
-4.4951735 -7.5341992 1.1947498 0
7.8808436 -3.6477387 1.7312841 0
8.081871 -3.5953124 0.42237872 0
7.9968028 -3.6056998 1.2155948 0
2.625514 -8.3326998 1.4507047 0
8.2037354 3.3455939 -0.029386342 0
8.0763702 -3.5928409 0.64769495 0
8.2058811 3.3464487 -0.25656706 0
8.2014351 3.344677 0.42259374 0
8.1944189 3.3427062 0.58004397 0
8.0834866 -3.5960376 -0.71300864 0
2.5723996 -8.4937372 0.16538274 0
8.1891003 3.3538983 0.69649565 0
-4.4889321 -7.6563115 -0.18645504 0
8.196353 3.3434951 -0.66903985 0
8.2078638 3.3472393 -0.48528057 0
7.976614 3.3515468 1.9876027 0
8.0746784 -3.5920811 0.87378085 0
-4.4795232 -7.4578719 1.7859929 0
8.1312284 -3.5753853 -0.081561029 0
8.2033396 3.3454359 0.64876401 0
2.5730562 -8.4959049 0.37254462 0
-4.4952426 -7.6626444 0.14429334 0
8.1266727 -3.5903225 0.16470402 0
8.1768332 3.3450925 0.95408911 0
-4.4961629 -7.5358577 1.3997847 0
7.9939375 3.3409183 1.9754432 0
8.120595 -3.5876372 -0.46182764 0
8.1286478 -3.5911951 -0.25279593 0
8.1289139 -3.5736215 0.43996358 0
8.1254263 -3.589772 0.37226149 0
2.5719056 -8.4921064 0.57950819 0
-4.4894285 -7.5006962 1.6325526 0
8.2017708 3.345705 0.7860629 0
8.1380606 -3.5805924 0.1792357 0
8.2090683 3.3477192 -0.71598065 0
8.119091 -3.586973 0.57943559 0
-4.4949832 -7.6623845 0.47510028 0
8.1382208 -3.5954242 -0.044644773 0
7.8711643 -3.6399143 1.9952617 0
-4.4951282 -7.6625299 -0.51934081 0
8.0003757 -3.6085041 1.4789673 0
-8.0721245 3.1884012 1.9738005 0
8.0709019 -3.5903842 1.1008418 0
8.1912193 3.3414011 0.99200106 0
8.2034016 3.3454607 0.87573355 0
8.131629 -3.575691 -0.60703522 0
8.144495 -3.5854967 -0.34492391 0
2.5712922 -8.4900808 0.78606325 0
8.1257668 -3.5899222 -0.67419648 0
8.1190596 -3.5869589 0.78606337 0
8.1740456 3.3430912 1.2136362 0
8.1809978 3.3372312 1.1976486 0
2.6255281 -8.333004 1.7815733 0
-4.4925432 -7.659936 0.80612314 0
7.9484491 -3.6350138 1.7758452 0
-8.2508945 3.3844743 0.12250747 0
-8.2537746 3.3851454 -0.25248927 0
8.144742 -3.5856845 0.70185149 0
8.2037888 3.3456147 1.1041418 0
8.1181946 -3.5865767 0.99266863 0
8.1295729 -3.5741236 0.96268249 0
-8.251915 3.3847117 0.49691081 0
-4.5034766 -7.5481162 1.6067314 0
-8.2516918 3.3846602 -0.62862223 0
8.1774044 3.3357656 1.4037293 0
-4.4874902 -7.6548643 1.1377941 0
2.5775135 -8.510623 0.99306959 0
8.0019598 -3.6097476 1.7450969 0
8.0867214 -3.5974913 1.3329704 0
8.2157116 -3.5525033 -0.03412509 0
8.1170959 -3.5860915 1.1994423 0
-4.4938788 -7.5320301 1.8113866 0
8.1775732 3.3456242 1.4764092 0
2.5486929 -8.5824261 -0.35877287 0
8.2068844 3.346849 1.3350085 0
2.5491493 -8.5922279 0.17616017 0
2.575372 -8.5035515 1.1999557 0
8.2279739 -3.5578029 0.19495158 0
2.5493665 -8.5968914 -0.091489971 0
2.5488718 -8.5862665 0.44313568 0
8.2285805 -3.5580647 -0.26550233 0
-8.2595921 3.3865018 0.8722024 0
8.2201385 -3.5544167 -0.49642932 0
8.1379929 -3.5805409 1.2274177 0
8.0766926 -3.5929856 1.5633907 0
8.2310791 -3.5591445 0.42450747 0
8.220499 -3.5545726 0.65379846 0
8.2174263 -3.5532448 -0.72968888 0
8.1830034 3.3380494 1.6112286 0
2.571945 -8.4922361 1.4066367 0
2.5494711 -8.599143 -0.6305123 0
8.1238441 -3.5890725 1.4072093 0
-8.2430553 3.3826468 1.2472463 0
8.3544245 3.3403065 0.17865352 0
-4.4915681 -7.658957 1.4725847 0
8.3565788 3.3418067 -0.083896786 0
2.5496278 -8.6025085 0.71118468 0
8.2724972 -3.5469811 -0.086587667 0
8.1761436 3.3445985 1.7412242 0
8.2678471 -3.5435417 0.44158763 0
8.2717342 -3.5464175 -0.35177302 0
8.2611141 -3.5385611 -0.61701173 0
8.2153645 3.3502285 1.5698036 0
8.2324219 -3.559725 0.88526851 0
2.5490646 -8.5904102 0.97887218 0
8.2820263 -3.5540302 0.17750455 0
8.3641033 3.3470466 -0.34816599 0
2.5720618 -8.4926214 1.6145825 0
8.3640127 3.3469837 0.44095045 0
8.0784969 -3.593796 1.7991827 0
8.3589268 3.3434417 -0.6127969 0
8.146245 -3.5868304 1.495142 0
8.3552494 3.3408806 0.70321184 0
8.2739716 -3.5480716 0.70608377 0
8.3401012 3.3303325 0.96500719 0
8.2287283 -3.5581286 1.1169783 0
8.1993427 3.3438427 1.8023607 0
8.2590313 -3.5370195 0.96979052 0
8.1967001 3.3436365 1.8209369 0
8.1361971 -3.5945303 1.6165706 0
2.5489545 -8.5880432 1.248548 0
8.1233521 -3.5693824 1.7589611 0
-4.4826183 -7.6499753 1.8077408 0
8.1112461 -3.5835068 1.8227056 0
8.2182388 -3.5535955 1.3492289 0
-4.4975586 -7.8600006 0.14180736 0
2.5714798 -8.4906998 1.8231714 0
-4.4912486 -7.8534842 0.47743434 0
-8.2507019 3.3844295 1.6264485 0
-4.5122013 -7.875123 -0.19549072 0
8.2666721 -3.5426724 1.2372606 0
-4.4899483 -7.8521414 0.81321418 0
2.505224 -8.7293015 0.14065979 0
8.4479618 3.3397791 -0.041199148 0
8.4454918 3.3388355 -0.27585387 0
8.3752632 -3.5170903 -0.27592051 0
8.3719273 -3.5157053 0.42647547 0
2.5051389 -8.7266588 0.47869408 0
2.5492258 -8.5938721 1.5216796 0
8.3812675 -3.5195837 0.19274804 0
8.4559364 3.3428261 0.19267964 0
8.4488554 3.3401203 0.42658806 0
-4.5153909 -7.878417 -0.53405803 0
8.4464893 3.3392165 -0.51221722 0
8.368618 3.3501899 1.2336469 0
8.3914766 -3.523823 -0.042020559 0
8.2301235 -3.5587316 1.5879982 0
8.3841076 -3.5207634 -0.51335561 0
8.3963337 -3.5026567 0.44297987 0
8.4049969 -3.5088756 -0.091023624 0
8.404747 -3.5086963 0.17623937 0
8.4506817 3.3408182 0.66075176 0
8.4496393 3.34042 -0.75105608 0
8.3547745 3.3405507 1.4988624 0
8.3890486 -3.5228148 0.66128278 0
8.4124184 -3.5142028 -0.36006051 0
8.272768 -3.5471814 1.5073961 0
-4.4975362 -7.8599772 1.1512125 0
8.3892689 -3.5229061 -0.75287545 0
8.4519386 3.3412983 0.89585757 0
2.5057375 -8.7452412 0.81806892 0
-4.5031409 -7.7717505 1.6598402 0
8.4091301 -3.511843 -0.62976772 0
8.361227 -3.5112617 1.1297135 0
8.4085779 -3.5114467 0.71065474 0
2.5491273 -8.5917568 1.7967134 0
8.3895178 -3.5230095 0.89667082 0
8.2251434 -3.5565796 1.8267 0
8.4458294 3.3389642 1.1315305 0
-8.431654 3.5814273 0.14538693 0
8.3506298 3.3376634 1.76814 0
8.5414371 3.3369434 0.17599456 0
2.5058117 -8.7475481 1.1585643 0
8.2706957 -3.5456488 1.7790945 0
8.5400887 3.3360326 0.44337705 0
-8.4474297 3.5914044 0.11832696 0
8.5470009 3.3407004 -0.3610487 0
8.5531149 3.3448293 -0.092480987 0
-4.5024052 -7.865006 1.4915665 0
-8.4391184 3.5845976 0.57262981 0
8.4492111 3.3402565 1.3703835 0
8.4297905 -3.526674 0.98133159 0
8.4029675 -3.5074193 1.2482364 0
-8.4570627 3.5922198 0.35804909 0
8.5399094 3.3359115 0.71104592 0
-8.4610481 3.5947852 -0.26562142 0
8.384903 -3.5210931 1.3715267 0
-8.4376841 3.5839884 0.78607172 0
8.5494585 3.3423603 -0.63201565 0
-8.4265013 3.5792384 0.99919444 0
2.5055227 -8.7385731 1.4999226 0
-8.4686794 3.5966792 0.50145519 0
8.5376415 -3.4786813 -0.04822433 0
-8.4676476 3.5964231 -0.65132666 0
8.5409698 -3.4840729 0.1409474 0
8.546833 3.3405874 0.98043108 0
8.5459356 -3.4819875 0.19033298 0
8.5446835 -3.4814882 -0.28847611 0
8.5433664 -3.4850502 -0.29256189 0
8.5523939 -3.4781649 -0.096402049 0
8.4043579 -3.5084178 1.5206246 0
8.5421734 -3.4804878 0.42899635 0
8.5454988 -3.4733632 0.44481069 0
8.5455799 -3.4859533 0.3561461 0
8.3854637 -3.5213258 1.612965 0
-8.4632759 3.5953381 0.88514167 0
8.553688 -3.4892607 -0.076467454 0
8.543417 -3.4850712 -0.51088941 0
8.4618797 3.3450968 1.6140801 0
8.5444298 -3.4813871 -0.52976716 0
-4.5049071 -8.0686951 -0.20256519 0
8.5557251 -3.4804852 -0.36859506 0
8.5608339 -3.4840424 0.17426313 0
8.5438185 -3.4852347 0.57127035 0
-4.5042939 -8.0667629 0.35568598 0
-4.4971418 -8.060442 -0.5444755 0
2.4500246 -8.9158611 -0.10798901 0
-4.5031209 -7.8657451 1.8343972 0
8.5415325 -3.4802327 0.66784394 0
-4.5012589 -8.0648174 0.48022342 0
-4.510746 -8.0749006 0.13893497 0
-4.5094614 -8.0760174 0.13916743 0
-8.4431238 3.5862992 1.2133908 0
8.5410376 -3.4841006 -0.73022127 0
8.5490685 -3.4758489 0.71558964 0
8.5544109 -3.4795697 -0.64204562 0
2.45017 -8.9203796 -0.38797855 0
8.5427265 -3.4847894 0.78607339 0
2.4505498 -8.9321651 0.17029873 0
-4.5077648 -8.072979 0.57083082 0
8.5525484 3.3444469 1.2518735 0
2.4503989 -8.9274836 0.44901955 0
2.5053256 -8.7324543 1.8440434 0
8.5447769 -3.4815257 0.90788496 0
8.556983 -3.4863908 -0.77530074 0
-8.4546375 3.593194 1.269554 0
8.4509058 3.3409038 1.8562182 0
8.5379648 -3.4828472 1.0007294 0
8.3806868 -3.5193427 1.8564119 0
-4.5054946 -8.0693188 0.82201016 0
2.4503579 -8.9262133 -0.67016244 0
-8.4414921 3.5856061 1.4275064 0
-4.5098119 -8.0766449 0.7860741 0
8.5328045 -3.4767537 1.1476306 0
8.5550194 -3.4799931 0.98791975 0
2.4505823 -8.933177 0.728297 0
2.4368839 -8.9657946 0.13627696 0
8.4131908 -3.5147579 1.7979436 0
8.5427351 3.3378198 1.5231695 0
2.4375243 -8.9681511 0.353154 0
-4.508812 -8.0748539 1.0013674 0
8.5421677 -3.4845617 1.2158303 0
2.4364321 -8.9641323 0.56982863 0
8.5453625 -3.4732683 1.2600918 0
2.4503741 -8.926712 1.0079329 0
-8.4365158 3.583492 1.6418989 0
-4.5036073 -8.0673132 1.164701 0
8.5431862 -3.4808919 1.3923485 0
-8.4502354 3.5921009 1.6562346 0
-4.5098763 -8.0767603 1.2169964 0
8.7159634 3.3357701 -0.054281682 0
2.4339943 -8.955163 1.0021054 0
2.4396052 -8.9758072 0.78607553 0
8.7164116 3.3359342 0.18846303 0
8.7152262 3.3355007 -0.29785621 0
8.5382462 3.3347886 1.7979008 0
8.7108364 3.333895 -0.54239106 0
2.450361 -8.9263029 1.2895734 0
8.7319107 3.3306077 0.17328721 0
8.5537663 -3.4892926 1.4321687 0
8.7232561 3.338438 0.43106422 0
8.6936026 -3.4397032 0.17278959 0
8.7014084 -3.4366171 -0.055418223 0
8.7403507 3.3361332 -0.10039988 0
8.698822 -3.4432285 -0.10169539 0
8.7154789 3.3355932 0.67365468 0
8.7350044 3.3326328 -0.37435478 0
-4.5009217 -8.0644598 1.5091562 0
-4.4999437 -8.0308132 1.6849719 0
-4.5087547 -8.0747519 1.4328818 0
8.720274 3.3229892 0.71854228 0
8.7105722 3.3337986 -0.78939998 0
8.7040882 -3.4376409 0.18804276 0
8.6995354 -3.4437101 -0.37715179 0
8.7401457 3.3359988 0.44628462 0
8.698555 -3.4430482 0.44671476 0
8.705265 3.3318572 0.91632831 0
8.6893158 -3.4368083 -0.6527369 0
8.5595531 -3.4831498 1.538385 0
8.7101936 -3.4399741 -0.30064505 0
2.4371078 -8.9666185 1.2189237 0
-8.4557543 3.5916641 1.8600495 0
8.547411 -3.4825757 1.6392848 0
8.5460157 -3.4861312 1.6478456 0
8.7059393 -3.4383485 -0.54631972 0
8.7168636 -3.4425228 0.43159601 0
8.6778278 -3.4290507 0.99426013 0
8.6991405 -3.4434435 0.72111553 0
8.7492199 3.3419397 -0.652412 0
8.7137041 -3.4413154 0.67550814 0
2.4506035 -8.9338369 1.5748696 0
8.7102842 -3.4400086 -0.79524887 0
2.4364336 -8.964138 1.435756 0
8.5461721 -3.4738324 1.8144575 0
-4.5127192 -8.081851 1.6503386 0
8.7383137 3.3347991 0.99410081 0
8.7078838 -3.4390912 0.91982871 0
8.5385199 -3.4830735 1.8641039 0
8.7231073 3.3383834 1.1633954 0
8.5437584 -3.4811199 1.8879586 0
-4.5013061 -8.0614119 1.8654345 0
-4.5030041 -8.0666723 1.8574051 0
-4.5057654 -8.2769518 -0.21059799 0
-4.5018845 -8.272707 0.48289135 0
8.6895962 -3.4369981 1.2721786 0
-4.5105062 -8.282136 0.13628565 0
8.7323837 3.3309176 1.2693412 0
8.7054386 -3.4381573 1.1656539 0
8.716464 3.3359537 1.4097936 0
2.4374626 -8.9679241 1.6537824 0
-4.5061088 -8.2773266 -0.55892116 0
2.4505649 -8.9326315 1.8621689 0
-4.6117811 8.2592621 0.12449515 0
-4.5106578 -8.2823019 0.83037794 0
8.7055855 3.3319745 1.6575592 0
-4.6148987 8.2648458 0.3451241 0
-8.6716347 3.8127472 0.11357784 0
-8.6707325 3.8125095 -0.27909613 0
8.8594103 3.3208473 0.56582934 0
-4.6129398 8.2613373 0.56581491 0
8.8761845 3.3271346 -0.098987877 0
8.7183151 -3.4430771 1.4160105 0
-8.6663208 3.8113472 0.50572628 0
8.8741808 3.3263838 -0.32181299 0
8.8492832 -3.4074485 0.17083848 0
2.4390521 -8.973772 1.8731918 0
-8.6614971 3.8100765 -0.67239076 0
8.701335 -3.4449251 1.5534809 0
8.8557243 -3.4116652 -0.10762686 0
8.8869638 3.3311753 0.12231517 0
8.8819265 3.3292871 0.34422061 0
8.8480806 -3.4066613 0.44853646 0
8.8754282 3.3268516 -0.546242 0
8.7538557 3.3449748 1.5516422 0
8.8653488 3.3230731 0.7860803 0
8.8585119 -3.4134905 -0.38726997 0
-8.6621628 3.810252 0.89803171 0
8.8724346 3.3257294 -0.77146208 0
8.8466625 -3.4057329 0.72645926 0
8.8761053 -3.3943458 -0.31284332 0
8.8793888 -3.3955467 0.18543392 0
-4.5144782 -8.2864809 1.1794064 0
-4.6214323 8.2765465 0.7860806 0
8.8542995 -3.4107325 -0.66783303 0
8.710741 -3.4401829 1.6658645 0
8.8855572 -3.3978033 -0.063745648 0
8.7255783 3.3264616 1.8273271 0
8.8794231 -3.3955595 0.43396676 0
8.8349876 -3.3980901 1.0042101 0
8.8777475 -3.3949466 -0.5642131 0
8.7133312 3.3348074 1.912475 0
-4.6174536 8.2694216 1.0065614 0
8.8693218 3.3245625 1.0065778 0
2.3749001 -9.1931658 0.8413651 0
8.937129 3.3283422 0.17029762 0
-8.6513481 3.8074024 1.2908726 0
8.8915806 -3.4000061 0.68348169 0
8.9352379 3.327142 0.4490633 0
-4.5061541 -8.3129349 1.3098512 0
8.7091045 -3.4501722 1.8379761 0
-4.5058751 -8.277071 1.52871 0
8.8777132 -3.3949339 0.93239313 0
8.9497623 3.3363574 -0.10963136 0
8.9437752 3.3325584 -0.38970429 0
-4.6200972 8.2741556 1.2275345 0
8.7067852 -3.4386716 1.9194577 0
8.9299107 3.3237631 0.7277993 0
8.8777676 3.3277285 1.2277352 0
8.8478308 -3.4064977 1.2862837 0
8.9435492 3.3324153 -0.67183495 0
2.3749349 -9.1951122 1.197423 0
8.8826828 -3.3967514 1.1842583 0
-4.6215158 8.2766962 1.4490647 0
2.3427837 -9.298336 -0.12788713 0
2.3428304 -9.3009491 0.16391052 0
2.3427024 -9.2937918 -0.42040294 0
8.9853802 -3.3589532 0.16930021 0
8.8810015 3.3289406 1.4494039 0
8.839921 -3.4013193 1.5679349 0
9.0038757 3.3311327 0.18376657 0
9.000782 3.3300512 -0.32121962 0
8.9481449 3.3353307 1.009557 0
9.0000801 3.3298056 0.43556327 0
8.8723946 -3.3929887 1.4360908 0
8.9912519 -3.3702664 -0.33642507 0
8.9964294 -3.3722072 -0.11097419 0
2.3426578 -9.2912951 -0.71464467 0
9.0116653 3.3338563 -0.068840057 0
-4.5051808 -8.2763119 1.8819839 0
8.9940157 -3.3644321 -0.39490974 0
-4.5076275 -8.3149729 1.7136549 0
9.0022802 -3.3696754 -0.11289084 0
8.9998341 3.3297198 -0.57563078 0
8.8657312 3.3232164 1.6701112 0
9.0029087 -3.3746362 0.11365879 0
8.9969521 -3.3662951 0.45033902 0
-8.6666203 3.8114264 1.6886501 0
-4.5093436 -8.4949188 0.13354021 0
8.9912825 -3.3702779 -0.56362963 0
2.3748553 -9.1906557 1.5550134 0
8.9917917 -3.3704689 0.56254232 0
2.3428333 -9.3011055 0.74743235 0
9.0046015 -3.3752704 0.33812147 0
2.3432162 -9.3225088 0.45586586 0
8.9911633 -3.362623 -0.6787585 0
-4.5132465 -8.4993114 -0.21951711 0
9.0061741 3.3319364 0.68793517 0
8.9892159 3.3260071 0.93954772 0
-4.5104342 -8.4961462 0.48588848 0
-4.6245804 8.2821846 1.6717687 0
8.9956331 -3.3654583 0.73187828 0
8.9446201 3.3330948 1.2913907 0
-4.5100341 -8.4956951 -0.57334298 0
2.3428314 -9.3010035 1.0404341 0
-4.612247 8.2600965 1.8920432 0
8.8717833 -3.392765 1.691958 0
-4.5078406 -8.4932261 0.83849055 0
9.0091953 -3.3769922 0.78608465 0
8.9936123 -3.364176 1.0142679 0
9.0518265 -3.347898 -0.32595062 0
8.8445263 -3.4043348 1.8549626 0
8.9934654 -3.3710964 1.009668 0
9.0584278 -3.3502059 -0.071436256 0
9.0143414 -3.3789215 -0.79636919 0
9.0614109 -3.3512487 0.18270268 0
8.8741999 3.326391 1.8939838 0
8.9960032 3.3283803 1.1945325 0
9.0513449 -3.3477294 -0.58233094 0
2.3746119 -9.1770639 1.9139236 0
8.9454556 3.3336246 1.5761765 0
9.0693245 -3.3540158 0.43684369 0
-4.5013542 -8.4859247 1.1915996 0
9.0562897 -3.3494582 0.69071752 0
8.9940052 -3.3644254 1.2985717 0
9.0037031 -3.3749337 1.234004 0
2.34303 -9.3121004 1.3365997 0
8.9937086 3.3275781 1.4506938 0
9.0534782 -3.3484755 0.94550371 0
8.8747482 -3.3938494 1.9521558 0
8.9317131 3.3249061 1.8608438 0
8.991293 -3.3702822 1.4576449 0
2.342535 -9.2844419 1.6299553 0
9.1423092 3.3202717 0.16733433 0
9.0542583 -3.348748 1.2021098 0
9.1464367 -3.3228085 0.16724977 0
9.148325 -3.3239691 -0.11811444 0
9.1495781 3.3247387 -0.11819145 0
9.1443272 -3.321512 -0.40407556 0
8.9933491 3.3274527 1.7099324 0
9.146944 3.3231208 0.45216066 0
-4.5131364 -8.4991875 1.5495661 0
8.9921246 -3.3705938 1.6827182 0
2.2865126 -9.4790239 0.10413021 0
9.1426582 -3.3204868 -0.69179642 0
9.0107365 -3.3750403 1.5884213 0
9.1573906 3.3295405 -0.40541714 0
-8.8786945 4.0374279 0.1090631 0
9.1582813 -3.3300874 0.45239294 0
9.1481857 3.3238838 -0.6925931 0
-8.8808899 4.0380397 -0.29281962 0
9.1517906 -3.3260992 0.73772764 0
9.057682 -3.3499453 1.4614278 0
-8.8796654 4.0376987 0.51035452 0
2.2894676 -9.4912748 0.33127359 0
-4.5160899 -8.6627188 0.10284901 0
-8.873085 4.0358634 -0.6954273 0
9.1609926 3.3317535 0.73829365 0
2.2890921 -9.4897175 0.55884147 0
2.2861321 -9.4774466 0.78608835 0
9.1432056 3.3208234 1.0233605 0
-4.5191073 -8.6685066 0.33070323 0
-4.5167637 -8.664011 0.55863726 0
2.3428881 -9.3041725 1.9338441 0
8.9970722 -3.3663714 1.8758895 0
-4.5107889 -8.6525507 0.78608859 0
9.0387211 -3.3433158 1.7192754 0
8.9966192 3.3285959 1.9735751 0
-8.8799229 4.0377703 0.91216713 0
9.1629438 -3.3329527 1.0253874 0
-4.5111785 -8.6049414 1.3309137 0
9.1358643 3.3163121 1.3102174 0
-4.5126271 -8.4986143 1.9089286 0
2.2881708 -9.485898 1.0132446 0
-4.5124059 -8.655652 1.0133212 0
-4.5115724 -8.718565 0.13057758 0
9.2446594 -3.3026164 0.17995015 0
9.2370596 -3.3000805 0.43931001 0
9.0188856 -3.3806248 1.9120517 0
9.2485762 -3.3039231 -0.080082476 0
-4.5039234 -8.7097025 -0.58707714 0
-4.5147839 -8.7222853 -0.22836185 0
-8.9289169 4.0988522 0.098965824 0
9.1516857 -3.3260338 1.3124974 0
9.2557659 -3.3063216 -0.34165937 0
-8.9389362 4.1034517 0.32790789 0
2.2900538 -9.4937048 1.2410216 0
9.2541361 -3.305778 -0.60422897 0
-8.9336224 4.1010127 0.55725926 0
-4.5232925 -8.7321444 0.48913556 0
9.0468616 -3.3461618 1.9858629 0
-4.5170259 -8.6645145 1.2412663 0
9.2546978 -3.3059657 0.69982076 0
-8.8896866 4.0404925 1.3163352 0
-8.9289713 4.0988779 0.78609049 0
9.1427603 -3.3205492 1.6015871 0
-4.5159416 -8.7236271 0.84785473 0
9.144701 3.3217423 1.6019479 0
9.2487087 -3.303967 0.96040851 0
9.2940559 3.319097 0.17904122 0
2.2888212 -9.4885941 1.4687381 0
9.3095512 -3.2839482 0.16516435 0
-4.5134454 -8.6576462 1.4689312 0
9.3054371 -3.2815001 -0.41432595 0
9.3010607 3.3214343 -0.082982123 0
-4.5157084 -8.6113968 1.7438743 0
9.3183956 -3.2892101 -0.12479889 0
9.2919197 3.3183846 -0.60911965 0
9.3050089 3.3227515 -0.34620106 0
-8.937644 4.102859 1.0150254 0
9.3150978 -3.2872484 0.45434833 0
2.285928 -9.4766006 1.696291 0
9.3102207 3.3244908 0.44065624 0
-8.9258766 4.0974569 1.2436051 0
9.300025 3.3210886 0.70232493 0
-4.5202842 -8.7286587 1.208668 0
9.3132429 -3.2861445 0.74388474 0
9.3170853 -3.2884305 -0.70808673 0
-8.8803825 4.0378985 1.7212601 0
9.259737 -3.3076468 1.2243539 0
-4.519886 -8.6700001 1.6990025 0
9.1547794 -3.3279355 1.897935 0
-8.919384 4.0944767 1.472484 0
9.157217 3.3294332 1.8984911 0
9.3126297 -3.2857797 1.0344582 0
9.2476482 -3.3036134 1.4875282 0
9.3093243 3.3241913 0.96599913 0
2.286113 -9.4773674 1.9257948 0
-4.8492885 8.499547 1.7567513 0
9.3741684 3.3223937 -0.12820005 0
-4.5161695 -8.7238913 1.5705688 0
9.3806429 3.326246 0.16372043 0
2.2247436 -9.706521 0.15685362 0
9.3798695 3.3257854 -0.42190337 0
9.309783 3.3243444 1.2308319 0
9.3117847 -3.2852767 1.3267295 0
2.2247651 -9.7125216 -0.14952654 0
-4.5196557 -8.6695595 1.9290391 0
9.3829231 3.3276026 0.45572591 0
2.2247615 -9.7115259 0.46263379 0
9.3745213 3.3226035 0.7476216 0
2.2314689 -9.6853733 0.86707902 0
9.4322996 -3.2506208 -0.088372707 0
9.3824291 3.3273084 -0.71742272 0
-8.9376364 4.1028552 1.7043195 0
2.2248011 -9.7226057 -0.4578073 0
9.4312239 -3.2502789 0.44226339 0
9.2568789 -3.3066933 1.7571034 0
2.2247469 -9.7074547 -0.76558554 0
9.4450798 -3.2546823 0.17688286 0
2.2247579 -9.7105608 0.76882386 0
9.3704214 3.3201644 1.0403416 0
9.444437 -3.2544782 -0.35595006 0
-4.5085235 -8.7150316 1.9342889 0
9.3204556 3.3279052 1.4996846 0
9.446661 -3.2551851 -0.62478244 0
9.3183317 -3.2891719 1.6228113 0
-8.9303331 4.099503 1.9348145 0
2.224745 -9.7069283 1.0758357 0
9.4753714 -3.2449012 -0.38474512 0
9.4818821 -3.2464206 0.16289917 0
9.47719 -3.2437184 -0.42562467 0
2.2315071 -9.6960382 1.2411122 0
9.4816504 -3.2470515 0.31922868 0
9.4568415 -3.2584205 0.7091223 0
9.4876003 -3.2497127 -0.13140646 0
9.4916353 -3.2504709 0.084423959 0
-4.5202026 -8.9574537 0.12730381 0
9.442502 -3.2538633 0.97517246 0
9.4683571 -3.2386329 0.74964273 0
9.4932175 -3.2510128 -0.15080941 0
-4.5202484 -8.957509 -0.23793733 0
9.3772688 3.3242385 1.3360856 0
9.4885445 -3.2502558 0.45663503 0
9.4815798 -3.2462461 -0.72290158 0
9.3156595 3.3263049 1.7691483 0
-4.5213709 -8.958847 -0.60466939 0
2.2247412 -9.705842 1.3847876 0
-4.5267549 -8.9652691 0.49227422 0
9.4966974 -3.2522042 -0.62489545 0
-9.1068497 4.2760692 0.10408707 0
-4.5145741 -8.9507408 0.85687447 0
9.4914026 -3.2503912 0.78609639 0
9.3173647 -3.2885969 1.9210222 0
9.5099688 -3.2567492 0.55209279 0
-9.1101742 4.2770476 -0.30782199 0
9.3663826 3.3177617 1.6316671 0
9.4500351 -3.2562575 1.2446172 0
-9.1078339 4.2763586 0.51533085 0
-4.5135775 -8.9053965 1.3526587 0
9.483552 -3.2477024 1.0194507 0
2.2315035 -9.6950769 1.6167575 0
9.4842854 -3.2478039 1.0457411 0
-9.1059074 4.2757921 -0.72079182 0
9.4447002 -3.2545617 1.5147983 0
2.2247519 -9.7088394 1.6969707 0
9.4790077 -3.244765 1.3419372 0
9.4906301 -3.2501268 1.2534072 0
-4.5231347 -8.9609509 1.2243096 0
-9.1331768 4.2838182 0.92847872 0
2.2314606 -9.6830626 1.99382 0
9.486414 -3.2486827 1.4873855 0
9.3809776 3.3264449 1.9354103 0
9.474369 -3.2420948 1.6403741 0
-4.5183854 -8.9124613 1.774473 0
9.5929232 3.310353 0.16066265 0
-9.1070499 4.2761283 1.340296 0
9.4504108 -3.256377 1.7898446 0
9.6037254 3.3165724 -0.13842893 0
-4.5255203 -8.9637966 1.5937501 0
9.6013317 3.3151944 0.45890674 0
9.6024055 3.3158123 -0.43826562 0
9.6482944 -3.2023158 -0.37163502 0
9.6551027 -3.2051079 -0.13789347 0
9.6554565 -3.2044797 0.17363469 0
9.6554737 -3.2053149 0.16061601 0
9.6516209 -3.2033207 0.4456954 0
9.6546774 -3.2048714 0.45876813 0
9.6646709 -3.2072635 -0.099332362 0
9.6471291 -3.2019637 -0.64635921 0
9.4969063 -3.2522759 1.7233715 0
9.6023788 3.3157971 0.75774753 0
9.6271935 3.3125606 -0.37272722 0
9.6469612 -3.2005742 0.75680506 0
9.663868 -3.2099893 -0.43838274 0
9.639101 3.3163452 0.17332928 0
9.6533661 -3.2038481 0.71811354 0
9.6432209 3.3176544 -0.099971414 0
9.6141491 3.3225744 -0.7416842 0
9.4739132 -3.241832 1.9426925 0
9.636364 3.3154752 0.4460206 0
9.6620445 -3.2089741 -0.73992848 0
9.6503077 -3.202924 0.99121904 0
9.4868193 -3.2488215 1.9583597 0
-9.1122627 4.2776623 1.7567406 0
9.6438732 3.317862 -0.65019059 0
9.6490746 -3.2017515 1.0563014 0
9.6092434 3.3197501 1.058356 0
9.670229 3.3116312 0.071226776 0
9.6639595 3.3094845 -0.40804267 0
9.6524811 3.3055534 -0.64803672 0
9.645155 3.318269 0.71947777 0
-4.524919 -8.9630795 1.9658964 0
9.6664038 3.3103213 0.54824823 0
9.6812401 3.3154023 -0.16936004 0
9.6783581 3.314415 0.30954891 0
9.6420031 -3.1978137 1.356512 0
9.6698942 3.3115168 0.78610182 0
9.6500053 3.3198106 0.99422139 0
-4.5138202 -9.1864576 -0.6195997 0
9.6074123 3.3186953 1.3601297 0
9.656847 3.3070486 1.02372 0
-4.5220418 -9.1965532 0.49533403 0
9.66675 -3.2078917 1.268276 0
-4.5333595 -9.2104511 0.12375316 0
-4.5321798 -9.2090034 -0.24849629 0
9.6343918 3.3148487 1.268369 0
2.1207633 -10.048207 -0.1727553 0
2.1220624 -10.054361 0.067430377 0
2.1211786 -10.050174 0.30762005 0
9.6540642 -3.2040589 1.5441043 0
9.6380386 -3.1956065 1.6593035 0
-4.5249634 -9.200141 0.86729735 0
2.1224852 -10.056364 0.54684401 0
9.6102238 3.3203142 1.6652027 0
9.6795149 3.3148115 1.2627134 0
2.1233864 -10.060636 0.78610355 0
9.6447372 3.3181365 1.5480427 0
9.8157902 -3.1527841 0.4607982 0
9.6609411 3.3084507 1.5002928 0
9.8282557 -3.1594937 0.1583547 0
9.8330107 -3.1620529 -0.14498818 0
9.6510992 -3.2031631 1.8240441 0
9.8268528 -3.1587379 -0.44873691 0
2.1240904 -10.06397 1.0255443 0
-4.5330544 -9.2100773 1.2416646 0
9.8260117 -3.1582859 -0.75459898 0
2.1219985 -10.054059 1.2647728 0
9.6074743 3.3187311 1.9726498 0
9.6389217 3.316288 1.8282932 0
9.8589869 -3.1467505 -0.38794595 0
9.6536083 -3.2042763 1.9694905 0
9.6637058 3.3093975 1.7398384 0
9.8713017 -3.1502795 0.17028746 0
9.8738308 -3.1510043 -0.10901564 0
9.8404694 -3.1660678 0.76483214 0
9.8222675 -3.1562703 1.0676813 0
-4.5211782 -9.1954937 1.6153415 0
2.1201375 -10.045241 1.504127 0
9.8757391 -3.1515512 0.44919315 0
-4.5316968 -9.3366776 0.060266554 0
9.866168 -3.1488085 0.7279979 0
2.0944541 -10.168455 0.14878224 0
2.0944567 -10.168226 -0.17343387 0
-4.5319567 -9.3372135 0.3026225 0
2.0945089 -10.163359 0.47052884 0
-4.5331292 -9.2448301 1.3782812 0
-9.3465061 4.5268536 -0.32346505 0
9.8787374 -3.1524105 -0.67192268 0
-9.3527088 4.5287766 0.098703101 0
-4.5320239 -9.3373518 0.54449165 0
2.0944569 -10.168193 -0.49683261 0
9.8512592 3.3143394 0.15670443 0
9.8448925 3.3107936 0.4625684 0
9.8551407 3.3165009 -0.14989284 0
9.8481331 3.3125989 -0.45683485 0
9.8622398 -3.1476827 1.007642 0
-9.3512821 4.5283341 0.52067083 0
9.8376722 3.3067734 -0.76461077 0
2.0944228 -10.171365 0.79299843 0
9.829422 -3.1601212 1.3744744 0
-4.5361505 -9.3458538 0.78610659 0
9.6777687 3.3142133 1.9819605 0
-4.5281348 -9.329339 1.0275136 0
9.8512859 3.3143547 0.76906168 0
9.8573227 -3.1462739 1.2885876 0
-9.3624668 4.5318012 -0.74875712 0
2.1232152 -10.059823 1.7460756 0
2.0944731 -10.166676 1.1160998 0
-9.3613243 4.5314469 0.9436782 0
9.8495569 3.3133914 1.0763774 0
-4.5313282 -9.2420998 1.8089815 0
-4.5320244 -9.3373528 1.2695986 0
2.1206787 -10.047806 1.9865952 0
9.8281059 -3.1594126 1.6829559 0
-4.5350752 -9.2125587 1.997382 0
2.0945561 -10.15896 1.4404817 0
-4.5181351 -9.4369965 0.49856466 0
2.0734038 -10.229644 0.89563316 0
-9.3583698 4.5305314 1.3677819 0
-4.5345201 -9.457716 0.12037426 0
10.015219 -3.1168377 -0.15232083 0
9.880929 -3.1530385 1.5762932 0
9.8568745 3.317466 1.3867095 0
-4.5349579 -9.4582701 -0.25877613 0
10.017393 -3.1179683 0.15577543 0
10.020376 -3.1133769 0.052257001 0
-4.5380955 -9.3498611 1.5129743 0
10.020344 -3.1195023 0.46368265 0
-4.5330276 -9.4558287 -0.63903213 0
10.029176 -3.1161108 0.29688746 0
10.006811 -3.1124666 -0.77159083 0
-4.5244479 -9.321743 1.7535746 0
10.008429 -3.1133072 0.77131975 0
10.029945 -3.1244948 -0.46304196 0
10.041821 -3.1200399 -0.19569743 0
10.031495 -3.1168313 0.5415746 0
9.8418188 3.3090823 1.6962458 0
10.027642 -3.1156344 -0.6898762 0
9.8677406 -3.1492593 1.8614839 0
-4.5356865 -9.4591913 0.87823766 0
2.0944934 -10.164787 1.7692608 0
9.840168 -3.1659052 1.997717 0
9.9954252 3.307193 -0.11744031 0
9.9967327 3.3075879 0.16741177 0
10.050007 -3.1225834 -0.44415689 0
9.9940052 3.3067639 -0.40323108 0
2.0731959 -10.249019 1.2895422 0
10.038707 -3.1190722 0.7861101 0
-4.5226703 -9.4427319 1.2569714 0
10.002218 3.3092453 0.4520883 0
10.015763 -3.117121 1.0810435 0
-9.3545341 4.5293422 1.7941549 0
9.99825 3.3080463 -0.69139612 0
10.083473 -3.0893726 0.45239449 0
10.036064 -3.1182511 1.0307571 0
-4.5279293 -9.3289156 1.9983521 0
10.004292 3.3098719 0.73732579 0
10.079918 -3.0884087 -0.69360662 0
10.105692 -3.0953972 -0.11993796 0
10.106133 -3.0955169 -0.40757036 0
10.113456 -3.0975022 0.16646332 0
2.0733292 -10.2366 1.6833189 0
10.014839 -3.1166408 1.3921019 0
10.031148 -3.1167238 1.2754297 0
10.095217 -3.092557 0.73876923 0
10.085767 -3.0899944 1.0251243 0
10.015897 3.3133781 1.0246319 0
-9.5010338 4.696013 0.29241371 0
-9.5076046 4.6992602 0.044382393 0
9.9956551 3.3072622 1.3104632 0
-4.5310054 -9.4532719 1.6407827 0
10.02882 -3.1160004 1.5205836 0
-9.5062208 4.6985769 0.53926218 0
-4.528028 -9.5613346 0.96357036 0
-5.4448662 9.125946 0.042894602 0
10.101372 3.3064992 -0.16096026 0
10.09361 3.3023217 -0.47524112 0
10.087562 -3.0904813 1.313979 0
10.019802 -3.119221 1.7068169 0
-9.5081596 4.6995349 0.78611279 0
10.107642 3.3098743 0.15281644 0
-5.4480429 9.1312704 0.29079312 0
10.1049 3.308399 0.46652925 0
10.024558 -3.1146762 1.7662346 0
10.199627 -3.0682175 -0.15976813 0
10.100724 3.3061507 0.78032172 0
-5.4538608 9.1410208 0.5383234 0
-5.4471655 9.1297989 0.7861135 0
10.009772 3.3115277 1.6029581 0
10.109182 3.3107035 -0.79408443 0
10.205267 -3.0710475 0.46617237 0
10.215399 -3.076133 0.15302977 0
-9.520443 4.705606 1.0333333 0
10.091753 -3.0916178 1.6058452 0
-4.5316706 -9.5670319 1.4018518 0
10.096305 3.3037722 1.094909 0
-5.4472485 9.1299391 1.0336039 0
10.218447 -3.0776627 -0.47586435 0
-9.5099592 4.7004247 1.2802768 0
10.204542 -3.0706842 -0.79087746 0
10.205885 -3.0713584 0.77953511 0
10.184402 -3.0605762 1.0919318 0
10.002581 3.3093548 1.8954152 0
-5.4503574 9.135149 1.2816459 0
-4.5297046 -9.7063465 -0.26886237 0
-4.5314975 -9.7086821 0.1169512 0
-9.5088682 4.6998849 1.5279448 0
-4.5276675 -9.7036943 0.50233907 0
10.08955 -3.0910201 1.8999749 0
10.185255 -3.0610044 1.4076279 0
10.107525 3.3098114 1.4132533 0
-9.6001682 4.7913265 -0.3403331 0
-4.532835 -9.7104235 -0.65659195 0
-4.5281329 -9.5614996 1.8416566 0
-9.60396 4.792562 0.52627128 0
-5.450449 9.1353025 1.5300975 0
-9.6171646 4.7968626 0.092886358 0
-9.5046577 4.697804 1.7760391 0
-4.5365829 -9.7153053 0.88885432 0
-9.608139 4.7939229 -0.77618766 0
-9.5982456 4.7907004 0.95962709 0
10.33506 -3.0329707 -0.13072869 0
10.33609 -3.0332336 0.16299121 0
10.331949 -3.0321746 -0.42526329 0
-5.4502177 9.1349154 1.7793093 0
-4.5312901 -9.7084122 1.2757701 0
