# .PCD v0.7 - Point Cloud Data file format
VERSION 0.7
FIELDS x y z intensity
SIZE 4 4 4 4
TYPE F F F F
COUNT 1 1 1 1
WIDTH 1406
HEIGHT 1
VIEWPOINT 0 0 0 1 0 0 0
POINTS 1406
DATA ascii
5.0235405 3.2378902 0.24617678 0
5.8254032 1.1842474 -0.66551274 0
5.0279908 3.1751678 -0.65589297 0
5.028758 3.2421081 -0.0092795491 0
5.7557278 1.3100045 0.97788239 0
5.0281301 3.1486113 0.78597933 0
5.8498278 1.1552267 -0.51042342 0
5.0481148 3.1256583 0.75040674 0
5.8807211 1.1095711 -0.055217206 0
5.8221788 1.2090409 0.67912024 0
5.0212975 3.2360771 0.37317291 0
5.7920437 1.2614534 0.82832068 0
5.0328169 3.1789563 0.62551463 0
5.8239884 1.2101173 -0.66562521 0
5.8781056 1.1090776 0.2274648 0
5.0207863 3.2356639 -0.39700896 0
5.0128026 3.2572949 -0.31215602 0
5.866035 1.1341299 0.37388653 0
5.8210144 1.1839644 0.7560398 0
5.032608 3.1584566 0.74662197 0
5.0377541 3.1177619 0.87612098 0
5.0184102 3.2656629 -0.13427731 0
5.8853664 1.0821594 0.24521531 0
5.8522801 1.1566386 0.53096563 0
5.8847413 1.1103296 -0.19842017 0
5.887948 1.1109346 0.085524261 0
5.8793421 1.134797 0.24528095 0
5.8943787 1.082482 -0.014300585 0
5.0201283 3.235132 0.50019479 0
5.8441687 1.1519682 -0.66286439 0
5.0277762 3.1749992 0.75213814 0
5.8789811 1.1092428 0.36756206 0
5.8524714 1.1334499 0.63022888 0
5.0005646 3.2865329 0.37345168 0
5.8960752 1.0825428 0.11552703 0
4.9886513 3.3268409 -0.056865096 0
5.8832474 1.1047208 -0.35921508 0
5.8164377 1.2056248 0.82733661 0
5.890913 1.1089895 -0.20994115 0
5.0127249 3.2571795 -0.49243355 0
5.0077858 3.2925434 0.24578434 0
5.8665042 1.1341534 -0.53936672 0
5.8758402 1.100596 -0.50959069 0
5.0133057 3.2971375 -0.011287779 0
5.8852463 1.1058335 0.38345903 0
5.8708382 1.1343707 0.50266814 0
5.900918 1.0827161 -0.14581689 0
5.0170789 3.2326667 0.62736571 0
5.0129933 3.2968779 -0.1407353 0
5.8973131 1.1125531 -0.06120491 0
5.8068609 1.2350358 0.88379294 0
5.7874804 1.2586489 0.97784007 0
5.0202804 3.2684534 0.3983376 0
5.8520379 1.1564991 0.67905259 0
5.8786888 1.1091876 0.50730073 0
5.8993397 1.0826596 -0.27763832 0
5.911829 1.05146 -0.059751928 0
4.9956985 3.3315403 0.084023416 0
5.027987 3.1517694 0.92189312 0
5.0076694 3.2924464 -0.40203792 0
5.8946896 1.0824932 -0.41021758 0
5.850729 1.1333625 0.75932688 0
5.8816743 1.1038446 0.53094274 0
5.018939 3.301827 0.11703657 0
5.9114914 1.0512786 0.23599648 0
5.0304742 3.2434955 -0.53254408 0
5.0211082 3.235924 -0.66459435 0
5.0162978 3.2996285 -0.2720145 0
4.9911952 3.3473418 0.11660835 0
5.8935642 1.0824529 0.50374132 0
5.9194546 1.0555649 0.087935686 0
5.0152431 3.2311826 0.75523293 0
5.8293457 1.1845016 0.88677293 0
5.007905 3.2926428 0.50161111 0
5.9044142 1.0828413 0.37451741 0
4.9950252 3.3506236 -0.013085216 0
4.9862766 3.3252573 0.50679147 0
5.0008793 3.3349957 0.22474998 0
4.9933133 3.3491566 0.24533974 0
5.8784151 1.1020296 -0.66406322 0
5.9208293 1.0563047 -0.21005642 0
5.0404296 3.1563132 0.92442298 0
5.880044 1.1094433 0.64668417 0
5.8157568 1.20522 0.97729355 0
5.8726897 1.1344635 -0.6773994 0
5.8498545 1.155242 0.82775265 0
4.9935303 3.3606884 -0.14001799 0
5.0115972 3.2957158 -0.53682089 0
5.0047731 3.2900357 0.62971663 0
5.0016427 3.3355045 0.36552688 0
5.9331427 1.0302998 0.11366351 0
5.0370245 3.1822591 0.88227981 0
5.9190202 1.055331 -0.36042798 0
5.000361 3.3551955 -0.14417049 0
5.9133625 1.0298752 0.50469965 0
5.92834 1.0301967 -0.28199178 0
5.9004831 1.0827005 -0.54669446 0
5.9184909 1.0550461 0.38354227 0
4.9942312 3.3617675 0.21995327 0
5.9322414 1.0302805 0.24442334 0
5.0135641 3.2584312 0.75291574 0
5.8521509 1.1334338 0.88991618 0
4.9982362 3.3679335 0.03985551 0
5.9387827 1.0304209 -0.018053532 0
5.0267649 3.2781308 0.5764395 0
5.0010462 3.355783 -0.27590764 0
5.8885951 1.1076987 0.67973197 0
5.9467039 1.0014746 -0.060403854 0
5.9406128 1.0304602 -0.15050524 0
5.01579 3.2316251 0.88452119 0
5.022265 3.2714155 -0.67806464 0
5.929194 1.030215 -0.41663104 0
4.9788318 3.4067485 -0.015237689 0
4.9778352 3.4058695 -0.1461654 0
5.8782277 1.1091007 0.78598076 0
5.9464455 1.0013402 -0.20968056 0
5.0011511 3.3558729 0.37424046 0
5.9182186 1.0548992 0.53139073 0
5.0111089 3.2953095 -0.67261499 0
5.9469986 1.0016274 0.23585394 0
5.9404802 0.99823838 0.38341784 0
5.9446325 0.97684515 0.37517959 0
5.9377308 1.0303984 0.37507254 0
5.0026321 3.357142 -0.4094041 0
4.992919 3.3597476 -0.50426584 0
5.9579072 0.97694016 -0.15253448 0
5.9603586 0.97695774 -0.019874096 0
5.908031 1.0829707 0.6348958 0
5.0008001 3.3718808 -0.32308823 0
5.9460206 0.9768551 -0.41975313 0
5.9114046 1.0512316 -0.66511154 0
4.9980264 3.3330929 0.64613348 0
4.9993305 3.3696182 0.39961016 0
5.8495669 1.1550765 0.97790313 0
5.9113727 1.0512147 0.67910659 0
5.8959265 1.0825374 0.76460361 0
5.8841047 1.1051979 0.82838428 0
5.9637012 0.97698164 0.11210214 0
5.9657788 0.94927257 -0.20700872 0
4.9921227 3.3585222 0.57895637 0
4.999495 3.3544538 -0.54343605 0
5.9506936 1.0035486 -0.36102682 0
5.9602356 1.0085099 0.087199777 0
5.9084682 1.0829864 -0.68638569 0
5.9300194 1.0612514 -0.51515538 0
5.9323711 1.0302832 -0.55370712 0
5.9401369 0.99805981 0.53101301 0
5.0122108 3.2962267 0.76001036 0
5.8729553 1.1081058 0.92510957 0
5.9731526 0.947007 -0.060296476 0
4.9901605 3.4167404 0.11426301 0
5.005228 3.3593659 0.50376016 0
5.9114556 1.0298342 0.7663244 0
4.9883995 3.4151871 -0.28056902 0
4.9946547 3.350306 -0.67875487 0
5.966568 0.97700214 -0.28792554 0
5.0144815 3.2598002 0.93192631 0
5.9248209 1.0301212 -0.69036019 0
5.9779296 0.95120597 -0.064865232 0
5.9696999 0.97702456 0.24378285 0
5.9768109 0.94884294 0.23580971 0
5.0062418 3.2912581 0.88934219 0
5.9822993 0.95190132 0.07784307 0
5.9714971 0.94617611 0.38348654 0
5.95368 1.0051014 -0.51411653 0
5.0041995 3.3584847 0.6335423 0
5.9107027 1.050854 0.82804435 0
5.9391665 1.0304291 0.63748717 0
5.9856615 0.95328492 0.087329879 0
4.9730787 3.4663045 0.036222398 0
5.982995 0.952012 0.22032964 0
5.9491405 0.97687745 0.63829267 0
5.9772639 0.94907039 -0.3608489 0
5.9624624 0.97697276 0.50723296 0
5.9842892 0.95259613 -0.21109557 0
5.9916921 0.92281801 0.11063516 0
4.991745 3.418138 -0.41558599 0
5.8829565 1.1045585 0.97856224 0
4.9945812 3.4206395 0.37489563 0
5.9366474 0.97678804 0.76932406 0
4.9982238 3.3679144 -0.69114792 0
5.9813766 0.95175445 0.36239484 0
4.9799838 3.4077647 0.63477206 0
5.9457836 1.0009959 0.67971313 0
5.9981356 0.8918553 -0.20932287 0
5.9954596 0.92279106 -0.1571455 0
5.001791 3.4269984 0.24433659 0
5.9736438 0.95052403 0.50421047 0
5.9047036 1.0828516 0.89788836 0
4.9753656 3.4753928 -0.15163186 0
5.0083351 3.3399677 0.78598183 0
4.976234 3.4713175 0.21851149 0
4.9764719 3.4763966 0.1127128 0
4.9669518 3.4677548 -0.4184258 0
4.9780493 3.4742019 -0.14765534 0
4.9794493 3.4072933 -0.68569857 0
4.9893274 3.345741 0.89286333 0
4.9908504 3.4173489 -0.55145675 0
4.9724646 3.4653285 0.400765 0
5.9686265 0.97701687 -0.56190068 0
5.977581 0.94922954 -0.51331288 0
5.976109 0.9484908 0.53151 0
5.0042877 3.3585603 0.76420546 0
6.0054064 0.9227199 -0.023815393 0
5.994216 0.92279994 0.37604511 0
6.0011091 0.92275065 0.2432346 0
6.0132027 0.86798108 0.10946679 0
4.9809732 3.4804831 -0.01967904 0
5.9205704 1.0300299 0.90016097 0
4.9781036 3.4778779 0.2440525 0
4.9999366 3.3705513 0.76044691 0
5.956809 1.0067284 -0.66957253 0
4.9780254 3.4778073 -0.28595835 0
6.0118876 0.89851266 0.087366253 0
6.0021887 0.9227429 -0.29356736 0
4.9989738 3.4245138 0.50575292 0
4.97859 3.4750612 -0.33229262 0
6.0136056 0.89934427 -0.061627179 0
4.9766102 3.4765222 0.37531233 0
5.9939394 0.88982397 0.53098869 0
6.0045691 0.89496952 0.38360912 0
5.9636407 0.97698122 -0.70055723 0
5.0024853 3.3360667 0.92595464 0
6.0243783 0.86774111 -0.025543928 0
4.9748821 3.4691699 -0.51732802 0
5.9951434 0.92279333 0.50894576 0
4.9646044 3.4528406 -0.70153534 0
4.9659672 3.5216255 -0.069752753 0
5.9918966 0.92281657 -0.56727326 0
4.9851618 3.4123313 0.76676488 0
4.9671645 3.5224745 0.074124038 0
5.9175053 1.0545156 0.97955555 0
6.021183 0.86780977 -0.29670006 0
6.0192704 0.90208656 0.23550582 0
5.98174 0.95181227 0.64498222 0
4.9729357 3.4731872 -0.55697101 0
4.9661207 3.5217342 0.21754462 0
5.9512501 1.0038383 0.82974547 0
4.9607115 3.5352914 0.11122945 0
5.9807849 0.95083755 0.68044364 0
4.9722147 3.472532 0.63804412 0
4.9970951 3.3661768 0.94165307 0
6.0351086 0.86751074 -0.16211057 0
4.9649868 3.5392854 -0.15600887 0
5.9733686 0.95048028 0.78598267 0
4.9824543 3.4818277 0.50711071 0
4.9791393 3.4759338 0.58377397 0
5.9962349 0.92278552 0.64241302 0
6.0149975 0.92265123 -0.43316114 0
6.0415015 0.84532887 0.087161019 0
6.0343819 0.86752635 0.24264008 0
4.9646053 3.5389295 0.2435039 0
5.9895306 0.95522684 -0.67089045 0
6.0289545 0.86764288 0.3766652 0
6.0243578 0.9045493 -0.36442143 0
4.96171 3.5362246 0.37582695 0
6.0170684 0.90102047 -0.51605403 0
6.037796 0.84360009 -0.36219972 0
4.9759107 3.4758873 -0.69724822 0
4.9694099 3.4699862 0.77004421 0
4.9866457 3.4136403 0.89959866 0
6.0068512 0.89607459 -0.66843891 0
5.9980841 0.92277229 -0.70978653 0
4.9399023 3.5904715 0.24319799 0
6.0341296 0.86753178 -0.43703318 0
5.9664354 0.949377 0.92662263 0
4.9758782 3.5494606 -0.023439288 0
6.0085578 0.89690071 0.68053657 0
4.9612141 3.5357611 0.50820661 0
6.0536633 0.85100287 -0.062976927 0
4.9799471 3.5315394 0.35900939 0
5.9970617 0.92277962 0.77674222 0
6.037014 0.84323531 -0.51473397 0
5.954133 1.0053372 0.98104089 0
6.0546246 0.85145146 -0.21345776 0
5.9862309 0.95357066 0.83076233 0
4.9779811 3.4740932 0.76704413 0
6.0682654 0.78783435 0.07063967 0
4.9762063 3.5497673 -0.29346728 0
4.9642835 3.5204315 0.64431131 0
6.0559297 0.85206038 0.23530272 0
4.94805 3.5983045 -0.15948439 0
6.0275917 0.83883947 -0.66709131 0
4.9722338 3.546056 -0.42949182 0
6.0670643 0.8113364 -0.16623008 0
6.0519562 0.85020667 0.38402078 0
4.9521236 3.6022205 -0.025106043 0
4.9613843 3.5906017 0.03100729 0
6.071022 0.81119478 -0.029764742 0
6.0664039 0.81136006 0.24205327 0
5.9784307 0.97708702 0.90920442 0
6.04247 0.86735266 0.5114674 0
5.9871387 0.92285061 0.91058373 0
6.0392404 0.86742198 -0.57838553 0
4.9618282 3.5913298 0.21686304 0
6.0743685 0.81107497 0.10617709 0
4.9831996 3.5338459 0.50140584 0
6.0780816 0.79513818 -0.062884659 0
6.0653148 0.81139904 0.37732774 0
4.9651413 3.5394299 0.64155376 0
4.9573059 3.6072028 0.10876653 0
4.9708862 3.4628212 0.9499169 0
6.0706501 0.81120807 -0.30478853 0
6.077704 0.7890597 -0.221452 0
6.0813704 0.7895357 -0.076005936 0
4.9612837 3.535826 -0.70524514 0
6.0779853 0.79509491 -0.21318501 0
4.9508767 3.601022 0.37646776 0
4.9591179 3.5868838 0.40244609 0
6.0774436 0.7948516 0.23537698 0
4.9729266 3.5467031 -0.5684672 0
4.9746337 3.4747283 0.90463281 0
4.9666491 3.5992382 -0.15642983 0
4.9624214 3.5923035 -0.34348518 0
6.0400429 0.86740482 0.64631474 0
6.0662441 0.81136578 -0.44358563 0
4.9501958 3.6003675 -0.43364465 0
6.0134106 0.89924973 0.83080655 0
6.0547509 0.85151035 0.53300524 0
6.0828815 0.78973192 0.21326667 0
6.0621352 0.81151283 0.51258141 0
6.0928488 0.75449866 -0.031885564 0
6.0868979 0.79909855 0.086006477 0
4.9311657 3.6585305 -0.027233064 0
6.0365171 0.86748052 -0.72029579 0
6.0796204 0.78930855 0.3572202 0
5.9888887 0.95490474 0.98230898 0
4.9576645 3.5845006 0.58801824 0
6.0641479 0.81144083 -0.58450353 0
4.9631772 3.6128478 -0.29884219 0
4.9723096 3.5261233 0.78598404 0
6.0973415 0.75427341 -0.17024508 0
6.0347462 0.86751854 0.78146601 0
6.08395 0.79777437 -0.3658247 0
6.0736279 0.79313737 -0.517151 0
4.9618444 3.591357 -0.53269267 0
4.9515166 3.574415 -0.72028553 0
6.104476 0.74014658 -0.06305775 0
6.0527015 0.85055417 0.68228412 0
4.9566393 3.6065619 0.51058507 0
4.9691782 3.5432017 0.77611327 0
4.9387398 3.6660242 -0.16447154 0
6.0893612 0.80020541 0.38425109 0
6.108911 0.74206322 0.0861561 0
6.0238247 0.86775303 0.91651863 0
6.066329 0.81136274 0.64875394 0
6.0838089 0.78985232 0.50020337 0
6.0686817 0.79091555 0.68138313 0
4.9386673 3.6659522 -0.30193555 0
6.1029568 0.73949009 -0.36485702 0
4.9312458 3.6892803 0.027384818 0
6.0836229 0.79762751 0.53320539 0
4.9411926 3.6684501 0.24223152 0
6.1050529 0.75388676 -0.31062222 0
6.0964093 0.75432014 -0.44991988 0
6.1095343 0.75366211 0.24125788 0
6.1114101 0.74314314 0.23519841 0
6.0637412 0.81145537 -0.72801745 0
4.9548759 3.604867 0.64484012 0
6.0780935 0.7891103 0.6433056 0
6.0474062 0.84808367 0.83187973 0
4.9699388 3.524442 0.92781794 0
6.1053076 0.75387406 0.37806827 0
6.1168976 0.75329292 0.10382025 0
4.9619765 3.6116934 -0.57695353 0
4.933248 3.692673 0.21560265 0
4.9415617 3.6688159 0.3771776 0
6.0983315 0.75422376 0.51460552 0
4.9660587 3.5402873 0.9106679 0
4.9345884 3.6949437 -0.16216755 0
6.1014776 0.73885089 -0.51784968 0
4.954421 3.6044297 -0.7165556 0
4.9511685 3.6783199 0.10639448 0
6.119978 0.74684554 -0.21551436 0
6.0811453 0.79651445 -0.67426503 0
4.9414039 3.6686594 -0.44168961 0
6.1300631 0.69610345 0.1029599 0
6.1135511 0.74406832 0.38424233 0
6.02493 0.90482634 0.98392212 0
4.9269743 3.7108908 0.21007496 0
6.0690536 0.81126523 0.78587449 0
4.9615746 3.5909135 0.77497685 0
4.9399147 3.667186 0.51217586 0
6.1319675 0.68553573 -0.21393311 0
4.9321003 3.7147515 0.064170659 0
4.9341373 3.7162857 -0.082285821 0
4.9348459 3.6953814 0.40385225 0
4.9368758 3.6988204 -0.35308766 0
6.1396675 0.69548398 -0.03627044 0
6.140357 0.68901974 -0.064203262 0
6.0427866 0.84592861 0.982472 0
6.0795884 0.78930444 0.78598499 0
4.9260855 3.7320139 0.10532899 0
6.0736046 0.79312688 0.83199537 0
6.1381607 0.69558114 0.24070099 0
6.0933347 0.75447428 -0.73659527 0
6.1425104 0.68991393 0.235061 0
6.1181059 0.74603659 0.53376889 0
4.9542398 3.5788825 0.96095526 0
6.105947 0.75384194 0.65243292 0
4.9297328 3.7357271 -0.16975361 0
4.9457793 3.6729884 -0.58415687 0
6.0659218 0.81137729 0.92343915 0
6.1475925 0.69497287 -0.17682177 0
4.9646759 3.6142888 0.78171623 0
6.1410751 0.68931764 -0.36731601 0
6.1083603 0.74182504 0.68282795 0
4.9378576 3.6651511 -0.72473824 0
4.9525275 3.6026092 0.91590238 0
6.1417856 0.69534731 0.37876242 0
4.9267836 3.7327249 0.37778574 0
6.1555614 0.63745815 0.2403255 0
4.9371252 3.6992428 -0.54533249 0
6.1539001 0.69464356 0.08495459 0
4.9403377 3.7209556 0.35343021 0
4.9323983 3.7149758 0.49833888 0
6.1446791 0.69081444 0.38438001 0
4.922287 3.7281466 0.51378691 0
6.1215382 0.75306028 -0.59831983 0
4.9345965 3.7406788 0.24141969 0
4.9371004 3.6992004 0.59261888 0
4.9385047 3.7446573 -0.033024073 0
6.1383071 0.68816835 -0.52059823 0
6.1515398 0.69471824 -0.31850934 0
6.0803809 0.78940725 0.92871833 0
6.1662178 0.63661754 -0.17961526 0
4.9510493 3.6782022 0.64908016 0
6.1198306 0.746782 -0.67780805 0
6.1463742 0.69505143 -0.46027565 0
4.928092 3.7117326 0.64236575 0
4.9312162 3.7372377 -0.44973487 0
6.1073818 0.75376999 0.79087943 0
4.9405041 3.7466929 -0.31119984 0
6.1403627 0.6954391 -0.60341996 0
6.1483569 0.69492352 0.51740086 0
6.1683474 0.63644958 -0.32182449 0
6.1088772 0.74204856 0.83342957 0
4.912673 3.7987936 -0.034854531 0
6.1782598 0.63566762 -0.040012509 0
4.9464626 3.6736641 0.78520536 0
4.9363399 3.697912 -0.73935449 0
4.924612 3.7305138 0.6506896 0
4.9340534 3.6940372 0.78147548 0
6.1811457 0.63943201 -0.065873623 0
6.1304584 0.69607794 -0.74742174 0
6.1534948 0.69447511 0.5344224 0
6.1846447 0.62313384 0.059330523 0
6.085495 0.79846841 0.98549306 0
6.1412044 0.68937153 -0.67718101 0
6.1841869 0.64064413 0.084550947 0
4.9128942 3.7990253 -0.31411248 0
6.1850748 0.63513005 0.099855691 0
6.1817555 0.63967484 -0.21747333 0
4.9337673 3.7398345 -0.59313172 0
6.1880875 0.62348074 -0.088233829 0
4.928669 3.712167 0.78598613 0
6.1464157 0.69504875 0.65626216 0
4.9182663 3.8046534 -0.17485422 0
4.9132214 3.7993679 0.37845674 0
4.9148417 3.8160326 0.022071421 0
6.132308 0.69595861 0.79434121 0
6.1787882 0.63849205 0.38458726 0
6.1075735 0.7537604 0.93042195 0
6.1738987 0.63601166 -0.46643287 0
6.189486 0.62362164 0.20515627 0
6.1872067 0.64184755 0.23465458 0
4.9149985 3.8163073 -0.17049 0
4.9215059 3.8080471 0.24073383 0
4.916409 3.8187778 0.21384653 0
6.1540575 0.694709 0.68490118 0
4.913775 3.8141649 -0.36391199 0
4.9044905 3.7979047 0.59623456 0
6.1878014 0.63491499 0.37963903 0
6.1877227 0.64205331 -0.37133819 0
4.9484034 3.6755846 0.92350483 0
6.191855 0.62386036 0.35074934 0
6.1988783 0.62456793 -0.23814213 0
6.1809845 0.63545275 0.51932931 0
4.9155607 3.8018186 0.51631552 0
4.9345551 3.7406363 -0.73844159 0
6.112875 0.74377614 0.98596829 0
4.9308758 3.8178637 0.10192204 0
6.1991749 0.58054942 -0.36948597 0
6.2093353 0.58443171 0.084394321 0
6.1751952 0.63590938 -0.61242402 0
6.1449285 0.69091803 0.8350563 0
4.9216833 3.808233 -0.45835996 0
6.1841574 0.64063209 0.53484738 0
4.917532 3.8207448 0.40559301 0
6.2095366 0.5845086 0.23465538 0
6.1866779 0.64163691 -0.52589846 0
6.1735582 0.63640755 -0.67949116 0
6.2162886 0.58708853 -0.067072749 0
4.9366798 3.6984885 0.97244036 0
6.2135549 0.57491767 0.2392233 0
6.1940284 0.62407929 0.4959892 0
6.1367292 0.69567347 0.93555874 0
6.215302 0.58671147 -0.21894598 0
6.183012 0.62296939 0.64132434 0
6.22157 0.57416987 0.097676039 0
6.2223387 0.57409811 -0.044316798 0
4.9157853 3.8176854 -0.55985963 0
4.9398298 3.7460065 0.79092288 0
4.9267182 3.7326581 0.92748398 0
6.2125726 0.57500935 0.38015953 0
6.2216001 0.57416701 -0.18704814 0
6.1802959 0.63909322 0.6851936 0
4.9061728 3.8746691 0.10064107 0
4.9219952 3.8085599 -0.60263979 0
4.939383 3.7202368 0.92993617 0
4.9022751 3.8704672 -0.32120085 0
6.219718 0.57434267 -0.33077478 0
6.2326212 0.52743357 -0.066583246 0
6.1718473 0.63617349 0.7997086 0
6.2073655 0.58367902 -0.52554822 0
6.1404977 0.68907803 0.98661709 0
6.2073703 0.58368093 0.53489548 0
6.2181392 0.58779556 0.3849054 0
6.1913996 0.63463116 0.66056573 0
4.9081945 3.8768489 0.24001843 0
4.9096222 3.8783884 -0.18072057 0
4.8902106 3.9080124 0.054191291 0
4.9169559 3.8032806 -0.74722016 0
6.2170768 0.57458907 -0.47581917 0
6.2154269 0.57474303 0.52140069 0
6.2413306 0.5306192 0.083811417 0
6.2390056 0.52976888 -0.21922338 0
6.1856089 0.62323099 0.7859875 0
4.8941698 3.9111762 0.20103294 0
4.9293714 3.8162873 0.6563704 0
6.1796808 0.63884789 0.83659911 0
6.1894999 0.634781 -0.76437604 0
6.1923265 0.57689828 0.80283821 0
6.2504206 0.51282424 -0.047297597 0
6.210247 0.57522631 0.66265434 0
4.9201622 3.889751 -0.041099191 0
6.2151861 0.57476544 -0.62283361 0
4.9097648 3.8785417 -0.46672577 0
4.9072065 3.8757837 0.51883864 0
6.2478724 0.53301209 0.23434341 0
4.9022651 3.9176459 -0.096095741 0
4.9240408 3.8107028 0.79528111 0
6.2127557 0.58573848 -0.68366808 0
6.1749563 0.63592821 0.94227457 0
6.2349586 0.52828854 -0.52680135 0
6.2584162 0.51196265 0.095428541 0
6.2569656 0.51211894 -0.1921308 0
6.1713896 0.63554329 0.98795342 0
6.2485299 0.53325254 0.38506883 0
6.2496881 0.53367621 -0.37437981 0
4.9209924 3.8268044 0.79094756 0
4.9077988 3.8764219 -0.61180419 0
4.890204 3.9422281 -0.18489674 0
6.2518158 0.51267391 0.38094991 0
4.9207668 3.890403 0.3797043 0
4.8949585 3.9118066 0.49409819 0
4.8932762 3.945637 -0.043120474 0
4.9034524 3.9185946 0.34699687 0
4.8884006 3.940227 -0.32787234 0
4.8960056 3.9444172 0.016688019 0
6.2587028 0.47134346 -0.37239921 0
4.9072657 3.8758476 0.65884018 0
4.8942013 3.9466631 0.098279804 0
4.8968573 3.8646262 0.7978158 0
6.2641058 0.51134956 0.23823434 0
6.2062511 0.58325332 0.83715636 0
4.919445 3.8058887 0.93501526 0
6.1893091 0.62360382 0.93079817 0
4.9267654 3.8369143 -0.76178765 0
4.9021873 3.8703723 -0.7576009 0
6.2261848 0.59086961 0.68739963 0
4.8970747 3.9463537 0.21207009 0
6.2507234 0.51279163 0.52356601 0
6.2645364 0.51130319 -0.33883655 0
6.2727685 0.47626132 0.23426785 0
6.2221589 0.57411492 -0.77448928 0
4.8927889 3.9450965 0.38007933 0
4.8980956 3.9509842 0.23918234 0
6.2820535 0.4513596 0.049713016 0
6.2809882 0.47913522 0.082763121 0
6.2410698 0.53052396 -0.68532652 0
6.2617078 0.51160794 -0.48567581 0
4.8920059 3.9442272 -0.47381949 0
4.8897882 3.9417667 0.52077478 0
6.2843575 0.48031324 -0.069456875 0
4.8894453 3.9325368 0.60200083 0
6.1997347 0.58076352 0.98898095 0
6.2597384 0.53735226 0.53661585 0
4.8991385 3.9500911 0.40740445 0
4.9188752 3.823097 0.98457491 0
6.2852664 0.48063105 -0.22253984 0
6.2902002 0.45194492 0.19716704 0
6.2915192 0.44896448 -0.19723177 0
4.9062276 3.9208124 0.63978714 0
6.2980537 0.4481656 0.092982799 0
6.2584281 0.5119614 0.66740221 0
6.298851 0.44806814 -0.052154332 0
6.2991157 0.45258549 -0.1017161 0
6.2760487 0.47740811 -0.53099108 0
6.2954426 0.45232159 -0.25152171 0
6.2918963 0.45206681 0.34481323 0
4.8770905 4.0147634 0.096207157 0
4.8779888 4.01579 -0.0468207 0
6.2588458 0.53702587 0.68842626 0
6.2788563 0.47838992 0.53651857 0
6.2669826 0.51103961 -0.63620365 0
6.2421026 0.53090161 0.83902836 0
6.2223034 0.57410145 0.95058608 0
4.8964987 3.9492123 -0.62244636 0
6.2482686 0.51305616 0.81045681 0
6.2973857 0.44824725 -0.34514648 0
6.3044634 0.42163509 0.23405254 0
6.2937121 0.48358387 0.38551944 0
4.8956614 3.9482834 0.66283214 0
4.9022613 3.9176428 0.78598917 0
4.8804302 4.0185781 -0.19110835 0
6.3053336 0.44727558 0.23739162 0
6.290287 0.45195118 0.49221295 0
4.9088264 3.8775299 0.94212657 0
6.2999911 0.44792873 0.38191447 0
6.3129878 0.42447919 -0.070248067 0
6.272501 0.47616786 0.68775797 0
6.2959495 0.44842291 -0.49369144 0
6.2937069 0.44869703 0.52618772 0
4.8762741 4.0138311 -0.48190349 0
4.8812284 4.0194893 0.38091612 0
4.8943939 3.9468768 -0.77132094 0
6.2655759 0.51119113 -0.78775132 0
6.3181815 0.42621201 -0.2242043 0
6.281476 0.47930568 -0.69012779 0
4.897191 3.9135907 0.93192202 0
4.8882117 4.0274639 0.23829889 0
6.3243484 0.42826957 0.081474483 0
4.8861189 4.025074 -0.33767915 0
4.8785133 4.0163884 0.52330607 0
6.3049431 0.42179507 -0.5328114 0
6.317266 0.4259066 -0.3788504 0
4.8987527 3.9493921 0.79934651 0
6.3069205 0.42245489 0.53696269 0
6.3284397 0.38427389 0.23685037 0
4.8982425 3.9511473 0.80577105 0
6.333539 0.38357621 -0.055888891 0
6.3202634 0.42690665 0.38563821 0
6.2486024 0.53327912 0.99359679 0
6.3010755 0.4527263 0.63892949 0
6.2757301 0.47729689 0.84069949 0
6.3014812 0.44774657 -0.64578581 0
6.299634 0.44797242 0.67162335 0
6.3001351 0.42019087 0.68846267 0
6.3393946 0.38277513 0.090393886 0
4.8739543 4.0730567 0.011314332 0
6.3007073 0.42038184 -0.68993163 0
6.3421297 0.38240087 -0.20444453 0
4.882791 4.0212736 -0.63278234 0
4.8660693 4.0917883 0.093528599 0
6.3364873 0.36672956 0.38558218 0
6.3365669 0.38316202 0.38269284 0
4.8677425 4.0937552 -0.051398873 0
4.8653555 4.0909491 0.23772065 0
6.3506813 0.37124068 0.081087872 0
6.2975936 0.45247614 0.78599024 0
4.8728127 4.0709176 0.40903875 0
4.884551 4.023284 0.6670922 0
6.3493323 0.37081188 -0.22573447 0
6.3330379 0.38364482 -0.50245863 0
4.878705 4.0819588 0.21014282 0
6.2718444 0.51051569 0.95940071 0
6.3452005 0.38198078 -0.35400528 0
4.896544 3.9453924 0.99632549 0
6.3455935 0.36962372 -0.38035578 0
6.2721872 0.47605819 0.99406183 0
6.3571787 0.37330562 -0.07253769 0
4.8718061 4.0985322 -0.19784844 0
6.303369 0.44751579 -0.79976118 0
4.8683252 4.0625091 0.60745913 0
6.33674 0.3831383 0.52886575 0
6.3029294 0.44756949 0.81804317 0
4.8611865 4.1187859 0.041156113 0
4.8678741 4.0939093 0.38174722 0
6.3043337 0.42159182 0.8418119 0
6.2895699 0.45189965 0.93278253 0
6.3421359 0.36852473 -0.53647876 0
4.8723431 4.0991631 -0.34513706 0
4.9072285 3.9611173 0.95172656 0
6.3631377 0.37519938 0.23332974 0
4.8606782 4.1183553 0.34043127 0
4.8845901 4.0233278 0.81128359 0
4.8868575 4.0259175 -0.78581345 0
6.347589 0.37025791 0.53814209 0
4.8689318 4.0951529 -0.49293786 0
4.8558855 4.1142945 0.48951223 0
6.2941313 0.44864511 0.96402723 0
6.3749299 0.31682128 0.088057503 0
6.3754034 0.31349105 0.080746353 0
4.8698993 4.1261683 0.19002962 0
6.3416228 0.36836165 -0.69519401 0
6.3720384 0.31247443 -0.38167673 0
4.8738823 4.1009722 0.52650332 0
6.3466501 0.38178241 -0.65808409 0
6.38412 0.31612462 -0.073308051 0
6.3745732 0.31687534 -0.3600809 0
6.3845429 0.31536567 -0.061156869 0
4.8817186 4.0200496 0.95602137 0
4.8501558 4.1652074 -0.2024141 0
6.3854518 0.31522804 -0.210886 0
6.3502073 0.3812958 0.67676079 0
6.3857574 0.31661934 -0.22803652 0
4.8467932 4.1611381 0.38241005 0
6.387403 0.31493264 0.235659 0
6.3879566 0.31728357 0.23321524 0
4.8725452 4.0704165 0.80755818 0
4.8731976 4.1001673 -0.64512396 0
6.3731527 0.31709045 -0.51202202 0
6.3536286 0.3721773 0.69161183 0
4.8719225 4.0986691 0.67136329 0
4.855649 4.1718554 0.09066388 0
4.8637424 4.1209517 0.63759279 0
4.8528295 4.1684427 -0.35156 0
4.8659668 4.0916672 -0.79549325 0
6.3881812 0.31481475 0.38375476 0
4.8567748 4.1732178 0.23671645 0
6.4027829 0.27571705 -0.11483681 0
6.39253 0.31866544 0.38626817 0
6.4065223 0.2758781 0.036364675 0
6.3821707 0.3155356 -0.54086262 0
4.868444 4.0945797 0.81661129 0
6.3493285 0.38141602 0.82473665 0
6.322753 0.4277373 0.99916661 0
4.8512592 4.166543 0.52837497 0
4.8443794 4.158217 -0.65111935 0
6.4031739 0.27573392 0.33775291 0
6.3876014 0.3171764 0.53932148 0
6.3890967 0.31467617 0.53209341 0
6.4098988 0.25833482 0.23313835 0
4.854495 4.1704588 -0.50235218 0
6.4093976 0.2760019 -0.26855934 0
4.8680463 4.1868582 -0.057657927 0
6.4159122 0.26005822 -0.074591339 0
6.4161167 0.26011676 0.079489261 0
6.3373456 0.38305545 0.97214961 0
4.8613892 4.0862865 0.96185952 0
6.4187207 0.24819034 0.085226908 0
6.3828683 0.31561929 -0.66853917 0
6.4172902 0.27634177 0.18626285 0
6.3823786 0.31569338 0.68036538 0
4.8537574 4.2117362 0.0053695142 0
6.417634 0.26055163 -0.22984743 0
4.8533788 4.2110019 0.20835337 0
4.8683467 4.1248527 0.78599215 0
6.3832216 0.31585306 -0.70077848 0
4.8490553 4.2026124 0.41088194 0
6.362926 0.37513214 0.84688586 0
6.3851218 0.31642729 0.69279963 0
4.8558583 4.1142716 0.93415058 0
6.4292235 0.24644589 -0.06596306 0
6.4108887 0.27606612 0.4870767 0
4.856061 4.1723537 0.67541176 0
4.8453846 4.1954913 0.61307275 0
6.4230247 0.2474755 0.38453972 0
6.4304209 0.24624699 0.23472941 0
4.8395119 4.2473173 0.088131234 0
6.376194 0.31372982 0.84620982 0
6.431396 0.24608505 -0.2177887 0
4.8402348 4.2482181 -0.060284168 0
4.8377328 4.245101 0.23595338 0
6.4130864 0.25924832 0.53974557 0
6.4250402 0.26267403 0.3865366 0
6.4155536 0.24871647 0.53400481 0
6.3814735 0.31583047 0.82979196 0
6.4056406 0.27584013 0.63673794 0
4.8424749 4.2510099 -0.20998788 0
4.8513508 4.1666532 0.82204437 0
6.4306374 0.26427799 -0.38842499 0
6.4340739 0.24564028 -0.37115747 0
6.4210882 0.26154155 -0.5451563 0
6.4098492 0.24966395 0.68364477 0
6.4254174 0.24707806 -0.52418959 0
6.4119344 0.25891823 0.69362926 0
4.8426542 4.1901937 0.81562388 0
6.4492898 0.20397335 -0.23172557 0
6.4137807 0.25944728 -0.70386958 0
4.8455448 4.2548356 -0.36144191 0
6.4562135 0.20585066 0.078228951 0
4.8456335 4.2549453 0.38366699 0
6.4467726 0.20329088 -0.38829219 0
4.8411813 4.2493978 -0.5126164 0
6.4103518 0.276043 0.78599316 0
6.4609351 0.20713097 -0.077141881 0
6.4259782 0.24698496 -0.68085343 0
6.4657111 0.17739707 0.082166329 0
6.4624052 0.2075296 0.2324937 0
6.4553657 0.20562083 0.38677901 0
4.8389053 4.246562 -0.66613722 0
6.4670982 0.17714626 0.23389247 0
6.391439 0.31432146 0.98218262 0
6.4140425 0.25952238 0.84878868 0
4.8408175 4.2489448 0.67976576 0
6.4754682 0.1455285 0.07805863 0
6.4654293 0.17744803 -0.37789673 0
6.4730392 0.17607188 -0.22429597 0
6.4534721 0.20510739 0.54102224 0
6.453279 0.20505506 -0.54823446 0
4.8594074 4.176404 0.97259569 0
4.8253756 4.3276186 -0.064926714 0
4.8236732 4.3307362 0.028176188 0
4.8535833 4.264852 0.53244704 0
6.4591241 0.17858827 -0.5329206 0
6.4842339 0.17404747 -0.071787685 0
6.4817772 0.14714271 0.23243529 0
6.4635582 0.17778641 0.53711903 0
4.8265505 4.3333197 0.18036819 0
6.4487305 0.2038216 0.69543552 0
6.4159789 0.27628532 0.93548948 0
4.8227038 4.3298655 0.33271164 0
6.4768744 0.14588827 0.3868764 0
6.4321933 0.19933778 0.84895062 0
6.4322896 0.24593663 0.83729994 0
4.8194132 4.3293018 0.41262108 0
6.4786072 0.17506498 0.3857117 0
4.8255615 4.327857 0.38444793 0
4.8269119 4.344378 -0.00019672513 0
4.8206382 4.3215389 -0.52113879 0
6.4938178 0.1502232 -0.078655332 0
4.8203936 4.3277917 0.4842236 0
4.8343382 4.3391199 0.0845256 0
4.8334293 4.337954 -0.21767265 0
4.8293762 4.3327518 -0.36953336 0
4.8276277 4.3458161 0.206457 0
4.8339672 4.338644 0.23471339 0
6.4594326 0.20672351 -0.71075261 0
6.4898977 0.14922029 -0.39271528 0
4.8469644 4.2566042 0.83026862 0
6.4249754 0.24715143 0.98909676 0
6.5008826 0.15203065 -0.23622644 0
6.5028396 0.10681725 -0.22946501 0
6.4858208 0.14817709 0.54190141 0
4.8212214 4.3222866 0.68373537 0
6.506669 0.10606802 0.23298416 0
4.8304873 4.3341784 0.53454614 0
6.473309 0.1449762 0.69620329 0
6.4728231 0.17611098 -0.69430614 0
6.4738555 0.1759243 0.690265 0
4.8263812 4.3331676 0.63500381 0
4.8247333 4.3399973 0.6193403 0
6.4964266 0.15089053 -0.55366236 0
4.8453822 4.2546325 0.98080075 0
6.5214057 0.10318464 -0.076130658 0
6.5214024 0.1031853 0.078578487 0
6.5235672 0.093588032 0.023300707 0
6.5224967 0.093572676 -0.13092124 0
6.5183859 0.093513705 -0.28560579 0
6.5239129 0.093592994 0.17680305 0
6.4703388 0.17656022 0.84335905 0
6.5189853 0.093522303 0.33002457 0
4.832202 4.3363781 -0.68144202 0
6.524251 0.0922032 0.23194677 0
4.8100986 4.4090037 0.23399299 0
6.5283418 0.09318763 0.076030061 0
6.5248322 0.092343152 -0.23731488 0
6.518785 0.10369736 -0.38836271 0
4.8135881 4.4136167 0.082091093 0
6.5192099 0.090990126 -0.39499921 0
6.5200806 0.10344386 0.38665441 0
4.8081532 4.4064326 0.38535076 0
6.5335503 0.094440997 -0.080853373 0
4.8276443 4.334301 0.78599519 0
6.4949656 0.15051681 -0.71537936 0
4.8148446 4.415278 -0.22381359 0
4.8181491 4.4196458 -0.070927918 0
4.8282013 4.331244 0.83602822 0
4.8134899 4.4134874 -0.37814379 0
6.5176153 0.090606272 -0.55483663 0
6.5309739 0.093821108 0.38757396 0
6.5248981 0.093607128 0.48201436 0
6.4870954 0.14850324 0.85387909 0
6.5210838 0.10324764 -0.54746598 0
6.5075898 0.088193715 0.69791734 0
4.8265848 4.3437195 0.82697201 0
4.8010149 4.396996 0.6878432 0
6.5234532 0.092011273 0.54310644 0
6.523613 0.1027528 0.54093957 0
6.4685616 0.17688161 0.99780089 0
4.7912645 4.4657383 -0.005091548 0
6.5109572 0.10522902 -0.70598567 0
4.8133812 4.413343 0.53729093 0
6.5148978 0.10445797 0.69495052 0
6.5238705 0.093592383 0.63411146 0
4.8252392 4.3274431 0.98786741 0
4.8166199 4.4176245 -0.53547764 0
4.7935295 4.4704599 0.20476335 0
6.5582829 0.034525096 0.075199738 0
6.5585666 0.030858994 0.075915247 0
6.5199862 0.091176808 -0.7176851 0
6.5595446 0.030653 -0.08066377 0
6.557538 0.034357131 0.23161009 0
4.8327451 4.338881 0.937186 0
6.5600829 0.030539751 0.23180804 0
4.8119936 4.4115086 -0.69235873 0
6.568594 0.03685075 -0.082695544 0
6.5660682 0.029279411 -0.23896831 0
6.5661674 0.03630352 -0.24069583 0
6.5252128 0.093611643 0.78599632 0
6.5617948 0.035317183 -0.39956635 0
6.552844 0.032063901 -0.5562703 0
6.5243993 0.10259891 0.85156244 0
4.7939081 4.4918394 -0.38624078 0
4.8005991 4.5009522 0.078827858 0
4.8113737 4.4106898 0.8425073 0
6.569304 0.02859813 -0.39857173 0
6.5575857 0.034367859 -0.55992192 0
6.5714784 0.037501454 0.38803938 0
6.5265479 0.092755973 0.85693157 0
6.5719752 0.028035641 0.38780412 0
6.5206695 0.093546465 0.93780661 0
4.8051286 4.5071211 -0.076383621 0
6.5884824 -0.024559796 -0.083251029 0
4.8034782 4.4912 0.4150382 0
4.8036394 4.5050926 0.23271552 0
6.5694184 0.037036836 0.54479855 0
6.5537148 0.033494711 -0.72224581 0
4.8016028 4.5023189 0.38662446 0
4.8060327 4.5083523 -0.23233038 0
4.7950568 4.4934034 -0.54478377 0
6.5720248 0.02802515 0.54420555 0
4.7995243 4.4829569 0.62549245 0
6.5612845 0.035202146 0.70143998 0
6.5959873 -0.022979617 0.23116758 0
6.5630293 0.029919326 -0.72122788 0
6.6043997 -0.044927001 -0.085906833 0
6.5680294 0.02886641 0.70082241 0
4.8023357 4.5033169 0.54072589 0
6.6054792 -0.020980895 0.073402748 0
6.6055088 -0.045177102 0.072662577 0
6.601738 -0.044326663 -0.24517304 0
4.7869291 4.5524187 0.16920388 0
6.6044297 -0.021201909 -0.24378181 0
6.5983124 -0.022490025 0.38827392 0
6.5538907 0.033534408 0.85855061 0
4.7714348 4.568676 0.23214564 0
4.8160887 4.4169226 0.99822605 0
4.7906351 4.5559425 0.013147533 0
6.5888648 -0.024479389 0.54510742 0
6.5996094 -0.022216976 -0.40347683 0
4.7857361 4.5512838 0.32410356 0
6.6086273 -0.045880556 0.23069593 0
6.590085 -0.024222374 -0.56366789 0
4.7974639 4.4786615 0.83646172 0
4.8004522 4.5007524 0.69509238 0
4.7766666 4.5760198 -0.23694962 0
6.5635157 0.029816926 0.85804802 0
4.8033061 4.5046387 -0.70840013 0
4.7750854 4.5738001 -0.39501226 0
6.5846033 -0.025376618 -0.72631788 0
6.6137066 -0.047026217 0.38879499 0
4.7862911 4.589529 0.075505853 0
6.6308212 -0.08177644 0.072735354 0
4.784224 4.5498457 0.63230443 0
4.7876697 4.5914645 -0.081467658 0
6.6229324 -0.049107194 -0.40949285 0
6.6315422 -0.081635356 0.23076315 0
6.5806885 -0.02620101 0.86020285 0
4.7979484 4.5628977 0.47756213 0
4.7839289 4.5862131 0.38763022 0
6.6392045 -0.095246986 0.0097844005 0
6.6169605 -0.047760129 -0.57175308 0
4.8048296 4.5067134 0.85148078 0
4.7799072 4.5805683 -0.55678689 0
6.6308231 -0.081776023 -0.40644425 0
6.6434221 -0.095307492 -0.14791715 0
4.7825708 4.5843077 0.54355818 0
4.7715998 4.6280909 -0.012350351 0
6.6398935 -0.095256872 -0.30557787 0
6.6103921 -0.019946456 0.70460993 0
6.6464252 -0.095350571 0.16536653 0
6.6490331 -0.078213096 -0.087508351 0
6.6278429 -0.050214827 0.54793733 0
6.6117578 -0.046586633 -0.73598278 0
4.7874475 4.5529113 0.78599858 0
4.7782283 4.5782118 0.69944406 0
6.6429024 -0.079412699 0.38883892 0
6.6532898 -0.07738024 -0.24828821 0
6.6568766 -0.12411898 -0.091951013 0
6.6432152 -0.095304526 0.47650558 0
6.6253247 -0.049646795 0.70718354 0
4.7803206 4.546134 0.93956721 0
4.782876 4.5847359 -0.7206198 0
6.6564045 -0.095493734 0.32041669 0
6.6407771 -0.079828501 -0.57117313 0
6.6361032 -0.095202491 0.63150179 0
6.6446466 -0.079071403 0.54740298 0
6.666316 -0.12639064 0.068592712 0
6.6538429 -0.12338895 -0.41693169 0
4.7800536 4.6463814 0.20208541 0
6.6339707 -0.081160188 0.70556557 0
6.6310396 -0.081733704 -0.73423457 0
6.670229 -0.14041215 0.071274161 0
6.6685576 -0.12693006 -0.25546592 0
6.6622958 -0.12542313 0.38993162 0
4.7783298 4.6426525 0.41724291 0
4.7644949 4.6704855 0.23076048 0
4.7615399 4.6662092 0.38854879 0
6.6736927 -0.12816578 0.22926378 0
4.7821102 4.5836606 0.85750151 0
6.6226878 -0.049052 0.86721003 0
6.6674514 -0.1409145 0.38906145 0
6.6784849 -0.13891917 -0.089058101 0
4.7733908 4.6319666 0.6319741 0
6.6251006 -0.082895696 0.86416143 0
4.7701826 4.6787157 0.07216455 0
6.6790047 -0.13882512 0.23013364 0
6.6788239 -0.1388579 -0.24997294 0
4.7729254 4.6826849 -0.08725974 0
6.6661 -0.12633866 0.55079567 0
6.6455956 -0.095338665 0.78599972 0
6.6660209 -0.12631959 -0.58450723 0
6.6793075 -0.1387704 -0.41232109 0
4.7637129 4.669353 -0.5691061 0
6.6716142 -0.14016163 0.54819965 0
4.7757998 4.6868439 -0.24802756 0
6.6898198 -0.20316184 0.23013958 0
4.7717443 4.6809754 -0.40860397 0
4.7667375 4.6737304 0.54691786 0
6.6721244 -0.14006937 -0.57499522 0
4.7708693 4.6265106 0.84717315 0
6.6348939 -0.095185138 0.94046921 0
6.6988454 -0.20166272 -0.089875042 0
6.6992698 -0.20159221 -0.25113004 0
6.7029071 -0.2037167 0.22845113 0
6.6673002 -0.12662739 -0.75266612 0
6.6965756 -0.20203972 -0.4133032 0
4.7673988 4.6746869 0.70580924 0
6.6760798 -0.13935405 0.70824432 0
6.7120438 -0.20605427 0.065260902 0
6.6582561 -0.12445098 0.8735649 0
6.6603723 -0.14219469 0.86707062 0
6.7177815 -0.1985175 0.069339097 0
6.6827354 -0.13034183 0.713678 0
6.6813407 -0.1384027 -0.74322701 0
6.7216911 -0.2085225 -0.099233747 0
6.7125449 -0.19938725 0.38966256 0
4.773222 4.6831131 -0.73793173 0
4.7497959 4.7648196 0.069035023 0
6.7202682 -0.20815843 -0.26403117 0
6.703064 -0.20375687 0.55365336 0
4.7431083 4.777245 -0.00097519159 0
4.7412963 4.77633 0.20029905 0
6.7186542 -0.20774537 0.39123261 0
4.7527819 4.7692757 -0.092531353 0
6.7053547 -0.2043429 -0.59558183 0
4.7401552 4.7742705 0.31547624 0
4.7520843 4.7682338 0.22947179 0
6.7193604 -0.20792621 -0.43022907 0
6.7121382 -0.19945484 0.54976112 0
4.7489996 4.7636309 -0.41740024 0
6.7123938 -0.19941241 -0.58073628 0
4.7555084 4.773344 -0.2554065 0
4.773674 4.6837683 0.86696851 0
6.6998124 -0.20150214 -0.74493909 0
4.7449131 4.7575326 -0.58122063 0
6.7303839 -0.26299751 -0.41707808 0
6.7084956 -0.20005983 0.71013093 0
4.7558904 4.7739139 0.39004758 0
4.751091 4.7983427 -0.020032436 0
6.7439094 -0.26094949 0.22936524 0
6.7135067 -0.20642859 0.71789467 0
4.7524824 4.7688279 0.55061787 0
4.7587395 4.7929883 0.15537673 0
6.7508497 -0.25989854 -0.093569845 0
4.7429199 4.7770548 0.62929535 0
4.7494125 4.7945704 0.41944945 0
4.7531819 4.7873912 0.47174078 0
6.7560015 -0.28713745 -0.10388896 0
6.7163668 -0.20716017 -0.76813996 0
6.7365875 -0.26205814 0.55051219 0
6.7617126 -0.25825363 0.067556038 0
6.7082047 -0.20010817 0.87164211 0
4.7513847 4.76719 0.7117117 0
6.7643061 -0.29128501 -0.0054894686 0
4.7257385 4.8484344 0.22855654 0
4.7527628 4.7692466 -0.75171435 0
6.7537394 -0.29082999 0.4711006 0
6.7688909 -0.29148245 0.15341389 0
6.7686553 -0.29147229 -0.16630226 0
6.7611904 -0.25833273 0.39033985 0
6.7683673 -0.25724602 -0.25843793 0
6.7698641 -0.29152435 0.31209406 0
6.7722139 -0.29153341 -0.2728073 0
6.7782364 -0.29316634 0.060743079 0
6.7239656 -0.20910436 0.88389975 0
6.7399158 -0.26155418 -0.75190961 0
6.7568626 -0.25898802 -0.58745778 0
4.7533169 4.8033457 0.63971943 0
6.7799563 -0.29363269 0.2267507 0
6.7479334 -0.26034015 0.71271181 0
6.7739511 -0.29200441 0.39254072 0
4.7532735 4.7874832 0.78600258 0
4.7361293 4.8644304 -0.26343131 0
6.7869453 -0.32154453 0.066720292 0
6.7807918 -0.2919949 -0.32965505 0
6.7660127 -0.28985184 0.55799317 0
6.7746968 -0.29220659 -0.44210559 0
6.7892852 -0.32122433 -0.096132904 0
4.7574658 4.7762647 0.87523818 0
4.7408619 4.8717165 0.06461668 0
6.7710743 -0.32371587 0.55184025 0
4.7424111 4.8741012 -0.099686742 0
6.7805204 -0.32242352 -0.42359531 0
6.7888699 -0.32128119 -0.25980818 0
4.7367854 4.8654404 0.39119744 0
6.7663941 -0.29137492 0.62834251 0
4.7490859 4.7938371 0.85971832 0
6.7737508 -0.29195017 -0.61277711 0
4.750237 4.7844253 0.9429512 0
6.7967286 -0.32020599 0.22860022 0
4.739275 4.8692732 -0.43051839 0
6.7483754 -0.26027316 0.87535536 0
6.7655773 -0.28973395 0.72415698 0
6.7613535 -0.29115787 0.78600317 0
6.7816024 -0.32227546 -0.59046292 0
4.7380199 4.8673406 0.55450988 0
6.7999735 -0.31976205 0.39085698 0
4.7379589 4.8672471 -0.59827745 0
6.7677717 -0.29032892 -0.78450859 0
4.7039518 4.9387202 -0.26898783 0
6.7811255 -0.32234073 0.7148124 0
6.7798438 -0.32251602 -0.75902617 0
4.7280827 4.8520432 0.88101768 0
4.738811 4.8685589 0.7185086 0
6.8216043 -0.37631851 0.057383209 0
6.8217773 -0.38413525 -0.098245054 0
6.8226962 -0.37663144 -0.11161277 0
6.8199348 -0.37584013 0.22569306 0
6.8243303 -0.38382304 0.065196455 0
4.7139091 4.9545403 0.061720684 0
6.8245878 -0.38379163 0.22826052 0
4.7137737 4.9543252 -0.10425025 0
6.767827 -0.29143661 0.94369781 0
6.8184018 -0.37540084 0.39367911 0
6.775732 -0.29248732 0.89265484 0
4.7190208 4.9522886 -0.026754856 0
6.8257241 -0.38365269 -0.26331216 0
4.7412148 4.8722587 -0.77009714 0
6.8283992 -0.37826592 -0.28231311 0
4.711401 4.9505558 0.39221042 0
4.7157636 4.9574866 0.22704664 0
4.7167387 4.9469552 0.42165923 0
6.8241725 -0.37705451 -0.45326364 0
4.7224722 4.9603543 0.19748639 0
4.7147169 4.9558234 -0.43997216 0
6.8311219 -0.38299274 -0.43031126 0
6.822124 -0.37646753 0.56204516 0
6.8070974 -0.37216133 0.72959316 0
4.7128153 4.9528022 0.55757171 0
6.8229232 -0.38399512 -0.59688735 0
6.795785 -0.32033509 0.88006514 0
6.8400559 -0.38190049 0.39141148 0
4.6963391 5.0097203 0.1448608 0
6.8365464 -0.38232952 0.55484855 0
6.8216143 -0.38415515 0.71763074 0
4.7180142 4.9610629 -0.61155266 0
4.721158 4.9572835 0.64643961 0
4.7138462 4.9544406 0.72366226 0
6.8620853 -0.44691259 -0.10112101 0
6.8381829 -0.3810696 -0.62949455 0
6.8261023 -0.38360643 -0.76780581 0
6.866468 -0.44644034 0.06337747 0
6.8650255 -0.44659579 -0.2672233 0
4.7153435 4.9568191 -0.78332698 0
6.8582773 -0.44732291 -0.43342012 0
4.7102828 5.0245943 -0.019118011 0
4.705883 5.0199013 0.30478057 0
4.7162986 4.9459267 0.8707667 0
6.8651524 -0.44658208 0.39171773 0
6.8768392 -0.4649877 -0.11833975 0
6.875073 -0.46445411 0.22433302 0
6.8265123 -0.37772506 0.90147209 0
4.6998062 5.0134187 0.62603605 0
4.6941433 5.0522194 -0.2802009 0
4.7099462 5.0242352 0.46520239 0
6.8856926 -0.44436872 0.22732171 0
4.7179379 4.9609418 0.89161175 0
6.8770986 -0.46506613 0.39510393 0
6.8828573 -0.46680599 -0.29179746 0
4.6985226 5.0594034 0.057473361 0
6.8692799 -0.44613731 0.55617076 0
6.8393521 -0.38198656 0.88439792 0
4.6978498 5.0583 0.22571534 0
6.8922286 -0.46963722 0.052451521 0
6.8919334 -0.49517888 -0.021749377 0
6.8908353 -0.49509996 -0.18508756 0
4.7017703 5.0647311 -0.11190879 0
6.8874645 -0.49485779 0.30307007 0
6.8935151 -0.49529254 0.14070827 0
6.8741126 -0.46416384 0.56595671 0
4.6987286 5.059741 0.39371416 0
6.8615265 -0.4603613 0.73634028 0
6.8847308 -0.46737188 -0.46650422 0
6.8659067 -0.44650084 0.72085732 0
6.8776054 -0.44524014 -0.60608703 0
6.9002895 -0.51084501 0.22718424 0
4.701107 5.0636435 -0.45335454 0
6.8664336 -0.44644403 -0.77539885 0
6.8790092 -0.46564335 -0.64174956 0
6.9077721 -0.51014686 0.061557561 0
6.9029751 -0.51059449 -0.27107364 0
4.6991234 5.0603895 0.56198716 0
6.9022083 -0.49591711 -0.35150146 0
4.7087612 5.0229712 0.78600657 0
6.9009495 -0.51078343 0.39222735 0
6.8895187 -0.4950054 0.62521267 0
6.866683 -0.44641715 0.88682801 0
6.9186378 -0.5091331 -0.10549957 0
6.9049177 -0.49611181 0.4635253 0
4.6871238 5.1163597 0.19521388 0
4.7041674 5.0180707 0.94612515 0
4.7054768 5.0708108 -0.6284048 0
6.9019127 -0.51069355 -0.60951567 0
6.9157009 -0.50940716 -0.44148618 0
6.9074435 -0.51017755 0.55782515 0
4.6923761 5.1291366 -0.034761667 0
4.7040758 5.0685124 0.73169631 0
6.8952665 -0.49541837 0.78600734 0
4.6840458 5.1088715 0.65301341 0
6.8878102 -0.46830231 0.91183275 0
6.9415984 -0.55904204 0.048592895 0
6.9404907 -0.57554162 -0.10690612 0
4.6927719 5.1300998 0.42444545 0
6.937017 -0.55758601 -0.30144954 0
6.9032245 -0.51057118 -0.78236938 0
6.9395742 -0.57561386 0.22659801 0
6.9106393 -0.50987941 0.72419679 0
6.9457355 -0.56035691 -0.1265676 0
4.7041245 5.068593 0.90195554 0
4.6800623 5.1636496 -0.29104483 0
4.6831255 5.1688399 -0.11888081 0
6.9547601 -0.57441604 0.059392929 0
6.9527187 -0.56257623 0.22253135 0
6.9462748 -0.56052822 0.39675063 0
6.9000154 -0.49575958 0.94704717 0
6.9464335 -0.56057876 -0.48020977 0
6.951488 -0.57467413 0.39301062 0
6.941926 -0.55914623 0.57082516 0
4.684576 5.1101627 0.88294375 0
6.9507313 -0.57473385 -0.4461267 0
4.6886048 5.1781249 0.22400467 0
4.6853542 5.172617 0.3952837 0
6.9157472 -0.50940287 0.89204872 0
6.930656 -0.55556446 0.74458331 0
6.9639463 -0.57369137 -0.27786809 0
4.679091 5.1620035 -0.64096802 0
4.6957922 5.1903043 0.051663786 0
6.9427123 -0.57536638 0.72650111 0
6.9507213 -0.56194144 -0.66060621 0
4.6909289 5.1820631 -0.46860981 0
4.6874099 5.1761003 0.56687188 0
4.6793818 5.1624966 0.73763645 0
6.9621334 -0.57383442 0.5603947 0
6.9574842 -0.57420111 -0.61921936 0
6.9789257 -0.64135569 0.058380544 0
6.9452405 -0.57516694 -0.79075503 0
6.9850049 -0.6486941 0.044974715 0
6.9858065 -0.64091194 -0.11045173 0
6.9942012 -0.65176255 -0.13307613 0
4.6793098 5.1623745 0.91026306 0
6.9445248 -0.55997211 0.92181677 0
6.9880986 -0.64076412 0.39356554 0
6.9977813 -0.64013958 0.22566512 0
6.9791722 -0.64133978 0.56103241 0
6.989953 -0.65034515 0.39796114 0
6.9881959 -0.6407578 -0.4512977 0
6.9789653 -0.6466791 0.57409167 0
4.6625156 5.2687383 -0.036455452 0
6.9555249 -0.57435566 0.89623088 0
7.0028934 -0.63980985 -0.28205758 0
7.0011907 -0.65409452 -0.31261176 0
4.6651745 5.2717428 0.12873691 0
4.6629586 5.2749124 -0.12602088 0
4.6610894 5.2716389 -0.30134267 0
4.6579723 5.2636042 0.45859259 0
7.0098052 -0.65696877 0.2210736 0
4.6659279 5.2801127 0.048379034 0
4.6658511 5.2725077 0.29360837 0
4.6644859 5.2775869 0.22271457 0
4.6559558 5.2931719 -0.042023122 0
6.9834895 -0.64106131 0.72964865 0
4.6554632 5.2919235 0.19257766 0
6.9940257 -0.64038181 -0.62538451 0
6.9787669 -0.64136595 -0.79738271 0
7.0061879 -0.65576178 -0.49387777 0
7.0199704 -0.70729709 -0.03879106 0
4.6588669 5.2646155 0.6223588 0
4.6646857 5.2779374 -0.47965574 0
6.991652 -0.65091187 0.75224102 0
7.0235629 -0.70765907 -0.20624149 0
4.65909 5.268137 -0.65685809 0
4.6690979 5.2856641 0.39684778 0
4.6635036 5.2758675 0.57076478 0
7.0300946 -0.70831716 0.12629628 0
7.0314035 -0.70744359 0.055832893 0
7.0043049 -0.65513355 -0.67612022 0
4.6590309 5.3009672 0.42699206 0
4.6523609 5.2840576 0.66090965 0
6.9849143 -0.64096946 0.89924544 0
7.0305095 -0.70835894 0.29182264 0
7.0317874 -0.7074244 -0.28512454 0
7.0275226 -0.70763814 0.39418578 0
7.0291142 -0.7082184 -0.37528348 0
7.0386109 -0.70708227 -0.1147328 0
7.0254831 -0.70785254 0.45708513 0
4.6623363 5.2738228 0.74531114 0
7.0309963 -0.70746404 -0.45746118 0
4.6665063 5.2732482 0.78601104 0
6.9951701 -0.65208584 0.93123251 0
7.0486903 -0.70657694 0.22484428 0
7.0328031 -0.70737344 0.56364059 0
4.6577687 5.2633743 0.94962412 0
7.0359559 -0.70721537 -0.63277835 0
7.0600705 -0.75152415 0.039509624 0
7.0610886 -0.75188011 0.2196909 0
4.6397991 5.3804278 -0.13307807 0
7.0593085 -0.75125784 -0.32322156 0
7.0441942 -0.70973778 0.62120008 0
7.0303993 -0.70834786 0.7860117 0
4.667623 5.2830811 0.92236054 0
4.6424103 5.3851566 0.04418236 0
7.0604401 -0.75165337 0.39969712 0
7.070013 -0.75500041 -0.14227277 0
7.0415053 -0.70693713 0.73438638 0
4.6592927 5.3016319 0.89765632 0
4.6394043 5.3797121 0.39802542 0
4.6456251 5.3909788 0.22114995 0
7.0691829 -0.77546406 0.39486152 0
7.0244694 -0.70775038 0.95036227 0
7.0663033 -0.7537033 -0.50790298 0
7.0862455 -0.77485335 0.053112984 0
4.6433578 5.3868723 -0.49304587 0
7.0833392 -0.77495736 0.22429127 0
4.6488643 5.3968444 -0.31401241 0
7.0371609 -0.70715493 0.90518522 0
7.0820851 -0.77500224 -0.29093862 0
4.6412301 5.383019 0.57508969 0
7.0758271 -0.77522624 -0.46409458 0
7.0719843 -0.75568956 0.58055186 0
7.0947595 -0.77454853 -0.11938742 0
4.637125 5.3755841 0.75199401 0
4.6410699 5.3827291 -0.6745652 0
7.0683446 -0.754417 -0.69413912 0
7.0839729 -0.77493465 0.56616783 0
7.0726829 -0.75593382 0.76192021 0
7.0832181 -0.77496171 -0.64139169 0
7.058167 -0.7508586 0.94247305 0
7.0824313 -0.77498984 0.73770815 0
4.6213379 5.4732461 -0.050173312 0
7.1126914 -0.84437287 -0.1207808 0
4.6212063 5.472899 0.18984619 0
4.618701 5.4662704 0.42943013 0
7.1170635 -0.84427899 0.22373746 0
7.1234388 -0.84414208 0.051268458 0
7.1203237 -0.84420896 -0.29538864 0
4.6454391 5.3906412 0.93254238 0
7.1273837 -0.85471255 -0.149937 0
7.1220012 -0.8527438 -0.33466643 0
7.0815673 -0.77502078 0.91027504 0
4.6209111 5.4988823 -0.14139771 0
7.1341872 -0.85720104 0.033986926 0
7.1209965 -0.84419453 -0.47093332 0
4.621233 5.499485 0.21968853 0
7.1260533 -0.84408593 0.39581951 0
7.1263981 -0.85435206 0.40138495 0
7.1197162 -0.85190815 -0.52110732 0
7.1110544 -0.84440798 -0.64641404 0
4.6255207 5.5075202 0.038968682 0
7.1210451 -0.84419346 0.5680061 0
7.1424007 -0.86020535 0.21771766 0
7.1239576 -0.85345942 0.58484226 0
4.6253738 5.5072451 -0.32454973 0
4.6150641 5.5267925 0.11373192 0
4.6244817 5.4815636 0.6700393 0
4.626514 5.5093813 0.39990729 0
4.6158299 5.52771 0.28235793 0
4.6236362 5.5039892 0.58022159 0
4.6133947 5.5247931 0.45072401 0
4.6274066 5.511054 -0.50912648 0
7.1558433 -0.91448694 0.049623102 0
7.1263156 -0.8543219 0.76923752 0
7.1323175 -0.85651714 -0.71253204 0
7.1579704 -0.91447175 0.22304103 0
7.1331091 -0.84393442 0.74196756 0
-5.3795452 -4.8188748 -0.13597408 0
7.1610003 -0.91445005 -0.30025935 0
-5.2111979 -5.0041881 0.16234753 0
4.6150637 5.526792 0.61839992 0
7.1194234 -0.84422827 0.91467816 0
-5.036963 -5.1821642 -0.12936696 0
7.1556983 -0.91448796 -0.47626978 0
7.1706185 -0.91438121 -0.1257607 0
4.6277065 5.5116167 -0.69534421 0
7.1703591 -0.93091762 -0.059246659 0
4.6071901 5.5173631 0.78601521 0
-5.387423 -4.8228993 0.16110829 0
-5.1297369 -5.0969048 0.16280246 0
4.6260037 5.5084252 0.76174402 0
7.1199193 -0.8519823 0.95379424 0
-4.9525476 -5.2712398 0.16393457 0
-5.3056388 -4.9174666 -0.1349211 0
-5.295701 -4.912209 -0.43155938 0
