# .PCD v0.7 - Point Cloud Data file format
VERSION 0.7
FIELDS x y z intensity
SIZE 4 4 4 4
TYPE F F F F
COUNT 1 1 1 1
WIDTH 1418
HEIGHT 1
VIEWPOINT 0 0 0 1 0 0 0
POINTS 1418
DATA ascii
5.8834615 3.1784058 0.50776815 0
5.860631 3.2427127 0.3434422 0
6.4953542 -1.3503995 -0.98893023 0
6.6045833 0.77598673 -0.87768245 0
5.8543453 3.235153 -0.50345498 0
6.0457501 2.2326415 1.8596497 0
5.92764 2.8483386 1.3207493 0
6.5757236 0.84624022 1.0191705 0
6.6209054 0.75531226 -0.76719987 0
5.2252979 -4.0884562 -0.98825288 0
6.0162239 2.423789 1.7112856 0
5.8525867 3.2284267 0.57414079 0
5.8933783 3.0228412 1.0675879 0
-0.6289475 -6.6056995 -0.99023664 0
5.8543735 3.2351816 0.52810001 0
6.575212 0.81734103 1.0574121 0
5.8365917 3.3066981 -0.15423036 0
5.9523854 2.6276131 1.6397753 0
5.8543859 3.2392352 0.50783288 0
6.6658249 0.69234151 0.3351227 0
5.8741856 3.173413 0.67155266 0
5.9287786 2.8181119 1.3917279 0
6.6629801 0.69139236 -0.39570856 0
6.4014988 1.1167436 1.6746311 0
6.3700056 1.128437 1.7847414 0
2.3664079 -6.2016363 -0.99133682 0
5.9991217 2.4903324 1.6890988 0
2.511415 6.1475115 -0.98208916 0
5.8287067 3.3298924 0.1156199 0
5.8795166 3.1762822 -0.65873492 0
6.0228806 2.311512 1.867439 0
-4.1965528 -5.1498218 -0.98836017 0
6.6455326 0.70422846 0.68293214 0
6.1384697 1.6393427 2.1829937 0
6.4039698 1.0906012 1.7153354 0
6.6564407 0.71600938 0.57129717 0
6.6896319 0.63099086 -0.0079377294 0
5.8442159 3.3110876 0.17770886 0
6.640481 0.71440136 0.73811853 0
6.6637588 0.70331472 0.51169288 0
5.8507309 3.2371998 0.67207992 0
-0.54224968 6.6253896 -0.98683107 0
6.5242677 -1.2805099 -0.98788846 0
6.1892366 1.4510788 2.184238 0
2.4404926 -6.1845779 -0.98928142 0
-0.5433898 -6.628221 -0.98753572 0
5.8755064 3.1379817 -0.91623414 0
5.9191885 2.9714804 1.1605 0
5.8324113 3.3337729 -0.30143577 0
5.8707404 3.1715586 0.83578014 0
6.4534397 1.0058985 1.603126 0
6.5648956 0.84647274 1.1895247 0
5.8720465 3.1722615 -0.83063877 0
5.2924719 4.0316787 -0.98643076 0
5.8834996 3.1025829 0.99864459 0
6.6939387 0.63071311 -0.18341172 0
5.8166089 3.3734667 0.17730618 0
6.5512314 0.88700372 1.240876 0
6.0188723 2.2153065 2.0279932 0
5.924335 2.9006121 1.3224874 0
6.6700282 0.70300037 -0.5331409 0
6.0850983 2.0304849 2.0289123 0
6.5072331 0.94876391 1.422538 0
5.8555965 3.2364261 -0.71496999 0
6.6728477 0.69468457 0.51640642 0
5.8387399 3.307935 -0.49286985 0
6.7000427 0.62528843 -0.02932322 0
6.6916685 0.63085955 0.33914828 0
5.8479109 3.3132153 0.34302902 0
5.8488226 3.3137403 -0.3246094 0
6.6929355 0.62302965 0.33504736 0
5.981895 2.5778949 1.6988451 0
-4.1259146 5.2271738 -0.98597372 0
6.6310601 0.75886267 0.87869656 0
5.8800349 3.1424615 0.9347899 0
5.8623295 3.2436583 -0.66272497 0
6.4850459 0.98393291 1.5204215 0
6.1002979 1.8309004 2.1852565 0
-0.45627403 6.6458287 -0.9839375 0
5.8435149 3.3454058 -0.093818843 0
5.9097986 2.9423532 1.3287578 0
5.8584585 3.2393405 0.73345542 0
6.7043424 0.6300422 0.16516817 0
5.9530821 2.7629359 1.5167818 0
6.7053342 0.62697023 0.1528393 0
6.6126995 0.77569616 1.0239568 0
6.6644511 0.69188327 0.69757688 0
6.4071836 1.0654242 1.7870488 0
5.8409371 3.342705 0.32211471 0
6.4384823 1.050813 1.6840315 0
5.920928 2.8146434 1.5543246 0
5.8626308 3.1671934 1.0000896 0
5.9015374 3.0476091 1.1339326 0
5.8947001 3.0234714 1.231411 0
5.8274159 3.3798966 -0.15779829 0
5.9681549 2.618124 1.7143319 0
5.932076 2.8317032 1.4858289 0
5.8516145 3.2376916 0.83709109 0
5.9607105 2.7724838 1.4863651 0
6.7072239 0.62757069 -0.21382016 0
6.6652398 0.70324045 -0.71202171 0
6.6486187 0.70407373 0.85538936 0
6.5384507 0.91568488 1.3577857 0
6.6792526 0.69682163 -0.58572376 0
6.5326347 0.90654558 1.3964629 0
5.8343644 3.335819 0.52911901 0
6.6298232 0.75843018 -0.96132934 0
5.9077678 2.9659517 1.325031 0
5.3020859 -4.0451736 -0.99025607 0
6.6462002 0.70419502 -0.88964939 0
6.6628203 0.69133908 -0.77158272 0
6.0135098 2.4020569 1.8802972 0
2.5158401 -6.1774578 -0.9902004 0
5.9559879 2.6993258 1.6479115 0
5.8509731 3.3149781 0.50843251 0
5.3592687 3.9747388 -0.98481679 0
5.9079833 3.0401483 1.1637173 0
-0.36965561 6.663547 -0.98069322 0
-4.1373892 -5.2355356 -0.98873365 0
5.828022 3.3802571 0.34273744 0
6.3048897 1.2745087 2.0339766 0
6.7075057 0.62983811 -0.36216944 0
-0.46119308 -6.6585665 -0.98708987 0
6.5543385 0.84669942 1.3610659 0
6.012516 2.4223993 1.8741264 0
6.6492558 0.71528554 0.90401375 0
5.851305 3.2320573 -0.92767572 0
6.6978035 0.6304639 -0.53933787 0
6.6224208 0.75584203 1.0603271 0
5.8763599 3.2406044 0.7385447 0
5.8822923 3.1019552 1.1645472 0
5.8401227 3.3874569 0.0086417198 0
6.7028713 0.63013703 0.5124476 0
2.5891562 6.157124 -0.98782682 0
5.8624125 3.2437046 -0.83756816 0
6.7118111 0.62902862 -0.40000355 0
5.8299932 3.3312399 -0.72474825 0
5.8262663 3.3792124 -0.49777633 0
6.5688062 -1.2177451 -0.99173796 0
6.4926248 0.94294137 1.6060276 0
5.9305277 2.85096 1.5249243 0
5.8138037 3.4388728 -0.10040903 0
5.8369031 3.3855412 -0.32872486 0
5.8457294 3.3477252 -0.51531482 0
5.9666729 2.6687882 1.7097001 0
2.6613402 6.1317654 -0.98436522 0
5.8909936 3.0316212 1.3277504 0
6.590538 0.82294673 1.243154 0
5.9196815 2.8984408 1.4896412 0
5.8508101 3.3148844 -0.66851366 0
5.809412 3.4486623 -0.16027576 0
6.703568 0.62640876 -0.58597898 0
6.7095852 0.62832123 0.51665747 0
5.9939122 2.4861212 1.8902254 0
5.8657408 3.2351646 0.90401256 0
-4.0640903 5.3107309 -0.98597169 0
5.8170586 3.4418542 0.11176479 0
5.8062329 3.4467089 0.34246266 0
5.8593736 3.2402718 0.93957591 0
6.6464629 0.70418179 1.0284758 0
5.8189259 3.4438674 -0.098618329 0
5.8543644 3.316931 0.67430472 0
6.5235777 0.91579127 1.5293174 0
5.9458599 2.7660663 1.6523895 0
5.816134 3.4527931 0.0074797869 0
5.8154922 3.4401658 -0.30952621 0
5.3710222 -3.9907472 -0.9894017 0
6.6598601 0.69035143 -0.96304858 0
6.5929146 -1.1456866 -0.9898634 0
5.8488827 3.2265289 1.0687618 0
5.8191471 3.4418066 0.23625851 0
6.6715527 0.69425255 0.88022161 0
2.6628602 -6.1403451 -0.98669994 0
5.8357625 3.3848627 0.50881958 0
5.807056 3.4310701 0.53000319 0
6.701447 0.62573487 0.69834685 0
5.8560429 3.2401576 1.0036826 0
-4.0705442 -5.315577 -0.98754048 0
6.61555 0.77559412 1.1978657 0
5.824996 3.4450176 0.067175627 0
6.5557547 0.88873214 1.4270816 0
5.8182411 3.4431293 0.32110953 0
6.4795055 0.98389328 1.694766 0
6.7385497 0.55916351 0.3346169 0
5.8452101 3.3116601 0.83979237 0
5.8849497 3.1473243 1.1410229 0
6.7031193 0.63012099 -0.72171867 0
5.8682384 3.1702118 1.1676354 0
6.6479816 0.71515709 1.0700843 0
6.078311 2.0283761 2.1918125 0
6.4135542 1.0921263 1.8809166 0
6.7497053 0.55509436 -0.013654947 0
5.9060674 2.9388673 1.5330024 0
6.7093163 0.62972134 0.68649292 0
5.8202057 3.4423873 0.40374732 0
5.8307738 3.3818946 0.67495763 0
5.8483038 3.3134415 -0.84348631 0
6.6158366 -1.0733354 -0.98795581 0
5.9010534 3.0471437 1.3391695 0
2.5929036 -6.1801963 -0.99409008 0
6.7509336 0.55499744 0.16245139 0
6.7512746 0.56300801 0.15153205 0
5.4333773 3.927767 -0.98634613 0
6.5317736 0.90643376 1.5613658 0
5.8122215 3.4380043 0.57122827 0
-3.9930611 5.3871951 -0.98399997 0
5.9211702 2.8147504 1.7182643 0
6.7448063 0.55548084 -0.36890441 0
6.7467256 0.55532938 0.33809543 0
6.7550025 0.5641343 -0.032332063 0
6.753334 0.55480814 -0.19135249 0
2.7363975 6.1232533 -0.98577213 0
5.9764957 2.573401 1.9014497 0
5.9488006 2.7591596 1.7202749 0
6.4595599 1.0084398 1.7940147 0
5.8339634 3.3051846 1.0052578 0
5.4892178 3.8570135 -0.98124075 0
5.9337473 2.832454 1.6565926 0
5.8290563 3.4607344 0.17438126 0
5.8651748 3.1277602 1.3440163 0
5.9049969 3.028378 1.3963537 0
5.8252091 3.45837 -0.3331089 0
6.7087045 0.62804133 -0.77712953 0
5.8832812 3.1024694 1.3326809 0
6.7567163 0.56465214 -0.21733755 0
5.8468795 3.235055 1.1696005 0
5.9093628 2.8936267 1.6574757 0
-0.3838768 -6.7020001 -0.99015844 0
6.6004195 0.77613574 1.3704121 0
5.8523002 3.3546093 0.73757076 0
6.5332432 0.88013071 1.6094909 0
6.627934 0.75776964 1.2452545 0
-0.29316711 6.7087564 -0.9845016 0
6.5847678 0.82083625 1.4277415 0
6.7019639 0.62589902 0.88089943 0
6.6991715 0.63037562 -0.90495181 0
5.7915764 3.5416377 -0.10331666 0
5.8366365 3.3381999 -0.94292474 0
5.9187756 2.9712803 1.4966712 0
6.7468457 0.56166989 0.51693428 0
6.7059374 0.62993926 0.86076713 0
5.8099976 3.4490221 0.67584634 0
5.8448935 3.3902953 -0.6761297 0
5.9759607 2.6213081 1.8795309 0
5.796802 3.5215507 -0.3345927 0
6.0085545 2.4209144 2.037807 0
6.755774 0.56436723 -0.40362245 0
2.8094289 6.1041298 -0.98457313 0
5.8051047 3.526818 0.0048679113 0
5.8036566 3.5258994 0.17370152 0
6.7509918 0.55499285 0.51337922 0
5.8919654 3.032109 1.4973288 0
5.8044672 3.5264137 -0.16481727 0
2.7391915 -6.1378088 -0.98974347 0
5.9231915 2.8443007 1.7289765 0
5.8137069 3.4513016 -0.6772567 0
6.302043 1.2739717 2.1984096 0
6.7714787 0.51885641 0.22801709 0
6.7637014 0.51829761 0.39820433 0
5.8153925 3.4397452 0.73762703 0
5.5002489 -3.8711693 -0.98538387 0
5.8351865 3.3845198 -0.85007393 0
5.8865743 3.0332234 1.5428686 0
5.9582858 2.6616013 1.9129708 0
5.8311729 3.4620349 -0.50692326 0
6.6495419 0.71531433 1.2364085 0
6.6531582 -1.0069265 -0.99051225 0
5.8455062 3.347492 0.94547105 0
6.7852936 0.47958902 -0.017323673 0
5.8387656 3.3866494 0.84262002 0
-3.9266367 5.4669828 -0.98342049 0
6.7820454 0.51961559 -0.11516297 0
6.784853 0.49474436 -0.033123255 0
6.396636 1.0894343 2.0436265 0
5.8337641 3.4598644 -0.52695149 0
5.8665881 3.2476165 1.148155 0
6.0432138 2.2236423 2.1969461 0
5.7969246 3.5475714 0.32001519 0
2.8119636 -6.1163836 -0.98792601 0
6.6839542 0.69839031 1.0651963 0
6.4947195 0.94377619 1.7962108 0
6.7452259 0.56118053 0.6995368 0
5.8933182 3.0228124 1.5600929 0
6.5240626 0.91578782 1.7067053 0
5.835453 3.4646652 0.50953579 0
5.8604612 3.23246 1.2342968 0
5.8030052 3.5543182 0.10791183 0
5.8005939 3.5239563 -0.50825649 0
6.6694126 -0.93215913 -0.98728514 0
5.4516602 -3.9519351 -0.9933424 0
6.761169 0.5541901 -0.55268377 0
6.5754204 0.84624672 1.5415151 0
6.788198 0.47931802 0.16016543 0
5.810297 3.5301123 0.34163141 0
6.5223188 0.90520632 1.7259338 0
5.8231421 3.4484127 0.74010396 0
-4.0181775 -5.4066224 -0.99017215 0
6.7593732 0.56545478 -0.59283257 0
-0.20957828 6.7344675 -0.98380804 0
6.7104702 0.62860245 -0.970819 0
6.7834888 0.49435347 0.33418381 0
5.8363423 3.3065546 1.1737285 0
5.8247218 3.4501159 -0.74087501 0
6.7845583 0.51979619 -0.28826451 0
6.7889543 0.49591976 -0.21875197 0
5.9023757 2.9633412 1.6638036 0
5.8024549 3.5537078 -0.31873512 0
6.5679474 0.81468385 1.6117039 0
5.7787914 3.5918751 -0.33822906 0
6.6679597 0.70310408 1.2066519 0
5.7859945 3.5965908 0.0029662848 0
6.7926464 0.52037728 0.055155993 0
5.8136353 3.4512577 0.84366357 0
5.8781829 3.1755645 1.3384495 0
5.8396864 3.2218182 1.3982544 0
5.7956338 3.5461395 -0.53296113 0
-0.30282736 -6.7360725 -0.99119079 0
6.7954807 0.49779004 0.15027463 0
5.814187 3.4390831 0.90401399 0
5.9008827 2.9340236 1.7392201 0
6.7858753 0.4950375 -0.40509564 0
6.7586198 0.55439115 0.68935251 0
5.8149848 3.4520869 -0.85481048 0
6.7402296 0.5558418 0.86422324 0
6.7761984 0.5191955 0.56652963 0
6.6251235 0.756787 1.4309349 0
2.8857059 6.1001587 -0.98781562 0
6.7950149 0.47868201 0.33714092 0
5.8126044 3.5315762 0.50981617 0
5.8513517 3.2321055 1.3541782 0
5.8356647 3.3371813 1.1534142 0
5.7857623 3.5964386 0.34136426 0
6.7080011 0.62781781 1.0653203 0
5.8006372 3.523984 -0.68358505 0
6.7942095 0.47875714 -0.37774277 0
6.7631731 0.51825964 0.73566818 0
6.7603502 0.55425465 -0.73615038 0
6.671669 0.69429141 1.2485592 0
6.6462021 0.7041949 1.3799038 0
6.7566772 0.56464022 -0.78337502 0
5.79562 3.6028924 -0.16899139 0
5.8899069 3.1059144 1.5046577 0
6.6996636 -0.86286193 -0.98837459 0
6.604188 0.77600086 1.5486183 0
6.7193336 0.62907529 1.0379362 0
5.8413043 3.3881598 1.0111823 0
5.5722103 3.8210771 -0.98661816 0
5.7827883 3.5944915 -0.51277494 0
6.747602 0.56189841 0.88305557 0
6.792213 0.47894341 0.51420987 0
6.7448211 0.55547965 -0.91858757 0
2.8877964 -6.1095829 -0.9904021 0
5.5736895 -3.8229201 -0.98716366 0
5.8207278 3.3759172 1.1771436 0
5.7996149 3.6055076 0.17161942 0
6.7940292 0.49737412 0.51740742 0
5.8073988 3.5591934 0.53165781 0
-3.9503632 -5.4858847 -0.98931706 0
5.9471807 2.7577307 1.9276247 0
5.8117313 3.5310221 0.67819953 0
6.7164817 -0.78872854 -0.98592782 0
5.9334698 2.8201842 1.8849645 0
6.8150964 0.47680837 -0.19972968 0
5.7750587 3.6538174 -0.11059082 0
5.8238606 3.4491875 0.95065308 0
5.8232756 3.4485567 -0.95936632 0
5.7735577 3.652936 0.23022771 0
5.8725543 3.135061 1.554739 0
-0.12727833 6.7639627 -0.98432624 0
5.8946123 3.0334377 1.6702428 0
-0.2186563 -6.7613559 -0.99036002 0
5.8658857 3.2456388 1.3428946 0
5.7676687 3.6676607 0.17120981 0
2.959451 6.0839281 -0.98799336 0
6.5643706 0.84648401 1.7177711 0
5.7773404 3.6567438 0.104792 0
6.821331 0.42686766 -0.22030401 0
5.7919941 3.6005185 0.51016569 0
6.0054817 2.4197624 2.2027264 0
-3.868773 5.5537109 -0.98527193 0
6.7860169 0.49507803 0.70060945 0
6.7961178 0.49797267 -0.59598076 0
5.9778442 2.6220765 2.0451572 0
5.801908 3.52479 0.8462007 0
6.7037463 0.63008058 1.2129726 0
5.8002849 3.5512998 -0.75218546 0
5.8192186 3.4546888 1.0130889 0
5.8727136 3.1726208 1.5083513 0
6.5433636 0.88399762 1.8025291 0
5.775692 3.6730793 1.1444092e-05 0
6.8299232 0.42919737 0.14950144 0
6.661315 0.71650058 1.4038851 0
5.804112 3.5261881 -0.86285579 0
5.803287 3.5546315 0.74351013 0
6.8062305 0.47763556 -0.56268716 0
6.7667732 0.51851833 0.90401661 0
6.7532144 0.56359404 -0.97660184 0
5.896122 3.0241487 1.7258182 0
5.7840195 3.6643713 -0.11090529 0
5.7774916 3.6742945 -0.17199236 0
5.7880683 3.5377452 0.9542582 0
5.8869615 3.0335956 1.7527008 0
5.7894821 3.6622832 0.058245897 0
6.8372855 0.43119365 -0.036048651 0
5.7799454 3.6566851 0.39879704 0
6.707015 0.62750441 1.2506065 0
5.7901301 3.5992982 0.67918646 0
5.9241509 2.8451715 1.9386501 0
6.8004861 0.47817156 0.69188118 0
5.6397285 -3.7653387 -0.98648286 0
6.6651244 0.69210774 1.4342284 0
5.7831845 3.6634171 0.31866276 0
5.8783293 3.0998948 1.6744587 0
5.8265886 3.4458919 1.070699 0
3.0328536 6.0661979 -0.98804855 0
-3.7926898 5.6254358 -0.98282421 0
5.7928362 3.6010697 -0.69171238 0
6.8443336 0.40033448 -0.023156762 0
5.7781692 3.674752 0.34071767 0
2.9638071 -6.1023197 -0.99305761 0
5.6421528 3.7682726 -0.98736155 0
5.8159223 3.4406292 1.1610036 0
6.8310223 0.42949528 -0.40919518 0
5.7703576 3.6694767 0.51051772 0
5.8348503 3.3363283 1.3642192 0
6.7519636 0.56321615 1.0681279 0
5.7870016 3.6677763 -0.32794583 0
6.8021488 0.47801644 -0.74727464 0
-0.043449879 6.788743 -0.98398888 0
6.8270736 0.42842478 0.51763976 0
5.8526845 3.3159637 1.3473976 0
5.8489332 3.2265553 1.5648088 0
5.7818022 3.6772053 -0.34610969 0
-0.13501596 -6.7880106 -0.99015844 0
-3.8860579 -5.5678897 -0.98961747 0
6.8223224 0.42713648 -0.59718883 0
6.7522225 -0.72116762 -0.98913825 0
3.0351124 -6.0751615 -0.99052536 0
6.7995152 0.49894625 -0.7885803 0
5.7803454 3.6601751 -0.54485595 0
5.7804136 3.6569605 0.56748235 0
6.8420858 0.43249518 0.33348858 0
5.7817216 3.6617467 0.53269839 0
5.7545204 3.7431941 -0.001930356 0
6.7929769 0.47887218 0.86939871 0
6.6282382 0.75787598 1.6203933 0
6.7901907 0.49627417 0.88500893 0
5.8515205 3.2322772 1.5652394 0
6.4074383 1.0911531 2.2120748 0
5.7973261 3.5480168 -0.97227049 0
5.8043423 3.5263343 1.0161991 0
6.695375 0.63062048 1.3902647 0
3.1054134 6.0452328 -0.98749745 0
6.6511264 0.70394802 1.5601592 0
6.6022491 0.77607024 1.7284565 0
5.8624821 3.2437434 1.5141652 0
6.5399313 0.90749288 1.8947923 0
5.7802067 3.6761279 -0.52114385 0
6.7675366 0.55368781 1.0445018 0
5.8192115 3.4546843 1.183394 0
5.7691932 3.6686902 0.68028641 0
5.8278704 3.380167 1.349539 0
5.8623881 3.167063 1.6790998 0
6.8568139 0.39898962 -0.20578206 0
6.6520977 0.71557182 1.5704896 0
6.8604684 0.39859581 0.15597367 0
5.8199444 3.4422441 1.2372112 0
5.7937384 3.6016603 0.84924328 0
6.8257284 0.42806 0.70167065 0
5.7613978 3.747983 -0.17547995 0
5.7930999 3.6012423 -0.87127042 0
-3.8095937 -5.6397119 -0.98712504 0
6.8572736 0.39894009 0.33592033 0
5.7772522 3.6566427 0.74660087 0
6.5854235 0.82107598 1.8071804 0
5.7742286 3.6720908 -0.69721425 0
5.7646766 3.7502661 0.16889071 0
5.8393078 3.3082619 1.5168495 0
6.8701487 0.36163241 0.14836502 0
5.7820969 3.6579485 0.73579502 0
3.1090374 -6.0587907 -0.99125791 0
5.7785354 3.658108 -0.76489902 0
5.7097893 -3.7125876 -0.98754251 0
5.7621145 3.7484822 0.34022093 0
3.2461188 5.9888473 -0.98321509 0
6.7875061 -0.5739544 -0.98620045 0
6.8601551 0.39862961 -0.38940477 0
0.040685177 6.8123827 -0.98366773 0
6.7810273 -0.65102643 -0.9906565 0
5.7118616 3.7150233 -0.98828077 0
6.7539406 0.55476022 1.2217555 0
3.1790195 6.0281272 -0.98830771 0
6.797647 0.49841088 -0.98309159 0
5.7605944 3.77231 0.10078037 0
6.8557243 0.39910704 0.51545238 0
5.9380465 2.822206 2.0519991 0
6.6582451 0.6898126 1.6218691 0
6.7860589 0.49509007 1.069782 0
6.8702016 0.36164588 0.33332908 0
5.8934002 3.0228517 1.8917325 0
6.8537793 0.39931661 -0.57340634 0
6.7085133 0.62798041 1.4383874 0
6.8092337 0.47735539 -0.93757915 0
-3.7307067 5.7089701 -0.98424053 0
5.976491 2.6215246 2.2114925 0
5.8466749 3.234941 1.6841416 0
6.5141888 0.90415084 2.0584016 0
6.7533751 0.56364256 1.2546253 0
6.8822947 0.36473984 -0.038375199 0
5.7641869 3.7765329 -0.11720031 0
5.7697048 3.7537677 -0.35138798 0
3.1806796 -6.0339999 -0.98994291 0
5.7892885 3.5987473 1.0194621 0
5.9155793 2.9477537 1.9555812 0
5.7950273 3.5454662 1.1687727 0
5.7753649 3.6539969 0.90401614 0
6.7901573 0.52019846 1.0729957 0
6.8812156 0.36446375 -0.22546214 0
5.7645321 3.7501657 0.51123047 0
5.8060322 3.5274065 1.1877239 0
5.7539487 3.7644975 0.53373945 0
6.874826 0.36282903 -0.41321397 0
-0.054739952 -6.8256354 -0.99289596 0
6.7657194 0.51844263 1.2410152 0
6.8395643 0.43181151 -0.79332364 0
5.7535825 3.7425408 -0.70248222 0
6.8462901 0.40012366 -0.75921333 0
5.7654519 3.7780201 0.31735063 0
6.8648901 0.36028701 -0.60187948 0
6.8940697 0.32027984 -0.02827996 0
5.7468452 3.8237965 -0.005453229 0
6.894454 0.31626737 -0.1292969 0
0.12596607 6.8317728 -0.98261929 0
5.8204579 3.4554503 1.3558786 0
6.814003 -0.50309807 -0.98765063 0
5.8842192 3.1466014 1.7704635 0
5.7742519 3.6532166 -0.98688996 0
6.8341846 0.43035287 0.88716745 0
6.8760414 0.36313993 0.51817596 0
5.8264508 3.3793223 1.5225749 0
6.8916893 0.31614831 -0.30392468 0
5.7800713 3.6760364 -0.87946057 0
6.8988619 0.31645718 0.044128299 0
5.7689581 3.7821419 -0.33712894 0
5.7763486 -3.6556108 -0.98762476 0
5.8551121 3.2297204 1.7321711 0
5.821722 3.4432197 1.4044042 0
6.8989582 0.31968224 0.15349722 0
5.7493143 3.8255687 -0.17976826 0
-3.744381 -5.7208576 -0.98776257 0
5.7654252 3.6661458 1.0216045 0
3.2534199 -6.0133286 -0.99006033 0
5.8248129 3.4502141 1.3762667 0
3.3886261 5.9404554 -0.98227882 0
5.7856269 3.6797881 0.85243726 0
5.8393722 3.3410656 1.5787885 0
5.7758222 3.7580278 -0.52944487 0
3.3220634 5.9795132 -0.98677862 0
6.8962126 0.32001787 0.33508766 0
5.7701845 3.6509562 1.0719159 0
6.8656349 0.3980391 0.6956985 0
6.8155127 0.47676954 1.0511808 0
6.9020739 0.31659549 0.21692896 0
5.7662807 3.7513831 0.6826117 0
5.7641158 3.7764494 -0.55711812 0
6.7473645 0.55527896 1.401392 0
6.6288633 0.75809461 1.8124568 0
5.7840118 3.6643622 0.96230412 0
5.7493811 3.8256168 -0.35532945 0
6.8386164 0.40095055 -0.94746065 0
5.7431159 3.8211193 0.51164019 0
6.6565938 0.7036739 1.7438376 0
5.7520289 3.8275173 0.33956826 0
5.8515372 3.2322938 1.7791522 0
5.7574487 3.831408 0.16674495 0
6.707943 0.62980992 1.5742345 0
6.8923221 0.32049352 0.51624382 0
6.8352938 0.43065363 -0.98793197 0
6.8233395 0.42741221 1.0719595 0
6.9097695 0.31836039 -0.21337289 0
6.7873363 0.49545616 1.2567363 0
6.8751216 0.36290461 0.70330393 0
6.6600475 0.71637285 1.7394056 0
3.3251452 -5.9893312 -0.98953593 0
0.02947855 -6.8509665 -0.99294364 0
5.8977795 3.0439956 1.9698586 0
5.923708 2.8158717 2.2166553 0
5.7469993 3.8239071 -0.53226322 0
5.7287149 3.8730299 -0.34250605 0
-3.666152 5.7905116 -0.98531437 0
5.7569981 3.7449193 -0.88480091 0
6.8400884 -0.43195373 -0.98926318 0
5.7358913 3.8736005 0.22255325 0
5.803256 3.5256453 1.3602693 0
5.7392368 3.8756952 0.0503335 0
5.8086624 3.4482017 1.5272896 0
5.8382268 -3.5933983 -0.98637486 0
6.7035513 0.62640351 1.6272812 0
6.8468976 -0.35568374 -0.98582041 0
5.7954535 3.6027832 1.1927831 0
6.8975973 0.31640273 0.56142819 0
5.7591848 3.770653 -0.7790029 0
6.7525473 0.56339246 1.4428463 0
6.9201217 0.29575878 0.14665484 0
3.4612808 5.9204473 -0.98342705 0
5.7617483 3.7736661 0.75071287 0
5.7372332 3.8833387 -0.12284589 0
5.7407618 3.8194299 0.68357849 0
6.8035436 0.47788629 1.2306275 0
6.8634892 0.39827037 0.87624228 0
6.917078 0.29502624 0.33281517 0
6.9130363 0.31796104 -0.39918542 0
6.9218841 0.29618293 -0.22828877 0
6.9259315 0.29715687 -0.04065609 0
5.8901682 3.0213115 2.0585027 0
5.7295394 3.8987265 -0.18309635 0
5.7330217 3.9013026 -0.008469522 0
6.9029689 0.31919181 -0.58468485 0
6.7705574 0.51879025 1.4103117 0
5.8514357 3.3152447 1.6958547 0
6.9184771 0.31730187 0.3882066 0
3.3971677 -5.9663639 -0.98958862 0
6.8446074 0.40030497 1.0556746 0
5.7429295 3.8902328 0.096639276 0
5.7391071 3.8856065 0.31620693 0
6.8579626 0.35851473 -0.98888087 0
5.7987905 3.5496418 1.385108 0
6.9198914 0.29570335 -0.41758007 0
5.7414093 3.8770559 0.39311171 0
6.8838835 0.36514622 -0.79929662 0
5.7511196 3.8831363 -0.12442589 0
6.663126 0.69144112 1.815371 0
6.8742404 0.36267918 0.88904774 0
6.8906665 0.32069594 -0.77148676 0
5.7748871 3.7573767 0.85550153 0
6.9171143 0.29503506 0.51858544 0
5.7383366 3.9052341 0.16527569 0
6.9015722 0.31936258 0.69804072 0
3.4666224 -5.9359026 -0.98780859 0
5.8182502 3.4431384 1.590425 0
5.7350788 3.8807313 0.53508258 0
5.8722215 3.134732 1.9819312 0
0.11453378 -6.8733459 -0.9925735 0
6.9128389 0.29400629 -0.60782158 0
5.7523828 3.8277714 -0.71361613 0
-3.59271 5.8641119 -0.98436022 0
0.2052083 6.8739734 -0.98730731 0
6.7428493 0.55563509 1.5834975 0
-3.6853085 -5.8076525 -0.99031091 0
5.73844 3.9053106 0.33896017 0
5.9025297 -3.5340011 -0.9862721 0
6.9090633 0.29309767 0.70414901 0
6.8750124 -0.28490335 -0.98856282 0
6.8753791 0.28499168 -0.98866391 0
-3.5962715 -5.8673921 -0.98530138 0
5.7429085 3.8779948 0.56363928 0
5.787447 3.6682851 1.1794288 0
6.6479349 0.71515244 1.9067817 0
5.7794099 3.6755896 1.1970525 0
0.20365238 -6.8799653 -0.98873663 0
5.832705 3.3830433 1.7007003 0
6.5247221 0.90551829 2.2289467 0
5.7910457 3.5998976 1.3660934 0
5.8314457 3.4485586 1.5730839 0
6.8828397 0.20923084 -0.98600245 0
5.7355723 3.9031892 0.5123775 0
5.7412114 3.8881533 -0.56834513 0
5.7440257 3.9094424 -0.3624633 0
6.7964196 0.47855097 1.4121718 0
5.7449846 3.8224609 -0.89416766 0
6.9543796 0.23707163 -0.034447908 0
3.5376258 5.9102364 -0.98766816 0
5.7864895 3.6605265 1.2408795 0
5.7691913 3.7534099 1.0280459 0
6.8320684 0.42977899 1.2607667 0
6.7907586 0.49643689 1.4462969 0
5.7270083 3.8968542 0.6853857 0
5.8016691 3.4322107 1.737747 0
6.7062588 0.62991858 1.7582545 0
6.7443256 0.56090862 1.6317961 0
5.7122827 3.9747968 -0.18701035 0
5.8390317 3.340709 1.7951255 0
3.5390718 -5.9142337 -0.98880708 0
6.9169445 0.31723586 0.73236656 0
5.7670274 3.7798722 0.96898377 0
6.9594212 0.22650427 -0.04210639 0
6.9474149 0.23802447 -0.40621191 0
5.7263765 3.8963864 -0.7180934 0
5.7142015 3.976259 0.16405213 0
3.6055346 5.8763814 -0.98547161 0
6.9592404 0.23640656 0.1498034 0
5.8670998 3.2358608 1.9016883 0
5.8067255 3.5278463 1.5366495 0
6.8437104 0.40040165 1.2381849 0
5.7430506 3.8780835 0.73391724 0
6.9167972 0.29495877 -0.80276775 0
0.29056406 6.8936863 -0.9869045 0
5.7446351 3.9098933 -0.54173559 0
6.897191 -0.21246797 -0.98994458 0
5.7594738 3.8328617 0.85821319 0
6.9648733 0.23563594 -0.22138768 0
-3.5201845 5.938417 -0.98391879 0
5.742053 3.8203564 1.0300708 0
0.28974605 -6.8970327 -0.98769987 0
5.7238812 3.9836361 -0.012155294 0
5.8149848 3.4520872 1.7062104 0
5.7179551 3.9791198 0.33847249 0
0.38014412 6.894834 -0.98239553 0
6.9032955 -0.13648123 -0.98720491 0
6.9119101 0.31809872 0.88125229 0
6.9676433 0.22835892 -0.23187029 0
5.7531972 3.7636144 1.1855421 0
6.971756 0.22928649 0.1448102 0
6.7061019 0.62721413 1.8209906 0
6.9611101 0.22688526 -0.42146391 0
3.610261 -5.8888855 -0.98905337 0
6.9130163 0.31706673 0.90402043 0
5.7117872 3.995003 -0.35280675 0
6.907546 0.13737625 -0.98836887 0
6.9162793 0.29483408 0.89118743 0
6.9565253 0.23677802 0.51754296 0
6.9682565 0.22849709 0.33220875 0
5.7448192 3.8925197 0.75491607 0
5.9712577 -3.479233 -0.98793697 0
5.7793617 3.656343 1.4091902 0
5.7773628 3.6742072 1.3718767 0
5.7972941 3.547982 1.6027169 0
5.7438879 3.8913925 -0.79507756 0
3.7426701 -5.8135257 -0.98328686 0
6.8904223 0.36681908 1.0780289 0
3.7429113 5.8141127 -0.98345685 0
6.9547563 0.23702013 -0.59671986 0
6.9104557 0.31827652 -0.96911526 0
5.7403717 3.876406 0.90401852 0
3.6785786 5.856143 -0.98746395 0
6.7852545 0.5198462 1.5813098 0
5.7171593 3.9785135 -0.54547399 0
6.8978596 0.31981653 1.0632997 0
5.7217441 4.007411 -0.13040751 0
6.9749727 0.23425424 0.33353198 0
6.9568453 0.22592336 -0.61314821 0
6.9646177 0.22767645 0.51912606 0
-3.5314345 -5.949079 -0.98693168 0
6.8235302 0.42746395 1.448832 0
6.9498014 0.23769802 0.70109725 0
6.7879329 0.47934276 1.5953784 0
5.7245798 4.0109453 0.092340946 0
5.723104 3.9830439 0.51304042 0
5.7918768 3.6004417 1.5428476 0
5.6959066 4.0527372 0.16235828 0
5.8975067 3.0248084 2.2285929 0
6.9034863 0.31665635 1.0753608 0
6.9244485 0.06372124 -0.9888792 0
5.7337189 3.9911337 -0.368927 0
5.7767735 3.7586899 1.2041521 0
6.9258595 -0.063997328 -0.98926437 0
5.7896552 3.6708071 1.3984942 0
5.7401743 3.9065933 0.86064768 0
5.6986189 4.0548658 -0.19169849 0
6.6435032 0.71470588 2.0759573 0
6.927299 0.012545943 -0.98584926 0
5.7246752 4.0110631 0.31466794 0
5.7021666 4.057651 -0.014614522 0
5.7147036 3.9986379 -0.57926333 0
5.8671665 3.2482054 2.0025136 0
3.6836758 -5.8690658 -0.99118626 0
5.7397881 3.8864305 0.97459674 0
6.9615364 0.22698146 0.70604062 0
6.7896161 0.49610943 1.6376028 0
7.000391 0.15397209 -0.039469361 0
6.8774209 0.36349291 1.265038 0
6.9541831 0.23709852 -0.78850877 0
6.9132748 0.29411107 1.0786014 0
5.7229929 3.982959 0.68792701 0
0.46370864 6.9214711 -0.98422182 0
6.9370112 -0.010789573 -0.98849392 0
5.8620214 3.2332592 2.0697954 0
5.8069086 3.5279624 1.7151432 0
5.7232251 4.0092564 0.53669155 0
6.938653 0.087088346 -0.9854331 0
6.9583869 0.22627109 -0.80851924 0
7.0058413 0.15807348 0.14385998 0
7.0084491 0.15862256 -0.045032144 0
5.7466521 3.9113853 -0.90856194 0
3.8174024 5.7968707 -0.98691738 0
0.37195432 -6.9305487 -0.99085486 0
6.038394 -3.4225233 -0.98931336 0
-3.4559846 6.0207806 -0.98601854 0
6.7619166 0.55413109 1.7745824 0
6.8551292 0.39917117 1.42507 0
5.734621 3.9024856 1.0352724 0
5.7252569 3.9846847 -0.73012722 0
6.9435496 -0.086275101 -0.98676312 0
3.8828197 5.7582884 -0.98445308 0
5.7451725 3.8794127 1.0741787 0
5.708919 4.0629516 0.33770192 0
5.7657318 3.7510009 1.3784547 0
7.0099173 0.15893167 -0.23512566 0
6.9562259 0.23681903 0.88601089 0
5.8305984 3.4564512 1.8132522 0
7.0019202 0.15724784 -0.42542958 0
6.8975792 0.3198508 1.2481189 0
7.0083904 0.1527608 0.33275175 0
5.7098341 4.0636697 -0.37296385 0
7.0086942 0.15867418 0.33177876 0
6.947732 -0.16194588 -0.9846909 0
7.0152807 0.15171748 -0.22898352 0
5.6987734 4.1005058 0.040041447 0
6.7553334 0.5642342 1.8285949 0
5.7186866 4.0036011 0.75856543 0
5.7588439 3.8324094 1.2085743 0
3.8859487 -5.7653213 -0.98651552 0
3.8222928 -5.8082995 -0.9902482 0
5.7757502 3.6549275 1.6154771 0
7.0103593 0.15246272 -0.41801262 0
5.7219796 3.982187 0.86334598 0
6.7828531 0.51967365 1.7517362 0
7.022244 0.15066314 0.14589417 0
6.9400668 0.23902977 1.0697134 0
-4.687223 5.2260542 0.29090285 0
-4.942986 4.9933376 0.016193748 0
5.6921034 4.1173773 -0.13634539 0
5.6951303 4.0980759 0.38744068 0
5.7100992 4.0638781 0.51372409 0
3.9515085 5.727376 -0.98451185 0
-3.4675078 -6.0320187 -0.98914719 0
-5.1009855 4.8258004 0.2884059 0
-4.6034842 5.3026452 0.29136586 0
5.7201209 4.0053887 -0.80934274 0
5.7002048 4.0561109 0.68932807 0
-5.0226455 4.9103842 0.28885424 0
-5.1879015 -4.7450476 0.011561871 0
6.9574003 0.23665839 -0.98439956 0
0.54914403 6.9399738 -0.98440993 0
6.9097285 0.29325777 1.2673244 0
-5.0293298 4.9142966 0.014423013 0
5.722755 3.9827778 -0.91492808 0
6.9712596 0.22917455 0.89456809 0
5.7075481 4.1063571 -0.13631332 0
5.7117448 4.0651698 -0.55494756 0
-4.9436407 4.9937334 0.28929543 0
-5.1063337 4.8288288 -0.26298636 0
5.8466506 3.3486903 2.0180328 0
-4.7801342 5.1544447 -0.25330269 0
-4.9461503 4.9952512 -0.25824636 0
5.6867871 4.1378403 -0.19691044 0
-5.0287018 4.913929 -0.26081526 0
6.9642968 0.1594376 -0.98917997 0
-3.380044 6.0918293 -0.98523772 0
-4.864048 5.0758901 0.28972828 0
5.6931477 4.1187177 -0.36330217 0
5.7905908 3.6831405 1.5531723 0
-5.033422 -4.9166918 0.014174461 0
5.7412252 3.8881695 1.1963172 0
6.8287082 0.428868 1.6421266 0
-4.7013087 5.2354207 0.020093083 0
7.0342484 0.1073701 -0.14809453 0
5.709384 4.1075811 0.21277475 0
5.7952824 3.6656876 1.5801609 0
5.7945409 3.6021857 1.7231319 0
5.7538152 3.7427027 1.5539474 0
-4.870667 -5.0800233 0.017044306 0
-4.6131716 5.309289 -0.24863976 0
5.6907597 4.1410518 -0.018380523 0
-4.9483871 -4.996604 0.28919864 0
-4.525744 5.382575 0.29168224 0
5.695199 4.0981216 0.55994129 0
-4.7878761 5.1594343 0.018478632 0
-4.8674593 5.0780201 -0.25617206 0
-4.9542727 -5.0001631 0.015502453 0
5.8315783 3.4486313 1.9112959 0
7.0103049 0.15901333 -0.62053049 0
-4.5317483 5.3868203 0.022934318 0
-4.700139 5.234643 -0.25129038 0
7.0389824 0.10743802 0.02845788 0
0.45660114 -6.9546371 -0.99205267 0
6.9218969 0.31744909 1.2477465 0
-4.8732195 5.0816169 0.016886592 0
7.0196548 0.16098207 0.51981664 0
-4.9517865 -4.9986596 -0.25882256 0
-4.8682365 -5.0785055 0.2896421 0
-4.6197524 5.3138022 0.021336317 0
5.7344656 3.9023705 1.2119799 0
-5.1131558 -4.8326921 0.28816175 0
6.8798828 0.36412281 1.4562876 0
5.6923232 4.1423159 0.15957987 0
-4.357852 5.531311 0.025840282 0
6.105689 -3.3657067 -0.99098778 0
-4.9373541 4.9899321 0.56197619 0
5.7699189 3.7832711 1.4099364 0
6.7953954 0.47864649 1.785255 0
-4.5304503 5.3859029 -0.24653107 0
7.0217447 0.15073866 0.51888394 0
-4.9396152 4.9912996 -0.53323579 0
5.6880212 4.1388383 0.3371619 0
-4.6935368 5.2326727 0.43282342 0
6.9692426 -0.23503816 -0.98760223 0
-5.115478 -4.8340073 -0.26390576 0
7.0151343 0.1517396 -0.61070108 0
7.0427904 0.086875975 -0.04672718 0
4.0211582 5.6984148 -0.98544228 0
5.7456274 3.8796971 1.2445483 0
-5.1952729 -4.7490835 -0.26639032 0
-5.1946712 4.748754 0.28763139 0
-5.1213636 4.8373399 0.01225543 0
5.7001896 4.1277542 0.3133353 0
-4.9754677 4.96843 0.43398356 0
5.7045274 4.1333208 0.087962151 0
5.7083707 4.062521 -0.73803842 0
7.0080032 0.15852875 0.70765567 0
-5.2795844 -4.6656036 0.009304285 0
-5.2015224 4.7525053 0.010748148 0
5.689393 4.1138988 -0.59109604 0
5.7162714 4.0005918 0.98104239 0
3.9591861 -5.7439861 -0.98941493 0
-4.7773085 5.1526232 -0.52682263 0
-5.2803402 4.6660037 0.0092594624 0
6.7864156 0.49519235 1.8313611 0
5.851038 3.2276332 2.2376776 0
-5.123373 -4.8384776 0.012134314 0
7.038661 0.10743342 -0.32708824 0
-5.2757769 -4.6635895 0.28708935 0
-4.8390379 5.1054621 0.43313003 0
7.0439081 0.10750869 0.20425415 0
6.9604769 0.22674233 1.0823681 0
-5.1831613 4.7424521 0.56353951 0
5.8047514 3.5562561 1.826231 0
-4.7912316 5.1615968 0.29000008 0
-4.7771282 5.1525073 0.56110692 0
5.7538152 3.8288 1.385294 0
-5.2780561 -4.6647954 -0.26927269 0
-4.8767581 -5.083827 -0.25713122 0
-5.4304452 -4.4864397 0.2860918 0
-3.3899727 -6.1017942 -0.98797202 0
-5.041214 -4.9212527 -0.26208365 0
7.0009236 0.15703803 -0.81470907 0
-4.8638902 5.0757914 -0.53074574 0
-5.2008586 4.752142 -0.26694745 0
-4.8619156 5.0745587 0.56162775 0
5.6927314 4.1426458 -0.37863928 0
-4.793191 -5.1628594 0.28995943 0
5.6955914 4.1218534 0.53793395 0
-4.450489 5.4637022 -0.2448172 0
-4.834033 5.0996408 0.5907284 0
-4.7142677 -5.2440376 0.019277573 0
7.0405083 0.10745991 0.38009906 0
6.9754248 -0.31033343 -0.98665333 0
-5.3567648 -4.5773406 0.28652954 0
-4.4497595 5.4631705 0.29193926 0
-4.7995048 -5.1669288 0.017753601 0
-3.2974763 6.1558995 -0.9828757 0
-5.0424838 -4.9219961 0.28845298 0
7.0155673 0.15167409 0.7051518 0
-4.6109047 5.3077345 0.56019104 0
-5.1088443 4.8302507 0.56315172 0
-4.4557896 5.4675651 0.023700595 0
-4.9736767 4.9664636 0.59106314 0
4.0254083 -5.7072749 -0.98807526 0
-5.1108484 4.8313856 -0.54146284 0
-4.6936588 5.2328234 0.59015775 0
-5.3589153 4.5784392 0.28648746 0
5.6950188 4.0980015 0.73207927 0
7.0316048 0.10733218 0.55547071 0
-5.1086226 4.8287826 0.59144282 0
6.8561273 0.39906359 1.6128974 0
-5.0297818 4.9145613 0.56269002 0
-5.2043686 -4.7540636 0.28743839 0
6.9038582 0.31667235 1.4188128 0
-5.0320854 4.9159098 -0.53826016 0
-4.7009501 5.2351823 -0.52453089 0
6.9006166 0.31947947 1.4356241 0
4.0888634 5.665287 -0.98542964 0
-4.6988959 5.2338161 0.56074178 0
4.1507854 5.6209092 -0.98231673 0
-5.3663397 -4.582232 0.0072858334 0
-4.844883 -5.1122622 0.43250322 0
-4.9835711 -4.9773264 0.4331423 0
-4.6166263 5.3116579 -0.5212056 0
5.7288036 3.9873881 1.0409608 0
7.0552173 0.089307368 0.14204133 0
-4.7155356 -5.2448807 -0.25290799 0
-4.5568056 5.3720317 0.43108284 0
7.0103536 0.15246356 -0.80413163 0
6.6525536 0.71561778 2.2487781 0
-5.4440193 -4.4931312 0.0057419538 0
-5.2867775 4.6694093 -0.27013594 0
5.707727 4.062016 0.86663294 0
-4.8015084 -5.1682205 -0.25552744 0
-5.3639441 -4.581008 -0.27255809 0
0.54352617 -6.9681511 -0.99104321 0
-5.5188847 -4.4017334 0.0042974949 0
6.7729568 0.51896256 1.9219241 0
-4.5299802 5.3855705 0.55980825 0
6.1627922 -3.2987778 -0.98963737 0
-5.1148229 -4.8336358 0.56327164 0
-5.0346818 -4.9174294 0.56278908 0
7.046587 0.087618887 -0.43016768 0
7.0557113 0.089404047 -0.2389369 0
-4.2808781 5.6098232 -0.24062669 0
-5.274158 -4.6627326 -0.54910672 0
-5.1969714 -4.7500134 -0.54584074 0
0.63358748 6.9640789 -0.98620045 0
-4.9794626 -4.9728165 0.59066319 0
5.6896544 4.114234 0.7621696 0
6.9828 -0.38541365 -0.98631823 0
7.0039005 0.15766484 0.89602542 0
-4.3702497 5.5406199 0.29225111 0
-4.3718524 5.5418234 -0.24335086 0
5.7830744 3.6585219 1.748924 0
-5.2751136 4.6632385 0.56429744 0
5.6861305 4.1097126 -0.82115066 0
-4.8760939 -5.0834122 -0.53251237 0
7.0566897 0.067482948 0.33168566 0
-4.5370703 5.3905835 -0.51872736 0
-5.1207991 -4.8370199 -0.54286689 0
5.7068195 4.0613036 -0.92442429 0
7.0611572 0.06674087 -0.23618287 0
-5.2923369 4.6723509 0.28676236 0
-5.2771649 -4.6643238 0.56433797 0
5.6949568 4.1444449 -0.56199694 0
7.0574255 0.089739382 0.33118463 0
-4.8338947 5.0994792 0.74745488 0
5.7280512 3.8976252 1.3891258 0
5.7540784 3.7646501 1.628871 0
-5.2000532 -4.7517009 0.56387556 0
5.823606 3.4489129 2.0333595 0
-4.6888485 5.2271352 -0.79773688 0
5.698945 4.1476688 0.51448321 0
-5.0168929 4.9070172 0.83622169 0
-5.0428495 -4.9222102 -0.53979164 0
-5.5216603 -4.4030523 -0.27805096 0
-4.6387749 -5.3268476 -0.25135589 0
5.671134 4.219234 -0.021391153 0
-4.6933889 5.2324915 0.74717498 0
-4.5567417 5.3719482 0.58901262 0
5.7353864 3.8811038 1.4182966 0
-5.2033257 4.7534928 -0.54673028 0
5.7829742 3.6779969 1.7317991 0
7.0492525 0.088140309 0.52006996 0
-5.3730435 4.5856566 -0.27345204 0
-5.3580728 -4.5780087 -0.55344957 0
7.0110769 0.152354 0.89181483 0
-5.3781543 4.5882678 0.0065906048 0
-4.7974834 -5.165626 -0.52976978 0
-5.3577595 -4.5778484 0.56488979 0
-5.250165 -4.6979904 0.59112108 0
-4.7251892 -5.2512999 0.29010701 0
-5.250577 4.6983938 0.59109426 0
-4.9644356 -5.0063086 -0.53679723 0
-4.4705029 -5.4782872 0.022746444 0
-4.9754038 4.968359 0.74755752 0
7.0695214 0.065351605 0.14274609 0
-4.5491705 5.3620439 0.74688292 0
7.0709977 0.065106392 -0.046789408 0
7.0331059 0.10735371 0.72980654 0
-4.9395823 4.9912796 0.83499765 0
-4.963809 -5.0059295 0.56251585 0
5.7110715 3.9941118 1.2040663 0
-4.8478136 -5.1156712 0.58974421 0
-4.6468143 -5.3323607 0.019616604 0
-4.7982569 -5.1661248 0.56154561 0
5.7434797 3.8783522 1.4150984 0
-4.9435701 4.993691 -0.81199944 0
-5.1220636 -4.8427148 0.5905416 0
5.6689749 4.2174368 0.33654881 0
-5.4580212 4.5000334 0.0049238205 0
5.8198729 3.442205 2.0797734 0
-5.2862535 4.6691322 -0.55078697 0
-4.8834939 -5.0880327 0.5620718 0
-4.2957191 5.6213031 0.025571227 0
-5.4540229 4.4980626 -0.27634656 0
-5.4544473 -4.4982719 -0.27638799 0
-4.7074804 -5.249867 0.58913624 0
5.6755924 4.2229452 0.15757775 0
-4.411087 5.5016246 0.58820486 0
-4.8613939 5.0742331 0.83378267 0
6.9575148 0.22607428 1.27228 0
5.6945171 4.1440892 0.69196784 0
-5.0273671 4.9131479 -0.81688273 0
7.0485744 0.088007629 -0.62507343 0
-4.5581841 -5.4055119 0.29098868 0
6.9598541 0.23632264 1.2596004 0
-4.6450953 -5.331182 0.29048514 0
-4.4182935 5.5116343 0.42901504 0
-4.7169986 -5.2458539 0.56112123 0
-5.0275984 -4.9132833 -0.81692517 0
-4.9795656 -4.9729285 0.74741387 0
-5.3821211 4.5575843 0.59117413 0
5.6978292 4.0998755 0.90402102 0
5.6681476 4.2381091 0.084767342 0
-4.5641336 -5.4097185 0.020855665 0
-4.7163553 -5.2608104 0.43029082 0
6.2196507 -3.2318251 -0.98853242 0
-5.1152363 -4.8356376 0.7475853 0
-4.7208819 -5.248436 -0.52746987 0
-4.7802258 5.1545033 0.83244431 0
4.0992336 -5.6861362 -0.99166918 0
4.2227974 5.5961113 -0.98539484 0
-4.5619535 -5.4081774 -0.2499066 0
0.63027906 -6.9820075 -0.99040949 0
0.72062874 6.9743152 -0.98502219 0
-4.6152072 5.3106852 -0.79547679 0
-4.6345487 -5.3239489 0.56069148 0
-4.3750849 5.544251 -0.5137651 0
6.9969625 -0.45984018 -0.98809934 0
-4.4608984 5.4712882 0.5597012 0
5.7499814 3.8260477 1.5643334 0
-4.551054 -5.4004703 -0.52083015 0
-5.1172962 4.8377728 0.74751639 0
-5.444581 -4.4934082 0.56558311 0
-4.4639835 5.4735365 -0.51737678 0
-4.5718384 -5.3916955 0.4293524 0
-4.7858028 5.1580977 -0.80459547 0
-4.9511847 -4.9982953 -0.81340885 0
6.9970169 0.15621537 1.0849068 0
-5.2486677 4.6965251 0.74769485 0
-5.4609666 4.5014858 0.2854979 0
-5.1111217 -4.8315401 0.83852768 0
-4.8673692 -5.0779643 0.83415186 0
6.8790832 0.36391813 1.6495526 0
-5.1919832 -4.747282 -0.8266263 0
-5.1060772 -4.8261447 0.90400147 0
6.9251924 0.29697901 1.4616914 0
-4.833806 5.0993772 0.90400195 0
-4.7005968 5.2349472 0.83126199 0
-5.6102633 -4.3170023 0.28452647 0
5.6718202 4.2429638 -0.14397979 0
7.0571694 0.067403257 -0.62134135 0
-4.8713088 5.0804238 -0.80944073 0
5.6967783 4.1459174 -0.74794197 0
-5.4489422 -4.4955578 -0.55888045 0
-5.538806 -4.4112015 0.28496158 0
-5.1158853 4.8342376 -0.82279658 0
-3.3220201 -6.1812468 -0.98973393 0
5.6830235 4.2291303 -0.20366228 0
-4.6422091 -5.3292022 -0.52501446 0
7.0737438 0.064650297 -0.43010849 0
-5.6179166 -4.3205066 0.0013940334 0
5.7304192 3.9886191 1.2196698 0
7.0684795 0.065524697 0.51992285 0
-4.9539323 -4.9999571 0.83587658 0
-5.5128736 -4.4160051 0.591048 0
-5.1157427 4.834157 0.83880603 0
-5.3795462 -4.5552049 0.7477541 0
7.0527086 0.088816583 0.7092247 0
-5.525496 -4.4048753 0.56618106 0
-4.212337 5.6945839 0.29278708 0
-4.2143617 5.6961966 -0.24071527 0
-5.376657 4.587503 0.56526017 0
5.7135248 4.0665669 1.0454252 0
-5.5270543 -4.4056158 -0.56270123 0
-4.4109254 5.5014005 0.74619615 0
-4.8501987 -5.1184449 0.74687338 0
4.3492804 5.5136509 -0.98243463 0
-5.2546501 -4.7023802 0.74750018 0
-4.2911444 5.6177645 0.55886686 0
-5.3924971 -4.5671725 0.59051645 0
-4.5569139 -5.404614 0.56038404 0
-5.5043678 -4.4085855 0.74787199 0
-4.4830036 -5.4873972 0.29122126 0
-5.4541774 4.4981384 -0.55959713 0
-4.6218252 5.3152232 0.83019531 0
-4.5391951 5.3920856 -0.79296458 0
-4.7109294 -5.241818 -0.80193675 0
5.6922503 4.1422567 0.86994803 0
4.1677332 -5.6537914 -0.99222887 0
7.0922375 0.017281413 0.1408329 0
-5.3804402 4.5894356 -0.55653358 0
-5.1999249 -4.7516308 0.84055638 0
-4.4861465 -5.4896874 -0.24867725 0
-5.4558249 4.498951 0.56580198 0
-5.2783027 -4.6649261 0.84201968 0
6.8381128 0.431418 1.8401146 0
-5.0410781 -4.9211736 0.83769035 0
-4.2218218 5.7021399 0.026001573 0
-5.3563609 4.5771341 -0.83703744 0
-4.8805628 -5.0862026 -0.81116867 0
7.0112896 0.15232182 1.0798879 0
7.0489545 0.068767667 -0.81596291 0
-5.2810726 -4.6663909 -0.83297896 0
-4.7980428 -5.1659865 -0.80690181 0
-4.9806185 4.9740853 0.90400207 0
-5.6217489 -4.3222613 -0.28299803 0
5.6848998 4.2306919 -0.38652474 0
-3.234477 6.2402902 -0.98628628 0
-5.2046447 4.7542148 -0.82891262 0
5.6761541 4.223413 -0.56890649 0
-4.7119913 -5.2554297 0.74648833 0
-4.4007344 -5.5635104 -0.24651074 0
5.6767411 4.2494688 0.31189942 0
5.7969875 3.5476415 2.0480704 0
5.7684679 3.7529063 1.7399459 0
-5.6073885 -4.3156862 -0.5669716 0
-5.2830157 4.6674194 -0.83332717 0
0.80767739 6.9836688 -0.9839319 0
7.0910096 0.017059386 0.33084321 0
5.7895732 3.6707132 1.8436589 0
-4.2703094 5.6405621 0.58665454 0
-4.3007298 5.6251788 -0.51252699 0
-4.3875403 5.5536032 0.55952621 0
4.2321701 -5.6136746 -0.99072909 0
4.2932262 5.5677342 -0.98771608 0
7.0642653 0.066224694 0.70837462 0
5.6811008 4.22753 0.51512647 0
6.9123173 0.31703663 1.5920725 0
6.9045615 0.31899709 1.6261184 0
5.6766243 4.2493143 -0.37478566 0
-4.5425844 5.3944821 0.82916105 0
-4.2778397 5.6516805 0.42661047 0
0.71709168 -6.9951491 -0.98990095 0
-4.3124042 5.6342092 0.29206395 0
-5.2845736 4.6682434 0.84239149 0
-4.7027674 5.2440553 0.90400279 0
-4.7999582 -5.1672211 0.83367467 0
-5.1294231 -4.8419037 -0.82526076 0
7.0124469 -0.53436887 -0.99052036 0
-4.6893253 5.2274795 1.0606794 0
-5.3621378 -4.5800853 0.84386671 0
-5.1194553 4.8400116 0.90400207 0
5.6716104 4.2426863 0.53935194 0
-5.5245037 4.4261489 0.59032953 0
-5.3634505 4.5807557 0.84394395 0
-5.2506685 4.698483 0.90400183 0
-5.6125555 -4.3180518 0.56691742 0
-4.4096003 -5.5701675 0.022448778 0
5.7176499 3.9788871 1.3969936 0
5.6822929 4.1342072 1.0476007 0
-4.6354775 -5.3245859 -0.79936969 0
7.091433 0.017135918 -0.43508291 0
7.1006699 0.018806398 -0.24275839 0
5.6524534 4.2995434 -0.20637304 0
-4.5697718 -5.3889928 0.74609423 0
-4.1387157 5.775147 0.026983261 0
-4.7183981 -5.2467842 0.83238232 0
-5.2102222 4.7572689 0.84117162 0
-4.8476973 -5.1155357 0.90400267 0
-4.9864578 -4.9804955 0.90400231 0
-4.5791607 -5.4012737 0.5872941 0
5.6993713 4.1267042 0.98877978 0
7.0476952 0.10756301 0.90402412 0
-5.4414487 -4.4918637 0.84550774 0
-3.1449995 6.2964964 -0.98246861 0
-5.2527733 -4.7005434 0.90400183 0
5.7410021 3.8768008 1.5860505 0
-5.1069088 4.8270068 1.0601389 0
6.9541993 0.23709631 1.4480104 0
-4.9379587 4.9902978 1.1088088 0
7.0119095 -0.61020547 -0.98892379 0
-4.2670445 5.6357412 0.74555075 0
-4.4648166 5.474143 -0.79097342 0
-4.4078741 -5.5688715 0.29142976 0
6.8636012 0.39825827 1.805594 0
-4.138155 5.7746868 -0.23984742 0
5.7035933 4.1037197 1.0762029 0
-5.1083956 -4.8285475 1.060189 0
-4.9747448 4.9676356 1.0604236 0
-4.4114394 5.5021143 0.90400362 0
-5.1011987 -4.8259211 1.1138699 0
-4.2192402 5.7000828 -0.51033556 0
7.1098914 0.020473957 -0.051421881 0
-4.3745594 5.5438561 0.82665467 0
-4.5619335 5.3787403 0.90400326 0
-4.463254 5.4730048 0.82818329 0
5.7308569 3.8756225 1.6425009 0
7.0530376 0.088880956 0.89904058 0
-4.4315801 -5.5300879 0.58657205 0
-5.3967581 4.5711098 0.74720919 0
-4.6384797 -5.3266449 0.83125365 0
5.6737356 4.2454958 -0.6061182 0
-4.4891024 -5.4918413 -0.52119303 0
-5.3721523 -4.5852017 -0.83984613 0
-5.5686541 4.4253883 0.0014096498 0
-4.1262426 5.7781868 0.42503405 0
-5.3841991 -4.5595045 0.90400183 0
5.6600657 4.306066 0.15538871 0
-5.0244746 4.9114547 1.1117866 0
-5.4484334 -4.495307 -0.84425759 0
7.1127367 -0.020988524 0.13974118 0
0.89513457 6.9892693 -0.98225939 0
7.012136 -0.68584859 -0.98782456 0
-5.5232553 -4.4038105 -0.84860981 0
5.6813993 4.2277789 0.69421816 0
-4.5519075 5.3656249 1.0612278 0
7.1158938 -0.021559477 -0.051955581 0
-4.4414501 -5.543797 0.42624438 0
-4.142992 5.7786551 0.29280591 0
-4.712184 -5.2556677 0.90400314 0
5.7116652 4.0651069 1.2247324 0
-4.8640561 -5.0758953 1.1072209 0
-4.8410177 5.1077657 1.0608039 0
-4.3254194 -5.6442766 0.29177666 0
-5.2447433 -4.6926842 1.0601809 0
5.738596 3.905426 1.5730023 0
6.2910843 -3.1782634 -0.99228704 0
-5.4521022 4.4971156 0.84613025 0
-4.7817907 5.1555123 1.1048751 0
-4.331069 -5.6486464 0.023229122 0
4.4223881 -5.4895449 -0.98668361 0
-4.2958684 5.6214185 -0.78358102 0
7.0694957 0.092101038 -0.82723975 0
-4.3850875 5.5517616 -0.78813255 0
-5.654995 -4.2833748 0.58999133 0
5.7053123 4.1528163 -0.93938744 0
-4.0549979 5.8469653 -0.23830104 0
-4.8664932 5.0774169 1.1074724 0
6.784668 0.519804 2.0963278 0
-5.7209201 -4.2392716 -0.0017856359 0
4.423594 5.4915891 -0.98731947 0
4.3030515 -5.5855269 -0.99316227 0
6.9644532 0.22763926 1.466064 0
-4.2250962 5.7047482 0.5588975 0
-4.7003145 5.2347593 1.1027088 0
-4.137454 5.7741122 -0.50824058 0
4.5421638 5.396626 -0.98212957 0
7.102797 0.019191027 0.52076578 0
7.0648303 0.066130817 0.89764237 0
-5.5136538 -4.4166851 0.90400183 0
-5.5567045 4.4197087 -0.56673211 0
7.0054688 0.15799505 1.2774038 0
4.3648357 -5.5408926 -0.99084008 0
-3.2521515 -6.2590737 -0.99129963 0
5.6649203 4.2140622 -0.94142783 0
5.7969713 3.6666789 1.9222033 0
-4.061316 5.8523011 0.027514219 0
-5.1924272 -4.7475252 1.1175065 0
7.0959787 0.017958045 -0.63161016 0
-4.4102783 -5.5706768 -0.51916885 0
-5.1138659 4.8330941 1.1151435 0
-4.3328567 -5.6500292 -0.24637586 0
6.3372207 -3.1017454 -0.98844481 0
7.1170969 -0.021776974 0.33038044 0
-4.2974358 5.6226311 0.8259424 0
5.672019 4.2432261 0.76696885 0
4.4851894 5.4476314 -0.98570859 0
-4.5661292 -5.4111295 -0.79818916 0
0.80357718 -7.010107 -0.99010849 0
5.6836624 4.2296624 -0.75786316 0
6.9238639 0.29665929 1.6558456 0
5.750895 3.8267035 1.7475171 0
-5.1938844 4.7483234 1.1176517 0
-4.243506 -5.7194138 -0.24397522 0
5.658247 4.3316755 0.028631926 0
7.0161247 -0.76125497 -0.98802507 0
-5.534008 -4.4089212 0.8479799 0
-5.530571 4.4314408 0.74706364 0
5.6629148 4.3085074 -0.39181674 0
-4.5641584 -5.4097362 0.83054578 0
-5.6073565 -4.3156714 0.84939718 0
-4.2128873 5.6950216 -0.78044116 0
-4.4100213 -5.5704837 0.56001699 0
-4.4772005 -5.4831681 0.82908773 0
5.6718359 4.3161516 -0.026909173 0
-5.7220602 -4.2397738 -0.28804624 0
5.8206425 3.4426274 2.2516026 0
-4.6205091 5.314321 1.1008182 0
-5.5771909 4.4294457 0.28421974 0
-4.956039 -5.0012312 1.1106572 0
-4.84834 -5.1162834 1.0610657 0
7.0451393 0.10752634 1.0785215 0
-5.7227993 -4.2400999 0.28328466 0
5.7202187 4.0055103 1.4320588 0
-4.5731745 -5.3934436 0.90400386 0
-5.3960466 4.5704522 0.90400231 0
6.8765788 0.36327749 1.8454297 0
-4.1406956 5.7767711 0.55854225 0
-5.6095634 -4.3166819 -0.85516334 0
-4.5012078 -5.5006633 0.56057179 0
-4.2113624 5.6938071 0.82469749 0
7.1017733 -0.019005895 -0.6327548 0
-5.2542181 4.7019572 1.0604899 0
5.6681061 4.3129559 0.33548462 0
5.65942 4.3325071 0.20471871 0
-5.0395479 -4.9202776 1.1133146 0
-5.6387587 -4.2700133 0.90400183 0
-4.83358 5.0991135 1.2172441 0
-4.972003 4.9646258 1.2168255 0
5.6785269 4.2253876 0.87363255 0
7.1279364 -0.023737192 -0.24616057 0
-5.5815187 4.4315028 -0.2838493 0
-4.5383639 5.3914981 1.098779 0
-4.0637045 5.8543181 0.29302466 0
-5.3828812 -4.5582867 1.0603552 0
-4.4515095 5.4644461 1.0963275 0
7.0174866 0.15138346 1.2705543 0
5.7619448 3.7738979 1.8575258 0
-4.7112241 -5.2420139 1.1038549 0
-4.4365311 -5.5369649 0.74517727 0
-4.3290606 -5.6470928 -0.5169248 0
5.7018003 4.1025243 1.2484713 0
-4.9915228 -4.9860563 1.0610044 0
7.1342077 -0.054607451 -0.052395344 0
-4.1238461 5.7744193 0.74468279 0
-4.7966452 -5.1650858 1.1064212 0
-4.3989868 -5.5621982 -0.79088545 0
5.6961532 4.1225743 1.2153025 0
-4.6947279 5.2341423 1.217927 0
5.731822 3.8710525 1.7566862 0
-5.5693245 4.4257069 0.56702805 0
5.6533928 4.3003483 0.69555068 0
-5.6579027 -4.2857676 0.74699426 0
-5.2821879 -4.6669812 1.1210816 0
5.6661196 4.3372588 -0.14990699 0
-5.7148933 -4.2366157 -0.57503402 0
7.1016831 0.018989563 0.71107006 0
4.6659522 5.3112206 -0.9810071 0
5.7017479 4.057322 1.403877 0
5.6594934 4.3325601 0.38020289 0
4.4917202 -5.4583449 -0.98907053 0
-4.4894099 -5.4920654 -0.79579329 0
-4.252162 -5.7263098 0.29189837 0
6.9096212 0.31692049 1.7651768 0
7.1307888 -0.055175304 0.3303746 0
-4.4155669 5.5078473 1.0619965 0
-5.4712062 4.5065331 -0.848279 0
-4.2575431 -5.7305965 0.023608088 0
7.1346984 -0.054525912 -0.24533629 0
-4.2742519 5.6463828 0.90400469 0
-4.7593899 5.1410747 1.3756051 0
