# .PCD v0.7 - Point Cloud Data file format
VERSION 0.7
FIELDS x y z intensity
SIZE 4 4 4 4
TYPE F F F F
COUNT 1 1 1 1
WIDTH 1426
HEIGHT 1
VIEWPOINT 0 0 0 1 0 0 0
POINTS 1426
DATA ascii
3.4286723 12.355017 -0.98986363 0
-12.36713 -2.7777686 2.1727271 0
4.0293541 11.954193 2.5013416 0
-12.340182 -2.7780533 2.3315873 0
4.0303383 12.218615 -0.0060014129 0
3.589504 12.316035 -0.98816013 0
4.0334473 12.02212 2.2164655 0
4.0316839 12.222285 0.29775906 0
3.9082427 -12.228257 -0.98437393 0
-2.1406369 -12.422592 2.6312361 0
4.0302401 12.218348 0.60123193 0
-2.1614418 12.480648 2.3768439 0
4.0692997 -12.195462 -0.98429155 0
-2.1544256 12.494853 2.3556275 0
3.753859 12.299026 -0.98947906 0
11.254794 -5.877573 2.2800968 0
3.9139781 12.258137 -0.98810959 0
4.0333986 12.226961 0.90418184 0
4.2290187 -12.156569 -0.98373139 0
-12.331748 -2.7760825 2.6192884 0
-2.0529389 -12.748807 -0.22386819 0
-2.1486807 -12.387586 2.9595122 0
-2.0534554 -12.750411 0.20932376 0
4.3880672 -12.115266 -0.98315346 0
11.29455 -5.915978 2.1307073 0
4.0318394 12.222708 1.2072399 0
-2.1371102 -12.443566 2.7837181 0
4.0304565 12.007661 2.6205807 0
-2.2412195 -12.070217 4.0741673 0
-2.0458989 -12.726927 1.0740635 0
-2.1600056 12.470175 2.673435 0
-2.2397208 12.212984 3.6267633 0
-2.0558653 -12.757901 -0.65951395 0
-2.0571213 -12.761806 0.64228511 0
-2.1598821 12.488853 2.6421645 0
-12.370441 -2.7781975 2.679785 0
4.5520272 -12.093863 -0.98538077 0
4.032939 12.225708 1.510776 0
4.0309515 11.963208 2.9748499 0
4.7091327 -12.044677 -0.98438346 0
-12.331804 -2.7760956 2.9099083 0
11.247896 -5.8726211 2.699893 0
-2.0722256 12.808749 -0.2271682 0
-2.0723953 12.809277 0.20824432 0
4.0250139 12.204096 1.8132863 0
-2.1539297 12.493383 2.7939386 0
-2.2547789 12.114523 4.0865822 0
11.284047 -5.9105167 2.5159013 0
-2.1396847 -12.419315 3.1318226 0
-2.0397558 -12.807386 0.67474973 0
-2.0446105 -12.825041 0.17633057 0
-12.581758 3.2241738 0.17252243 0
-12.580933 3.2240427 -0.33440644 0
-2.0720963 12.808347 -0.66415024 0
-11.843062 3.2611945 4.2370405 0
5.0229397 -11.946801 -0.98330104 0
4.8706665 -12.011886 -0.98576045 0
-2.1601562 12.471274 2.9734004 0
-2.1504631 -12.400588 3.2620707 0
-2.0771441 12.824036 0.64342618 0
-12.582829 3.2243438 0.67889643 0
-2.0553951 -12.75644 1.5107794 0
5.178545 -11.894135 -0.98270857 0
-2.0691347 12.799143 1.0780392 0
-2.0368786 -12.796924 1.1728883 0
-12.578262 3.2236187 -0.84297228 0
11.48878 -6.1155009 -0.34825182 0
11.491101 -6.1166897 0.27920723 0
-2.0536952 12.858078 0.17573249 0
4.0317969 12.014141 3.0341182 0
11.503963 -6.1232781 -0.035143554 0
-12.574593 3.2230363 1.1854699 0
4.0293493 12.215919 2.1190362 0
5.3381367 -11.853892 -0.984007 0
11.499658 -6.1210723 0.59164572 0
-2.1401868 -12.452679 3.2285709 0
-12.334542 -2.7767353 3.2032824 0
-2.1558237 12.474881 3.1430697 0
5.4915323 -11.794696 -0.98314536 0
11.504965 -6.1237912 -0.66604686 0
-12.648569 3.2217848 0.021772981 0
-12.645089 3.2208657 0.31660438 0
11.499292 -6.1208858 0.90419328 0
-2.0594845 12.879129 0.67604852 0
-2.0713863 12.80614 1.5153472 0
5.6453428 -11.737136 -0.98277903 0
11.498846 -6.1206565 -0.982903 0
-12.36211 -2.7771184 3.1904354 0
4.0281453 11.947369 3.4496469 0
11.289228 -5.9132113 2.9096096 0
11.253741 -5.8768172 3.1284518 0
-2.0401168 -12.8087 1.6741118 0
11.494238 -6.1182961 1.2165995 0
-12.66038 3.2249043 0.61017847 0
-2.0594053 -12.768904 1.9501452 0
-2.1611643 12.478622 3.2769108 0
-2.1531658 12.49112 3.2379384 0
10.928492 -7.1252027 -0.98290944 0
-2.0562749 12.867458 1.176722 0
-12.652062 3.2227073 0.90417027 0
5.802753 -11.689246 -0.98396826 0
5.950892 -11.617004 -0.98224652 0
-12.573588 3.2228768 1.6939583 0
4.0294962 12.216318 2.4252834 0
11.337639 -6.4714971 -0.98599553 0
11.147442 -6.8071537 -0.98604417 0
-12.642838 3.2202713 1.1977401 0
10.506022 -7.769485 -0.9837507 0
4.0279188 11.99539 3.4479399 0
11.498241 -6.120347 1.5295544 0
10.741631 -7.4634948 -0.98666251 0
-2.0708432 12.804452 1.9547303 0
10.040869 -8.3837786 -0.98347199 0
10.285159 -8.0854902 -0.98489845 0
-2.1405811 -12.4224 3.6405411 0
6.2565942 -11.497177 -0.98290968 0
6.1122227 -11.57782 -0.98518372 0
-2.055676 12.865281 1.6792459 0
-2.0546498 -12.754125 2.3896804 0
-12.654375 3.2233183 1.4921851 0
11.487759 -6.1149774 1.8422604 0
-2.1361523 -12.44073 3.6753759 0
-2.0404749 -12.810002 2.1779296 0
6.4149671 -11.449224 -0.985291 0
4.0336409 12.227621 2.7348549 0
-12.571724 3.2225809 2.2053847 0
11.289774 -5.9134946 3.3087282 0
6.5648069 -11.381404 -0.9853065 0
-2.1561532 12.476015 3.65343 0
11.247224 -5.872138 3.5604057 0
6.7121549 -11.308304 -0.98489428 0
-12.663398 3.2257013 1.7876439 0
-2.0512419 12.849155 2.1829154 0
6.8567295 -11.229769 -0.9840219 0
11.490705 -6.1164865 2.1568465 0
-2.0725498 12.809756 2.3989363 0
-2.1516762 12.48671 3.6883798 0
6.9997525 -11.148592 -0.98306298 0
-12.365165 -2.777514 3.7101259 0
4.0276546 12.211296 3.0421839 0
-12.646668 3.2212827 2.0820146 0
-2.0514345 -12.744132 2.8339915 0
4.0305605 11.961001 3.9390497 0
7.1514549 -11.084085 -0.98470044 0
7.4313154 -10.911187 -0.98272645 0
11.484491 -6.1133041 2.4717546 0
-2.0397873 -12.807502 2.6855564 0
11.656044 -6.2855229 0.22920215 0
7.2999768 -11.012957 -0.98572588 0
11.668403 -6.2921748 -0.16500837 0
7.5775676 -10.835998 -0.98375809 0
-2.139111 -12.417339 4.1554823 0
11.668026 -6.2919722 -0.56038111 0
-12.405346 -2.7779479 3.8036728 0
-12.5819 3.2241962 2.7230144 0
-2.0703278 12.802851 2.8459816 0
11.674805 -6.2956209 0.62256968 0
7.7223959 -10.757946 -0.98468697 0
-12.660354 3.2248974 2.3805389 0
11.658767 -6.2869883 -0.95690858 0
-1.9846408 13.131815 0.20333147 0
-1.986892 13.139171 -0.24235117 0
-2.0528593 12.855038 2.6933649 0
7.8633828 -10.673321 -0.98496997 0
7.9973707 -10.577739 -0.98394549 0
11.671078 -6.2936149 1.0165675 0
-1.9848425 13.132474 -0.68892062 0
-1.9857068 13.135298 0.64813209 0
8.1303463 -10.481012 -0.98302424 0
4.0333624 12.226862 3.3574615 0
8.2681503 -10.391594 -0.9834671 0
-12.645666 3.2210181 2.6772277 0
11.661707 -6.2885709 1.4111533 0
11.501214 -6.12187 2.7916789 0
-1.9844203 13.131094 1.0933084 0
8.4049616 -10.300546 -0.98396468 0
-2.0548038 -12.754602 3.2886009 0
8.5370398 -10.202798 -0.98374391 0
-2.1611166 12.493104 4.1766219 0
-12.357913 -2.7765746 4.2356958 0
8.6750002 -10.112856 -0.98501182 0
8.7996979 -10.005358 -0.98386705 0
-1.9822738 13.124081 1.5395527 0
-2.0415215 -12.813807 3.2004232 0
8.9322948 -9.9080744 -0.98459673 0
11.665971 -6.2908659 1.8093131 0
11.488961 -6.1155939 3.1092296 0
9.0616941 -9.8066034 -0.9849683 0
-12.586361 3.2249045 3.2460008 0
-2.0734749 12.812631 3.3026743 0
9.3079052 -9.5886335 -0.98417115 0
-12.429615 3.221627 3.836586 0
-12.667958 3.2269056 2.9814439 0
9.432539 -9.4814529 -0.98449647 0
9.196413 -9.7111979 -0.98661923 0
9.664629 -9.2485209 -0.98290658 0
9.5552683 -9.372057 -0.98475182 0
9.7829437 -9.1346664 -0.98296928 0
-2.0568962 12.869719 3.2116942 0
-1.9847817 13.132276 1.9899709 0
-12.402162 -2.7771089 4.345345 0
11.666279 -6.2910318 2.21053 0
9.9094582 -9.0288563 -0.98473096 0
10.02077 -8.9078159 -0.98413897 0
10.13042 -8.7853632 -0.98356855 0
-2.0538659 -12.751687 3.7476063 0
-12.653952 3.2232065 3.2820015 0
-2.038239 -13.306952 -0.2515468 0
10.252174 -8.6740341 -0.98530555 0
-2.0396771 -13.311651 0.20004869 0
10.36232 -8.5518808 -0.98538256 0
11.501785 -6.1221623 3.4338851 0
10.47335 -8.4304161 -0.98588598 0
-2.0392103 -13.310126 0.65132332 0
10.5763 -8.3020315 -0.98537242 0
10.776676 -8.0411663 -0.98436892 0
-1.9669344 13.339458 0.16800594 0
10.876686 -7.9107332 -0.98428357 0
10.681273 -8.1753912 -0.98547578 0
10.974733 -7.778832 -0.98418593 0
11.069516 -7.6445742 -0.98388278 0
4.031754 12.871717 0.21380711 0
-2.0396428 -12.806975 3.7196407 0
4.0330696 12.878571 -0.21086144 0
-2.0434313 -13.323919 -0.70643675 0
4.0309954 12.867764 0.63752258 0
-1.9669459 13.339501 0.68339479 0
11.610162 -6.8204985 -0.98400021 0
11.172491 -7.5160661 -0.98509729 0
11.440355 -7.101922 -0.98432827 0
11.353065 -7.241219 -0.98458481 0
11.774152 -6.5357037 -0.98400199 0
11.266712 -7.3812633 -0.98527694 0
11.697417 -6.6811299 -0.98460209 0
-2.0714359 12.806293 3.7629766 0
11.665158 -6.2904286 2.6159191 0
-12.566674 3.2217791 3.7708082 0
-1.9872282 13.140269 2.4448361 0
4.0336847 12.881777 -0.63725054 0
-2.0415001 -13.317609 1.1035306 0
11.543446 -6.9723644 -0.9866395 0
-1.9635649 13.32648 1.1987081 0
4.0314651 12.870212 1.0618153 0
-2.0585761 12.875827 3.7361269 0
-2.0444279 -13.327176 1.5581346 0
4.0322857 12.874488 1.4880009 0
-12.447427 3.2268698 4.3894024 0
-1.9670467 13.33989 1.7173591 0
11.664026 -6.2898192 3.0267572 0
-1.9864638 13.137772 2.9032154 0
4.0324478 12.875332 1.9166749 0
-2.0438519 -13.325294 2.0147555 0
-2.0422258 -12.816369 4.2513094 0
-1.9664993 13.337781 2.2381907 0
-12.57289 3.2227659 4.3097711 0
11.652228 -6.2834692 3.440937 0
-1.9836695 13.128641 3.3660746 0
-2.0413756 -13.317203 2.4741423 0
4.0337286 12.882003 2.3500407 0
-2.0545955 12.861352 4.2638097 0
12.026095 -6.6565719 0.20244336 0
4.0324464 13.143128 0.17648017 0
12.021452 -6.6531377 -0.69280624 0
12.03457 -6.6628408 -0.24516678 0
12.035181 -6.6632929 0.64915371 0
4.0326238 12.876249 2.7862446 0
4.0349388 13.158472 0.67519104 0
-1.971168 13.355762 2.7666421 0
-2.0414128 -13.317324 2.9397147 0
-2.0456371 -13.642561 0.16253972 0
4.0326376 13.144305 1.1740298 0
12.066463 -6.6984797 0.21945655 0
12.040876 -6.6675067 1.0969777 0
12.078295 -6.7050676 -0.19424319 0
-1.9837058 13.128758 3.8383775 0
-2.0494809 -13.657365 0.68912709 0
-2.0410938 -13.625064 1.2148752 0
12.081602 -6.7069097 -0.60955393 0
12.080873 -6.7065029 0.63223124 0
12.037228 -6.6648073 1.5459228 0
4.0325055 13.143492 1.6748772 0
4.0296259 12.860629 3.2256794 0
12.08403 -6.7082615 1.0459871 0
-1.9654484 13.719425 -0.27117229 0
-1.9641123 13.714826 0.6577183 0
-1.9634337 13.712489 -0.73701489 0
-1.9704323 13.736585 0.19328606 0
12.023771 -6.6548529 1.9958036 0
12.074123 -6.702745 1.4602051 0
-1.9690187 13.347484 3.2970033 0
-2.0449967 -13.640096 1.7444944 0
-2.0428243 -13.321935 3.4127431 0
-1.9655745 13.71986 1.1225958 0
4.0330343 13.146748 2.1792426 0
12.070389 -6.700665 1.8770344 0
-1.9661191 13.721735 1.5892572 0
4.0303783 12.864551 3.6764698 0
12.04152 -6.6679826 2.4545326 0
-2.0466866 -13.646603 2.2773664 0
4.03125 13.398319 -0.083860934 0
4.032053 13.400722 0.2459743 0
-1.9640794 13.714712 2.0577776 0
4.0323958 13.142816 2.6870301 0
12.08365 -6.7080498 2.3002353 0
-2.0390949 -13.30975 3.8890944 0
-1.9663901 13.337361 3.8335724 0
4.0385551 13.420161 0.57479537 0
4.0340128 13.406582 0.90421355 0
4.0341082 13.406867 1.2333064 0
-2.0399461 -13.620643 2.8099864 0
12.031877 -6.6608486 2.9132915 0
-1.9617524 13.7067 2.5296574 0
12.082014 -6.707139 2.7258947 0
4.0352468 13.410271 1.5629237 0
-13.248002 -2.7713597 3.9917722 0
4.0328207 13.145433 3.2014761 0
4.0332117 13.404186 1.8927245 0
-2.0452394 -13.994143 -0.28616458 0
-2.0481548 -14.00418 0.1884222 0
-2.0428104 -13.98578 -0.76191282 0
-1.9642015 14.01981 -0.082006812 0
-1.9622557 13.321439 4.3765211 0
-2.0457335 -13.995843 0.66282618 0
4.0294666 13.392989 2.2227983 0
12.073942 -6.7026443 3.1555405 0
-1.9650092 14.02729 0.24697661 0
-1.9614327 13.7056 3.0075989 0
-1.9641747 14.019565 0.57595325 0
-1.9649389 14.026638 -0.41305518 0
12.040781 -6.6674356 3.3828039 0
-2.0415611 -13.626863 3.3531103 0
-2.0441051 -13.990236 1.1373513 0
-13.228796 3.224962 4.0141687 0
-1.9657555 14.0342 0.90421295 0
4.0301313 13.394976 2.5553856 0
-1.9661138 14.037518 1.2328932 0
4.0313349 13.136285 3.7203875 0
-2.0463114 -13.997834 1.6144109 0
-1.9647391 14.024789 1.5613334 0
12.070639 -6.7008047 3.5929818 0
4.0320005 13.400565 2.8904202 0
-1.9652584 14.029596 1.8911247 0
-1.9660535 13.721509 3.4960814 0
-13.262519 -2.7749634 4.5685463 0
12.047402 -6.6723337 3.8599672 0
-2.0485959 -14.005699 2.0949829 0
-2.0424356 -13.630232 3.903429 0
-1.964061 14.018511 2.2207243 0
-14.056538 -2.7700105 0.25736916 0
12.449571 -7.0819554 -0.46976221 0
12.459782 -7.0875621 -0.12577331 0
-14.065422 -2.7718191 -0.067560494 0
12.461238 -7.0883613 0.21810412 0
12.456997 -7.0860329 0.5614655 0
-1.963376 14.214765 0.15320539 0
12.449395 -7.0818596 0.90423012 0
12.459708 -7.0875216 -0.81741881 0
-13.219273 3.2223065 4.587883 0
4.0315046 13.399081 3.2267041 0
-14.079981 -2.7747829 0.58040667 0
-2.0426574 -13.985253 2.575599 0
-14.073902 -2.7735455 0.90420699 0
12.447021 -7.0805564 1.2467303 0
-1.9666915 14.228329 0.69843817 0
-14.110863 -2.7733285 0.14713907 0
-14.096888 -2.7717211 0.70401525 0
-14.109753 -2.7732008 -0.41060364 0
4.0331206 13.147279 4.2525496 0
-1.9654236 14.031127 2.5540276 0
-1.963167 14.213909 1.2438021 0
-14.086874 -2.7761862 1.2281721 0
-14.10778 -2.7729738 -0.97023749 0
12.456057 -7.0855165 1.5900831 0
-14.066311 -2.7719998 1.5515103 0
-14.055845 3.2268753 0.14707446 0
12.512048 -7.1501617 0.64259648 0
-14.062302 3.2278056 -0.41119808 0
4.0298185 13.39404 3.5647926 0
-1.9692922 13.732659 3.9923434 0
12.532841 -7.1621342 0.20838463 0
12.534234 -7.1629362 -0.22686052 0
-14.115307 -2.7738395 1.2622967 0
-14.057869 3.2271669 0.70436108 0
-14.381308 -0.94995719 -0.98502719 0
-1.9643836 14.021497 2.8865972 0
-14.052046 3.2263277 -0.97049701 0
12.535109 -7.1634398 -0.66376173 0
-1.9627435 14.212177 1.7912698 0
12.456309 -7.0856552 1.9339612 0
-14.39584 0.95004284 -0.98629844 0
-2.0424232 -13.984447 3.0640407 0
4.0350223 13.886189 -0.26281142 0
4.0355101 13.888943 0.19633389 0
-14.072834 -2.7733278 1.876507 0
4.0333605 13.876806 -0.72285569 0
-14.404493 -0.95004284 -0.98705554 0
-14.052156 3.2263436 1.2620606 0
4.0352802 13.887643 0.65504301 0
-14.092262 -2.7711892 1.8202708 0
12.535413 -7.1636147 1.0783317 0
-2.0403686 -13.622271 4.4598017 0
-14.402393 -1.181145 -0.98701656 0
-14.405268 1.1811862 -0.98726809 0
-14.393745 -1.4120944 -0.98669398 0
4.0344996 13.883239 1.1140542 0
-14.400414 1.4122852 -0.98727763 0
-14.379463 -1.6427431 -0.98616707 0
-14.380743 1.6427982 -0.98627925 0
-14.075413 -2.7738528 2.2024984 0
12.463368 -7.0895309 2.2796998 0
12.539702 -7.1660843 1.5156255 0
-14.368402 -1.8734515 -0.98621142 0
-1.9648528 14.025843 3.2232094 0
-14.346035 -2.1034112 -0.9855535 0
-14.382019 1.8742321 -0.9874047 0
-14.058815 3.227303 1.822495 0
-1.9649479 14.221195 2.343327 0
-14.363825 2.1046865 -0.98711395 0
12.519541 -7.1544762 1.9524817 0
4.0367689 13.896048 1.5759652 0
12.447844 -7.0810075 2.6243086 0
-1.9629555 14.428103 0.18170595 0
-1.9628174 14.427602 -0.30684984 0
-14.073311 -2.7734253 2.5294752 0
-14.343615 2.3349197 -0.98693526 0
-1.961303 14.422094 0.66958511 0
-14.348797 -2.3353658 -0.9873904 0
-14.105564 -2.7727191 2.384532 0
-14.316002 2.5643976 -0.98639512 0
-14.324955 -2.5652976 -0.98718226 0
-1.9640262 14.431997 -0.79760528 0
-2.0465903 -13.998794 3.5627432 0
-1.964716 14.024572 3.5615482 0
-14.043858 3.2251475 2.3841543 0
-14.302364 2.7953522 -0.98737359 0
4.0361667 13.892649 2.0395975 0
-14.064432 -2.7716177 2.8571641 0
-1.9661555 14.43974 1.1589096 0
-14.263325 3.227381 -0.087879121 0
-14.268246 3.2285309 0.24318099 0
12.53157 -7.1614027 2.3973522 0
-14.281235 3.025707 -0.98798454 0
-14.266672 3.228163 0.57391453 0
12.463657 -7.0896897 2.974998 0
-1.9661765 14.226222 2.9001391 0
-1.9632559 14.429196 1.648751 0
-14.268389 3.2285645 0.9042151 0
-14.255636 3.2255845 1.234252 0
4.034761 13.884713 2.5062506 0
-14.109255 -2.7731435 2.9530599 0
-14.078972 -2.7745779 3.1905112 0
-2.0484962 -14.562998 0.1469481 0
-2.045269 -14.549797 0.70421457 0
-14.266956 3.2282295 1.5651894 0
-2.0446029 -13.991951 4.0646915 0
-1.9635773 14.430365 2.1423202 0
-14.057171 3.2270663 2.9541147 0
12.541047 -7.1668587 2.8475728 0
12.466529 -7.0912662 3.3264055 0
-14.268648 3.2286251 1.8966956 0
-2.0477376 -14.559895 1.2624683 0
-1.9652336 14.222364 3.46173 0
-14.07328 -2.7734189 3.5232229 0
4.0383821 13.905154 2.9831307 0
-14.265718 3.2279406 2.2289214 0
12.458622 -7.086925 3.6783495 0
-1.9629979 14.428258 2.6396868 0
12.529418 -7.1601629 3.2990942 0
-14.108625 -2.7730711 3.5273271 0
-2.0453157 -14.549987 1.8216944 0
-14.258698 3.2263 2.5619631 0
-14.056561 3.2269783 3.5286245 0
4.0344968 13.883223 3.4580536 0
-2.045054 -14.726652 -0.3231042 0
-2.0431142 -14.7196 0.67497087 0
-2.0456533 -14.551369 2.3850608 0
-2.0519652 -14.751785 0.17584634 0
-1.96279 14.427502 3.142705 0
-2.0424252 -14.717093 1.1739845 0
-2.0497947 -14.743892 -0.82590532 0
-14.264898 3.2277489 2.8983955 0
12.529097 -7.1599779 3.7605062 0
-1.9656639 14.224125 4.0320539 0
-2.0467587 -14.784198 -0.13575554 0
-2.0457268 -14.774642 0.55829525 0
-2.0469084 -14.785584 0.21146917 0
-2.0463252 -14.780186 -0.48380065 0
-14.104755 -2.7726259 4.1086464 0
-2.0465312 -14.782092 0.90423453 0
-2.0449276 -14.726193 1.6756992 0
-2.044323 -14.545925 2.9522657 0
4.0340428 13.88066 3.9443989 0
-2.0478826 -14.794603 1.2506418 0
-14.275511 3.2302282 3.2380791 0
-1.9617345 14.423663 3.6518054 0
-2.0474644 -14.790734 1.5972433 0
-14.080231 3.2303894 4.1166077 0
-2.0438085 -14.756881 1.9423065 0
-2.0469093 -14.7334 2.1809092 0
12.975996 -7.6106768 -0.31444895 0
12.980507 -7.6141148 0.17908514 0
12.975175 -7.6100512 0.67219782 0
-14.271734 3.2293458 3.5780988 0
12.975721 -7.6104679 -0.80986202 0
-1.9623806 14.210692 4.607585 0
12.974986 -7.6099072 1.1657825 0
-14.223049 -2.7716403 4.2106524 0
-2.0457153 -14.77454 2.2917466 0
4.0326862 14.542657 0.15233862 0
-14.129099 3.232127 4.2152138 0
-2.0463228 -14.554108 3.5281134 0
-2.0477452 -14.736441 2.69031 0
13.04099 -7.6718092 0.19623542 0
13.040626 -7.6715922 -0.2632314 0
-14.113214 -2.7735989 4.702466 0
-2.0443139 -14.761562 2.639935 0
4.0376558 14.576291 0.6996547 0
-1.9620872 14.424946 4.1703243 0
12.985879 -7.6182089 1.6623793 0
13.043713 -7.6734285 0.65521979 0
13.045513 -7.6745 -0.72488797 0
13.031273 -7.6660275 1.1140609 0
4.038229 14.580167 1.2484379 0
-14.084028 3.2309368 4.710453 0
13.035383 -7.6684732 1.5752566 0
-2.0452881 -14.770582 2.9925256 0
12.99174 -7.6226759 2.1622024 0
4.0356512 14.562724 1.7976222 0
-2.0489988 -14.740998 3.2059045 0
-14.110571 3.2272451 4.8187342 0
-2.0471697 -14.557572 4.1113024 0
13.042002 -7.672411 2.0399723 0
-14.228468 -2.7729034 4.8200645 0
-2.0456843 -14.77425 3.3469706 0
12.983252 -7.6162062 2.6639895 0
4.035089 14.558919 2.35063 0
13.030042 -7.6652951 2.5058067 0
-1.9607782 15.203042 0.13642955 0
-1.9590015 15.195294 0.71483159 0
-2.0485497 -14.739365 3.727396 0
-1.9606442 15.215231 0.16844273 0
4.0353918 14.810195 -0.1780045 0
-1.9624536 15.222199 -0.34707654 0
4.0375109 14.817192 0.18305898 0
-1.9613101 15.217796 0.68300343 0
-1.9594452 15.210614 -0.86331284 0
4.037035 14.815619 0.54388881 0
12.974528 -7.6095581 3.1705513 0
4.0340052 14.805615 0.90425169 0
-2.0463357 -14.780282 3.7047596 0
-1.9604392 15.201562 1.2941375 0
-1.9602022 15.21353 1.1980069 0
4.0373034 14.573905 2.9111392 0
4.0359936 14.812182 1.2645319 0
13.030825 -7.6657605 2.9787273 0
-1.9593158 15.210115 1.7146678 0
-2.0466943 -14.555628 4.7027311 0
-1.9605639 15.202106 1.8755035 0
-2.042973 -14.719086 4.2520642 0
4.0415583 14.830555 1.6260977 0
12.971823 -7.6074963 3.6850128 0
4.0373201 14.816562 1.9869778 0
-1.9618187 15.219754 2.2359037 0
-1.9572613 15.187705 2.4585896 0
4.0362215 14.566582 3.4745636 0
4.0333433 14.80343 2.3484378 0
13.044041 -7.673624 3.4615164 0
-1.9607558 15.215661 2.7600803 0
4.038908 14.821806 2.7146819 0
4.0389385 15.083098 0.17577326 0
4.0392447 15.084984 -0.32478982 0
13.029356 -7.6648874 3.9445372 0
4.0388622 15.082629 0.67561829 0
12.985617 -7.6180096 4.2131557 0
-1.9626284 15.21111 3.0518041 0
4.0364685 14.568254 4.0472679 0
4.0414462 15.098537 -0.82835639 0
4.038063 15.077706 1.1758034 0
4.0372219 14.816238 3.0803046 0
-2.0459113 -15.543617 -0.36447984 0
-2.0476389 -15.55027 0.16240072 0
-1.9620831 15.220773 3.2916393 0
-2.0475445 -15.549907 0.68899262 0
-2.0461812 -15.544656 -0.89350677 0
4.0410485 15.096089 1.6795392 0
-2.0484233 -15.58524 0.12958503 0
-2.048398 -15.58513 0.72181284 0
-2.0502729 -15.560414 1.2167892 0
4.040225 14.826153 3.450716 0
-1.9605544 15.202065 3.6468325 0
4.0398726 15.088849 2.18448 0
-2.0476785 -15.550422 1.7454278 0
-2.051023 -15.596576 1.3153765 0
13.235723 -8.5699892 -0.98340881 0
13.487547 -8.180686 -0.98498273 0
12.717067 -9.3374519 -0.98274255 0
12.996451 -8.9671936 -0.98512292 0
-1.9630282 15.224413 3.8304834 0
4.0364656 14.813742 3.8200631 0
4.0382514 14.580319 4.6322155 0
4.0370083 15.071217 2.6915872 0
12.168235 -10.083863 -0.98398924 0
11.87171 -10.439938 -0.98367321 0
-2.0497289 -15.590934 1.9104047 0
12.464383 -9.7268343 -0.98575556 0
11.246714 -11.123693 -0.98270631 0
-2.0478954 -15.551257 2.277957 0
11.569866 -10.791541 -0.98409915 0
10.930238 -11.462142 -0.98393989 0
10.602516 -11.790037 -0.98492587 0
10.256835 -12.098943 -0.984411 0
13.581993 -8.2251015 -0.78997958 0
13.602263 -8.2375574 -0.30376774 0
13.607237 -8.2406139 0.18263972 0
-2.0471101 -15.579515 2.5079463 0
13.600893 -8.2367153 0.66863012 0
-1.9634571 15.214723 4.2544818 0
13.621399 -8.2592506 0.14421344 0
4.0383043 15.079195 3.2081242 0
13.623519 -8.2604942 0.5243932 0
-2.049325 -15.556764 2.815897 0
13.630907 -8.2648315 -0.23761928 0
13.603146 -8.2381001 1.1552219 0
13.626263 -8.262105 -0.61967921 0
-1.9602714 15.213796 4.3744054 0
13.632462 -8.2657433 0.90427625 0
13.627884 -8.2630568 1.2842772 0
13.608957 -8.2416706 1.6441483 0
13.58104 -8.224515 2.1316886 0
-2.0478182 -15.582601 3.1121697 0
13.636123 -8.2678928 1.6651361 0
-2.0491414 -15.556056 3.3589725 0
4.0385456 15.080679 3.7307711 0
13.615968 -8.2560625 2.0449643 0
-15.09173 3.2290337 4.4303484 0
-1.9630787 15.213073 4.8689899 0
13.587755 -8.2286425 2.6275673 0
13.622944 -8.2601576 2.4278798 0
-2.051496 -15.598639 3.7259192 0
-2.0493622 -15.556907 3.9097915 0
-15.30863 -2.7682009 4.4549675 0
13.628227 -8.263258 2.8126123 0
4.0393043 15.085349 4.2628841 0
13.593158 -8.2319622 3.1292162 0
-15.877113 3.2324247 -0.50546557 0
-15.884783 3.2334185 0.11542869 0
-1.9592438 16.097858 0.15350926 0
-15.881596 3.2330055 0.73591518 0
-1.9610565 16.105276 -0.39193636 0
-1.9587798 16.095961 0.69785655 0
-1.9579153 16.092424 -0.93809092 0
13.614081 -8.2549553 3.1965637 0
-15.101694 3.2315071 5.0763073 0
-15.878881 3.2326539 1.3569589 0
-1.9588172 16.096113 1.242842 0
-2.0458264 -15.543289 4.465621 0
9.7330608 -13.04221 -0.98396969 0
-1.9578323 16.092085 1.7894602 0
13.605686 -8.2396612 3.6400986 0
-15.872475 3.2318239 1.9797626 0
-2.0507751 -15.595496 4.3446717 0
9.9268513 -12.91686 -0.98299766 0
13.627069 -8.262578 3.5874424 0
10.126478 -12.801604 -0.98333442 0
-1.9586914 16.095598 2.3400917 0
-15.318602 -2.7703753 5.1048641 0
10.325503 -12.685096 -0.9838388 0
-15.874617 3.2321014 2.6069896 0
10.524552 -12.568235 -0.98460686 0
13.631549 -8.2652082 3.9801707 0
-1.9530227 16.298756 0.73361349 0
13.607082 -8.2405186 4.1568193 0
10.713148 -12.435239 -0.98398173 0
-1.9591691 16.327436 0.1172744 0
-1.9562461 16.085596 2.8935151 0
10.904542 -12.306567 -0.98409605 0
11.081854 -12.157985 -0.98236537 0
-2.0512295 -15.597476 4.9746637 0
-1.9592237 16.327692 1.3517427 0
11.281123 -12.040184 -0.98423159 0
-15.88991 3.2340825 3.2418704 0
11.4579 -11.891562 -0.98304808 0
-16.33102 -2.7669606 0.10862017 0
-1.9598222 16.330482 1.9718699 0
11.642412 -11.753418 -0.9832927 0
-16.331753 -2.7670341 -0.52635163 0
-1.9574928 16.090696 3.4553933 0
-16.355595 -2.7654324 0.15222192 0
-16.340912 -2.7679548 0.7429533 0
-16.352844 -2.7649546 0.52851486 0
-2.0483341 -16.462336 -0.41119999 0
-16.363874 -2.7668722 -0.2254101 0
-2.0514159 -16.474943 0.1467334 0
11.825939 -11.613843 -0.98367417 0
-16.355486 -2.7654138 0.90427089 0
-16.324152 -2.7662702 1.3773513 0
-2.0528932 -16.480988 0.70477509 0
-2.0506258 -16.471712 -0.97225118 0
12.00541 -11.46909 -0.98376906 0
-1.9571083 16.31782 2.5940573 0
-16.323902 3.2315991 0.14964771 0
-15.869003 3.2313743 3.8778005 0
-16.371836 -2.7682562 1.2804766 0
-16.335091 3.2338769 -0.22948647 0
14.147165 -8.7870169 -0.40071964 0
-2.0535498 -16.483675 1.263751 0
-16.334427 3.2337415 0.5269146 0
12.184228 -11.323449 -0.98405623 0
14.13835 -8.780097 -0.95293057 0
14.160974 -8.7978563 0.1501441 0
-16.331373 3.23312 0.90427268 0
14.153034 -8.7916241 0.70107961 0
-16.321554 -2.7660089 2.014142 0
-16.362024 -2.7665503 1.6566262 0
12.358707 -11.172639 -0.98404181 0
14.140379 -8.7816887 1.2516675 0
-16.332716 3.2333934 1.2815909 0
-2.0516081 -16.475729 1.8240128 0
12.525208 -11.012912 -0.98326921 0
-1.9603181 16.102255 4.0268559 0
-16.361238 -2.7664139 2.0337696 0
-1.9553587 16.309654 3.2214236 0
-16.346678 3.2362356 1.6599827 0
12.706001 -10.868896 -0.98464382 0
14.14745 -8.78724 1.8053427 0
-2.0493784 -16.466608 2.3869867 0
-16.325188 -2.7663741 2.655422 0
14.2308 -8.8722296 0.16756773 0
-16.331121 3.2330687 2.0377531 0
12.874111 -10.710875 -0.98465407 0
14.225828 -8.8690758 0.68372941 0
14.236144 -8.8756199 -0.34965795 0
-1.8581402 -16.65546 -0.9840132 0
-16.381159 -2.7698774 2.4140697 0
13.032822 -10.54321 -0.98377514 0
-1.6293876 -16.688564 -0.98250711 0
14.240631 -8.8784666 -0.86913443 0
14.225035 -8.8685732 1.2003684 0
4.0404911 16.299212 0.72944367 0
-16.323397 3.2314961 2.4167624 0
4.0434961 16.321777 0.1215589 0
-16.354784 -2.7652915 2.7914753 0
13.201205 -10.385454 -0.98439658 0
-1.4046586 -16.739571 -0.9828949 0
14.152315 -8.7910595 2.3626966 0
-15.889463 3.2340248 4.530571 0
13.353228 -10.21162 -0.98329973 0
4.0399685 16.295286 1.3374648 0
-2.0499849 -16.46909 2.9560425 0
-1.959276 16.09799 4.6040812 0
-1.1802449 -16.793245 -0.98380554 0
-1.876899 16.737265 -0.99135578 0
14.24364 -8.8803759 1.7208462 0
-1.9573271 16.318842 3.8586311 0
-2.0516062 -16.75878 0.10957432 0
-1.6479139 16.775015 -0.99024224 0
13.527431 -10.058936 -0.98517323 0
4.0382776 16.282595 1.9466643 0
-0.95309711 -16.832878 -0.98375332 0
-16.338879 3.2346478 2.7998242 0
-16.337822 -2.7676444 3.3039141 0
-0.7230432 -16.853968 -0.98234785 0
-2.0514021 -16.757826 0.74180853 0
-16.369982 -2.7679338 3.1756244 0
14.148076 -8.7877321 2.9234514 0
13.68395 -9.889307 -0.98519289 0
-1.4219615 16.826357 -0.99063706 0
13.830856 -9.7111263 -0.98437583 0
-0.49596858 -16.893301 -0.98284805 0
14.245897 -8.8818083 2.2436802 0
-1.1939018 16.867252 -0.99038959 0
-0.96375608 16.895662 -0.98932481 0
-16.335121 3.2338831 3.1829548 0
13.985395 -9.5397768 -0.98474395 0
-2.0555148 -16.777018 1.3758256 0
-2.0491824 -16.465807 3.5304542 0
-0.2694962 -16.939108 -0.98420513 0
-16.363558 -2.7668169 3.5594082 0
-0.038830042 -16.951698 -0.9829216 0
14.138216 -9.3667784 -0.98519313 0
4.0410638 16.303514 2.5628643 0
-0.73795462 16.950119 -0.99086046 0
-0.50570178 16.962599 -0.98897028 0
4.0427656 16.510868 0.15113509 0
14.23415 -8.8743553 2.7685778 0
4.0429516 16.512127 -0.39873123 0
4.0379562 16.512112 0.50596809 0
4.040184 16.520306 -0.29301453 0
0.18973815 -16.982073 -0.98349345 0
4.042098 16.527348 0.10647118 0
14.28653 -9.189887 -0.98541021 0
0.42093897 -16.983381 -0.98180044 0
14.151773 -8.7906342 3.4920263 0
-2.0556569 -16.777679 2.0118828 0
-15.887316 3.2337465 5.1892967 0
4.0426674 16.510204 -0.95042145 0
4.0448503 16.524975 0.70051372 0
-1.9556894 16.311199 4.501235 0
-16.340014 -2.7627237 3.9425631 0
-16.336216 -2.7674828 3.9577284 0
-16.342566 3.2353988 3.570302 0
4.0423861 16.508303 1.2499285 0
-0.27862096 17.011589 -0.99059641 0
4.0439835 16.534285 0.90429914 0
0.65005088 -17.007908 -0.98243558 0
4.0420341 16.527115 1.3029919 0
-0.0485847 17.03928 -0.99063134 0
4.0401735 16.493328 1.8003287 0
-2.0471926 -16.457666 4.1113243 0
-2.0514646 -16.758116 2.6493464 0
0.18205583 17.061346 -0.99046147 0
0.87886894 -17.042662 -0.98425353 0
4.0414772 16.525066 1.7020187 0
1.1098503 -17.03879 -0.9829756 0
4.0425429 16.314621 3.1842837 0
14.24353 -8.8803062 3.3032007 0
0.41338003 17.075026 -0.9898454 0
-16.338495 3.23457 3.9587669 0
1.340256 -17.043087 -0.98270226 0
0.64368701 17.101374 -0.9906317 0
4.0427265 16.529661 2.1022954 0
4.041048 16.499245 2.3556352 0
14.1521 -8.7908897 4.0677142 0
1.5705585 -17.053068 -0.98321486 0
0.87520778 17.110809 -0.99022424 0
1.8010238 -17.048454 -0.98273921 0
-1.9515734 17.062901 0.13714838 0
-16.2122 3.2352941 4.6821938 0
1.1064572 17.124954 -0.99051976 0
2.0314419 -17.047272 -0.9828521 0
-16.333389 -2.7671988 4.6200838 0
-2.0518603 -16.759964 3.2943649 0
4.0436487 16.533052 2.5039835 0
1.3380697 17.130363 -0.99034047 0
-1.9566464 17.085024 0.71464777 0
2.2616956 -17.038364 -0.98257768 0
-1.9603209 17.101048 -0.44270986 0
14.243772 -8.8804588 3.8434134 0
4.0401115 16.492908 2.9141819 0
4.0419827 16.310413 3.8103991 0
-1.9582775 16.323275 5.1591387 0
1.5696917 17.133833 -0.99028134 0
-1.9558794 17.081678 1.2930684 0
2.4928906 -17.0506 -0.98444319 0
1.8013492 17.139328 -0.99068964 0
-2.053081 -16.481754 4.7099371 0
2.7223542 -17.02359 -0.98316061 0
4.0456171 16.540297 2.9080527 0
2.0329328 17.130579 -0.99014175 0
2.952085 -17.005089 -0.98291099 0
14.144464 -8.7848959 4.6500769 0
2.264595 17.128372 -0.99045634 0
-1.9591427 17.095909 1.8749475 0
3.1829476 -16.999594 -0.98409235 0
2.4960196 17.117819 -0.99033058 0
3.410831 -16.961302 -0.98268092 0
4.0438643 16.533848 3.3126831 0
-2.0532951 -16.766659 3.9476542 0
2.7272053 17.103239 -0.99014175 0
3.6397822 -16.935532 -0.98265743 0
14.245801 -8.8817472 4.3929949 0
4.043469 16.515629 3.484201 0
-1.9541576 17.074171 2.4568846 0
-16.20171 3.2328489 5.3629656 0
-16.314318 -2.7652814 5.2886305 0
3.8695221 -16.915382 -0.98341906 0
2.9593673 17.10182 -0.99139786 0
4.0425749 16.314861 4.4467897 0
3.1895919 17.073669 -0.99059904 0
4.097445 -16.880909 -0.98320615 0
4.3238201 -16.837048 -0.98244929 0
4.0417137 16.525934 3.7194099 0
3.4201331 17.050625 -0.990538 0
-16.542103 -2.7638404 4.7334261 0
4.5503654 -16.795298 -0.98216558 0
3.6496406 17.018631 -0.98997879 0
4.778677 -16.762991 -0.98301101 0
3.8800611 16.994524 -0.99040413 0
-1.9560056 17.08223 3.0471115 0
4.0413847 16.501522 4.0550318 0
5.0040607 -16.714926 -0.98274255 0
-2.0517597 -16.759495 4.6070824 0
5.231534 -16.676472 -0.98362327 0
4.044445 16.535984 4.1323853 0
5.4559784 -16.623777 -0.98351872 0
5.6788845 -16.564924 -0.98314774 0
4.0416927 16.308237 5.090848 0
5.9018173 -16.506458 -0.98309863 0
-1.9548974 17.077396 3.6419125 0
6.1236677 -16.44405 -0.98298037 0
6.3439765 -16.376442 -0.98267627 0
4.0416861 16.503567 4.6385117 0
6.7803798 -16.228642 -0.9817729 0
6.5668826 -16.317284 -0.9834342 0
-16.537682 -2.7629426 5.4241037 0
-2.0537043 -17.50827 0.12917268 0
-2.0538888 -17.509073 -0.4646486 0
-2.0525112 -17.503067 0.72213411 0
7.0004311 -16.160482 -0.98228157 0
7.2183089 -16.085688 -0.98246777 0
7.4330091 -16.00218 -0.982131 0
-2.0544505 -17.511524 1.3161802 0
-2.0506678 -16.754398 5.2772799 0
7.6513567 -15.92809 -0.98296642 0
7.8622131 -15.834936 -0.98229802 0
-1.9560134 17.604975 0.095447659 0
-1.9536107 17.592924 0.75573778 0
-1.9587336 17.094126 4.2496033 0
-2.0519485 -17.500614 1.9112735 0
8.0800686 -15.758573 -0.98350978 0
8.2916393 -15.666995 -0.98356998 0
-1.9543574 17.596668 1.4168186 0
8.5008736 -15.5702 -0.98341882 0
14.944494 -9.5924435 0.70111406 0
14.955102 -9.5993881 -0.40187889 0
14.959814 -9.6024733 0.14996624 0
8.7119493 -15.477251 -0.98392928 0
8.9137754 -15.365226 -0.98287368 0
14.953738 -9.5984955 -0.95570362 0
-2.0551662 -17.514645 2.5123718 0
14.954827 -9.5992079 1.2532616 0
9.1241684 -15.270473 -0.9837935 0
9.3246679 -15.156441 -0.98310614 0
-1.9535942 17.59284 2.0799153 0
9.7246208 -14.927429 -0.98248065 0
9.5348473 -15.060308 -0.98448777 0
9.9237938 -14.811677 -0.98247123 0
14.959095 -9.6020021 1.8076637 0
10.126728 -14.702013 -0.98337626 0
-1.9599981 17.09964 4.8652964 0
10.326561 -14.586775 -0.98401237 0
-2.0547466 -17.512815 3.1170793 0
10.710335 -14.33104 -0.98353958 0
-1.9550965 17.600376 2.7482252 0
14.952537 -9.5977087 2.3642321 0
10.527928 -14.473431 -0.98514891 0
10.906062 -14.208767 -0.98432994 0
11.090087 -14.069541 -0.98360682 0
15.07896 -9.7242231 0.050818563 0
15.078301 -9.7238111 -0.37704182 0
11.273485 -13.929782 -0.98310256 0
15.069622 -9.7183752 -0.80537748 0
11.454436 -13.786983 -0.98254585 0
15.083334 -9.7269621 0.47768688 0
15.072236 -9.7200127 0.90433288 0
11.643188 -13.654413 -0.98340309 0
11.81986 -13.506269 -0.98282456 0
15.075368 -9.7219734 1.3307612 0
12.005223 -13.368864 -0.98374331 0
14.957519 -9.6009703 2.9272289 0
12.188248 -13.228173 -0.98459888 0
12.526731 -12.914601 -0.98346829 0
12.36149 -13.075817 -0.98441136 0
-2.0557609 -17.517237 3.7296281 0
12.862888 -12.599116 -0.98323202 0
12.702524 -12.765147 -0.98419642 0
-1.9562688 17.606256 3.4225626 0
15.090674 -9.7315588 1.7584941 0
13.192389 -12.276731 -0.98331153 0
13.040919 -12.451453 -0.98478615 0
13.361402 -12.119479 -0.98429179 0
13.522388 -11.954225 -0.98456943 0
15.080575 -9.725234 2.1859007 0
13.675764 -11.781875 -0.98422551 0
13.980556 -11.435629 -0.98418641 0
14.128905 -11.259028 -0.98413324 0
13.840442 -11.61958 -0.98549414 0
14.948666 -9.5951738 3.4936924 0
14.420302 -10.90143 -0.98429072 0
14.280707 -11.08518 -0.98475516 0
14.69669 -10.53213 -0.9839381 0
14.562672 -10.719926 -0.98442733 0
14.834464 -10.34717 -0.98414934 0
15.094396 -9.9661665 -0.98376274 0
15.072436 -9.7201376 2.6143622 0
14.97565 -10.164443 -0.98500597 0
-2.0544486 -17.511517 4.3484659 0
-1.9536676 17.593208 4.1010704 0
15.075555 -9.7220907 3.0457964 0
-2.05545 -18.103712 0.086570859 0
14.96308 -9.6046114 4.0735741 0
-2.0580239 -18.116625 0.76505888 0
-2.0568333 -18.110651 1.4442854 0
15.087082 -9.7293091 3.4811516 0
-1.9533234 18.200159 0.11776137 0
-1.9533308 18.200193 -0.498869 0
-2.052793 -17.504295 4.9765377 0
-1.9527621 18.19754 0.73359179 0
-1.9527743 17.588728 4.7899342 0
-2.0555582 -18.104258 2.1255388 0
-1.9521966 18.194901 1.3499851 0
14.95075 -9.5965385 4.6555309 0
15.090083 -9.7311888 3.9183478 0
-1.9527676 18.197567 1.9689248 0
-17.454033 3.236007 4.9619102 0
-2.0561838 -18.107395 2.8117046 0
-18.146301 3.2374263 -0.62354434 0
-18.169086 3.240047 0.075835705 0
15.080684 -9.7253017 4.3563118 0
-18.171696 3.2403469 0.77560997 0
-1.952781 18.197628 2.5915217 0
-18.147253 3.2375357 1.4749944 0
-1.951587 17.582773 5.4892702 0
-2.0561147 -18.107048 3.5034413 0
-1.9502695 18.185909 3.217577 0
-18.168642 3.2399957 2.1792581 0
-17.460665 3.2374532 5.6923141 0
15.614884 -10.263731 0.1143508 0
-2.0536737 -18.094805 4.20049 0
4.0470028 18.24811 0.12109518 0
-1.9504948 18.18696 3.852293 0
4.0470333 18.248339 -0.48886961 0
15.621681 -10.269225 -0.50956494 0
4.0465727 18.244884 0.73024797 0
-18.191717 3.2426496 2.889555 0
15.619575 -10.267523 0.73715425 0
4.0466394 18.245384 1.3401132 0
15.623441 -10.270648 1.3610835 0
-2.0583363 -18.690186 -0.52513134 0
15.630048 -10.27599 1.9879565 0
-2.0598946 -18.697456 0.10888386 0
-18.177525 3.2410171 3.6016569 0
4.0496621 18.268082 1.9542093 0
-2.0598683 -18.697332 0.74251378 0
-1.9503691 18.186373 4.4953737 0
-2.057415 -18.685884 1.3763008 0
-2.0547442 -18.100174 4.9103336 0
-17.967607 -2.7604454 5.056262 0
4.0476675 18.253103 2.5690067 0
15.620663 -10.268402 2.6167421 0
-2.0583024 -18.690027 2.0129876 0
4.0476446 18.473602 0.084282875 0
15.777236 -10.4273 0.13011253 0
15.774496 -10.42545 -0.46161032 0
15.772956 -10.424411 0.72119725 0
4.0487881 18.483238 0.76728654 0
15.608603 -10.258653 3.2495518 0
-18.173552 3.2405603 4.3226757 0
4.0477018 18.253361 3.1904736 0
4.0478601 18.475418 1.4508801 0
15.788096 -10.434635 1.3138702 0
-2.0559745 -18.679163 2.6519892 0
-1.9489295 18.179655 5.1471844 0
15.778688 -10.428282 1.9074035 0
4.0462914 18.462194 2.1359534 0
-2.0561266 -18.107107 5.6325302 0
-1.94982 18.970375 -0.42653644 0
-1.9502184 18.975414 0.017659545 0
4.0470386 18.248381 3.8178439 0
-1.949965 18.972208 0.46132123 0
4.048831 18.650465 0.010640621 0
4.0478287 18.646313 -0.43713129 0
-2.058043 -18.688816 3.2990379 0
-17.978302 -2.7624586 5.8029184 0
15.791996 -10.437268 2.5071445 0
4.0499849 18.655252 0.45762658 0
-1.9503419 18.976976 0.9043535 0
15.623911 -10.271028 3.8951521 0
4.0478067 18.646223 0.90435755 0
-1.9508176 18.982994 -0.87359822 0
4.0467534 18.466087 2.8264089 0
-1.9507008 18.981514 1.3476036 0
4.0484266 18.64879 1.3509347 0
-18.178802 3.2411644 5.0554123 0
-1.9506793 18.981245 1.7913222 0
-1.9504216 19.066835 0.070406079 0
4.0483856 18.648621 1.7979887 0
-1.949661 19.062714 0.78092074 0
15.792035 -10.437295 3.1106415 0
4.0459795 18.638645 2.2452998 0
-1.9482758 19.055208 1.4918289 0
4.0468702 18.24712 4.4543028 0
-2.0594521 -18.695391 3.9533653 0
-1.9518697 18.9963 2.2370679 0
4.048296 18.479092 3.524539 0
15.631756 -10.27737 4.5487452 0
4.047555 18.645178 2.695178 0
15.776376 -10.42672 3.7171717 0
-1.9476452 19.05179 2.2051735 0
-1.9516428 18.993429 2.6832929 0
-1.9499583 18.972126 3.1291656 0
-18.168184 3.239943 5.7961521 0
4.0508156 18.658695 3.1481705 0
-19.08025 3.2391558 0.023473501 0
-2.0576754 -18.687101 4.6135998 0
-19.085396 3.2400506 -0.41852438 0
-19.086264 3.2402015 0.46400821 0
4.0476079 18.473291 4.2276735 0
-1.9488816 19.058491 2.9239101 0
4.0485983 18.260096 5.104866 0
-19.09519 3.2417533 0.90435028 0
15.777267 -10.427322 4.3352757 0
-19.086624 3.2402642 1.3447011 0
15.623834 -10.270966 5.2082405 0
4.0478563 18.646427 3.6005559 0
-1.9512205 18.988089 3.5817308 0
-19.08429 3.2398582 1.7854197 0
-19.25761 -2.7579622 0.05777061 0
-19.257481 -2.757951 0.79362702 0
-19.08757 3.2404284 2.2273841 0
-19.287487 -2.7605343 -0.68055737 0
-19.254194 -2.757668 1.530206 0
-1.951318 18.989323 4.0355868 0
-1.950635 19.067991 3.649766 0
4.0489645 18.65102 4.0581741 0
-2.0589056 -18.692841 5.2878141 0
4.047102 18.469025 4.9403648 0
-1.9461956 19.455734 0.096324086 0
-19.09915 3.2424419 2.6717324 0
15.787297 -10.434095 4.9664564 0
-1.9464777 19.45715 0.75510097 0
-1.9482841 19.466209 -0.56379092 0
-19.255186 -2.7577534 2.2696309 0
-1.9504104 18.97784 4.4905844 0
4.0498466 18.654678 4.5193486 0
-19.098812 3.242383 3.1171513 0
-1.9496996 19.473309 1.4155703 0
-1.9511993 19.071051 4.3831005 0
-1.9489465 19.469532 2.0778356 0
-19.253801 -2.7576342 3.0133648 0
-19.084133 3.2398307 3.5629392 0
-19.542089 -2.7577848 0.005759716 0
4.047123 18.4692 5.6655378 0
-1.9455531 19.452511 2.7422323 0
-19.548153 -2.7586608 -0.44518769 0
-19.54962 -2.7588727 0.45512652 0
-2.0592442 -19.656544 0.059938908 0
-19.550478 -2.7589965 0.90436101 0
-19.083633 3.2397439 4.0133247 0
-2.0596151 -19.658554 0.79149675 0
-19.551153 -2.759094 1.353632 0
-2.0572724 -19.645861 1.5233064 0
-19.255478 -2.7577786 3.7638927 0
-19.54368 -2.7580147 1.8030391 0
-1.9509709 19.069813 5.1256685 0
-1.9485457 19.467522 3.4163065 0
-19.541367 -2.7576804 2.2534351 0
-19.08573 3.2401083 4.4676442 0
-18.889574 3.2406185 5.2864466 0
16.045685 -11.697948 -0.98376513 0
16.386406 -11.227893 -0.98510444 0
-2.0587325 -19.653772 2.2587292 0
15.350684 -12.627119 -0.98412561 0
15.715755 -12.175696 -0.98521769 0
14.591541 -13.504427 -0.98299873 0
-19.539341 -2.7573879 2.7052188 0
14.202428 -13.934608 -0.98357451 0
14.991572 -13.083335 -0.98530209 0
13.795978 -14.348507 -0.98348343 0
13.380175 -14.753046 -0.983711 0
12.953692 -15.146447 -0.98405194 0
12.514789 -15.526046 -0.98421347 0
-19.253429 -2.7576022 4.5221605 0
12.06232 -15.88935 -0.9839499 0
-19.529129 -2.7559128 3.1579089 0
11.600075 -16.240009 -0.9837482 0
-1.9488566 19.46908 4.0962877 0
11.129826 -16.579824 -0.98384225 0
10.646017 -16.899965 -0.98325932 0
-2.061512 -19.668835 3.0001163 0
10.155262 -17.209059 -0.98301196 0
-1.9483728 19.055733 5.8767195 0
-19.549816 -2.7589011 3.6169777 0
-18.890478 3.2408025 6.0674047 0
-2.0620975 -19.672007 3.7470474 0
3.7212832 -19.763599 -0.98157132 0
-1.9485528 19.467558 4.7849493 0
-2.0601826 -20.027452 -0.59378326 0
-19.535801 -2.7568765 4.0742731 0
-2.0599246 -20.026159 0.76522851 0
-2.0632267 -20.042721 0.085876584 0
-19.249071 -2.7572269 5.2901134 0
3.1546624 -19.886389 -0.98263979 0
2.5817602 -19.975351 -0.98204887 0
2.0076692 -20.055546 -0.98218489 0
-2.0608544 -20.030823 1.4453633 0
1.4321243 -20.126217 -0.98297441 0
0.85442722 -20.178513 -0.9835906 0
0.27470839 -20.198336 -0.98272276 0
-0.30508137 -20.200451 -0.9817555 0
16.723713 -11.381729 0.10706496 0
-0.88456607 -20.193834 -0.98152578 0
3.7427099 19.865118 -0.99125588 0
-2.0600648 -20.026861 2.1275554 0
16.730844 -11.386695 -0.53143764 0
-19.538916 -2.7573264 4.5376811 0
3.1718619 19.981276 -0.99164093 0
-1.4642661 -20.184814 -0.98262453 0
16.739267 -11.39256 0.74466574 0
2.5966074 20.073175 -0.99128437 0
-2.0596213 -19.658588 4.4992342 0
1.4389883 20.199615 -0.98985541 0
-2.0431185 -20.150454 -0.98290932 0
2.0195694 20.152657 -0.99131703 0
0.85885417 20.246996 -0.98999608 0
16.735098 -11.389656 1.3831091 0
0.277946 20.28857 -0.99115074 0
-1.9484057 19.46682 5.484911 0
-0.30433488 20.304512 -0.99146879 0
-0.88658595 20.287695 -0.99028885 0
-2.0618086 -20.035606 2.8152366 0
16.745262 -11.396734 2.0250664 0
-1.4693882 20.286753 -0.99215138 0
-19.251711 -2.7574544 6.0721226 0
16.737774 -11.39152 2.6691844 0
-2.0629339 -20.041252 3.508965 0
-2.0613265 -19.66783 5.2660627 0
-2.0615463 -20.383539 0.42840481 0
-2.0629139 -20.400837 -0.048907578 0
16.731888 -11.387422 3.3185196 0
-2.0627565 -20.398846 -0.52671158 0
-2.0623012 -20.393087 0.90439403 0
16.942394 -11.598671 -0.069421113 0
16.937305 -11.595278 -0.55722821 0
-2.0618601 -20.387503 1.380476 0
16.944637 -11.600168 0.41769361 0
-19.617279 -2.7552545 5.4308357 0
16.945992 -11.601069 0.90440691 0
-2.0588179 -20.020607 4.2056036 0
16.94178 -11.598262 1.3910408 0
-2.0625367 -20.396063 1.8574753 0
16.950886 -11.604334 1.8787131 0
16.738153 -11.391784 3.9774513 0
-2.0627184 -20.398361 2.3354716 0
16.94017 -11.59719 2.3662884 0
-2.0611558 -19.666904 6.0432472 0
-2.0615296 -20.383327 2.8135114 0
-2.0622716 -20.037931 4.9192219 0
16.952259 -11.605251 2.8574138 0
-2.0616245 -20.384527 3.2948351 0
-19.617844 -2.7553525 6.2348909 0
16.735807 -11.39015 4.6435041 0
16.953182 -11.605867 3.3497882 0
4.0518289 20.408873 0.76773703 0
4.0531912 20.420355 -0.6018517 0
4.0543108 20.429796 0.083295107 0
-2.0618753 -20.387697 3.7791195 0
-1.9460986 20.781843 0.040941834 0
4.0541601 20.428524 1.4536827 0
-1.9460559 20.781591 0.81045365 0
16.946136 -11.601168 3.8435555 0
-2.0624495 -20.038822 5.6411953 0
4.052681 20.416056 2.1406984 0
-2.062129 -20.390911 4.2667408 0
-1.9467707 20.785801 1.5811234 0
16.743382 -11.395425 5.3234224 0
16.948433 -11.602698 4.3420162 0
-1.9450638 20.775747 2.353652 0
4.0546703 20.432825 2.8346608 0
-1.945318 20.93918 0.070896864 0
-1.9464521 20.945328 -0.63990223 0
-1.9463956 20.945021 0.78060663 0
-2.0634623 -20.407772 4.7608385 0
-1.9449334 20.937098 1.4908636 0
16.940552 -11.597443 4.8421307 0
-1.944664 20.773394 3.1311603 0
4.0536823 20.4245 3.5317812 0
-1.9440069 20.932077 2.2034194 0
-1.946388 20.944979 2.9222229 0
-1.9467525 20.785694 3.917551 0
4.0536294 20.424049 4.2376089 0
-1.9435503 20.929602 3.6435823 0
17.532505 -12.192002 0.06712389 0
17.52611 -12.186679 -0.65046668 0
-21.118155 3.2481949 0.024639368 0
17.533369 -12.192721 0.78429556 0
-21.1087 3.2472446 0.82659471 0
-21.114731 3.2478509 -0.7782799 0
-1.9429097 20.76306 4.7066784 0
17.531113 -12.190844 1.5022078 0
-21.103291 3.2467008 1.6290774 0
4.0557661 20.442062 4.957345 0
17.534716 -12.193842 2.2232141 0
-1.9468393 20.947426 4.3784304 0
-21.106821 3.2470555 2.4349082 0
-20.533787 3.2435086 5.6591158 0
17.540455 -12.198618 2.9493089 0
-1.9439883 20.769413 5.5117645 0
4.0533695 20.421858 5.6797457 0
-2.0654068 -21.484591 0.028499842 0
-21.108347 3.2472091 3.2456794 0
-2.0663486 -21.490137 0.82299829 0
-1.9435077 20.929371 5.1161737 0
-2.0640497 -21.476597 1.6178443 0
4.0568099 21.264233 0.035852671 0
4.0555429 21.252068 0.81533372 0
17.544382 -12.201887 3.681808 0
-2.065227 -21.588966 0.059363365 0
-2.0644889 -21.584967 0.79196548 0
4.0560322 21.256767 1.5957994 0
-2.0664988 -21.595861 -0.6745708 0
-2.0654726 -21.484978 2.4165895 0
4.0568466 21.353502 -0.11219525 0
4.0558882 21.348961 -0.62156367 0
4.0574265 21.356249 0.39632869 0
-2.0666342 -21.596594 1.5260098 0
4.0557365 21.348242 0.90443289 0
4.0541182 21.238386 2.3774276 0
-21.126297 3.2490134 4.066155 0
4.0542831 21.341358 1.4121835 0
-20.544641 3.2455518 6.5026426 0
-1.9442315 20.770845 6.3290548 0
17.527538 -12.187867 4.4175601 0
17.85257 -12.51366 0.079568863 0
-2.0654249 -21.590038 2.2619555 0
17.852787 -12.513816 -0.61355186 0
4.0560665 21.349808 1.9208879 0
17.856285 -12.516325 0.77191079 0
-2.066802 -21.492809 3.2207575 0
-1.9481037 20.954277 5.8763227 0
17.858078 -12.517613 1.4652929 0
4.0559664 21.349333 2.4304621 0
4.0560689 21.257116 3.1671333 0
-2.0621648 -21.572372 3.0005579 0
17.84716 -12.509775 2.1600032 0
-21.125992 3.2489829 4.8934574 0
4.0561857 21.35037 2.9418206 0
-2.0643244 -21.478216 4.0288053 0
17.543045 -12.200774 5.171545 0
17.852516 -12.513621 2.8604896 0
4.0543394 21.341625 3.454288 0
-2.0648274 -21.586803 3.7494302 0
4.0572886 21.268831 3.9638433 0
4.0552845 21.346104 3.971036 0
17.852734 -12.513776 3.5664692 0
-21.12022 3.2484026 5.7307787 0
-2.0667324 -21.492397 4.8504753 0
-2.0648365 -21.586851 4.5048199 0
4.0560322 21.256763 4.7655954 0
4.0542908 21.341393 4.4898467 0
17.54899 -12.205724 5.9358749 0
17.846386 -12.509219 4.2787495 0
4.0568304 21.353428 5.0156436 0
-2.0651546 -21.483105 5.6788912 0
-2.0652771 -21.589237 5.2710876 0
4.0548396 21.245314 5.5775957 0
-21.131817 3.2495685 6.5859795 0
17.858669 -12.518037 5.0055113 0
-21.559483 -2.7494218 5.8729582 0
-2.0668416 -21.597717 6.0516424 0
-2.0660043 -21.48811 6.5239944 0
17.859299 -12.518489 5.7413073 0
4.0549436 21.246311 6.4053383 0
-1.9373219 22.630148 0.041857123 0
-1.9399412 22.645576 -0.72758508 0
-1.9407425 22.650297 0.80989945 0
-21.564119 -2.7501581 6.7491302 0
-1.940644 22.649717 1.579205 0
-1.9426777 22.661695 2.3524048 0
-1.9396815 22.799019 0.0062044859 0
-1.9383583 22.790485 0.84504473 0
-1.9404047 22.803682 1.6854572 0
-1.9416437 22.655605 3.1289444 0
-1.9413233 22.809605 2.5292416 0
-1.9414835 22.654661 3.9125657 0
-1.9414802 22.810617 3.3780079 0
-22.956755 3.2510214 -0.15485871 0
-22.960081 3.2515018 0.37500882 0
-22.969025 3.2527938 -0.68682098 0
-22.963427 3.2519848 0.90445936 0
-1.9413605 22.653936 4.7048788 0
-22.964073 3.2520785 1.4340045 0
-1.9388094 22.793396 4.2312326 0
-22.973719 3.2534719 1.9645789 0
-22.952667 3.2504308 2.49459 0
-1.9400463 22.646194 5.5063276 0
-22.963018 3.2519259 3.0283022 0
-1.9408412 22.806498 5.0986891 0
-22.980577 3.2544625 3.5656796 0
-23.325274 -2.7471104 -0.012997627 0
-23.313599 -2.7462735 -0.89084971 0
-2.0683846 -23.40213 0.028189301 0
-23.318003 -2.7465892 0.86427033 0
-22.473068 3.2506239 6.0999908 0
-2.0694485 -23.408396 -0.76813483 0
-2.0708857 -23.416862 0.82347143 0
-22.970768 3.2530453 4.102931 0
4.0602784 23.197542 0.81613171 0
4.0618792 23.212914 0.034998417 0
4.0610256 23.20472 -0.74692619 0
-23.346426 -2.7486267 1.7439744 0
-2.0723486 -23.425482 1.6204429 0
-1.9415212 22.654882 6.3247156 0
4.0604429 23.199123 1.5980313 0
-2.0681405 -23.400694 2.417984 0
-23.315374 -2.7464008 2.6236815 0
-1.9386725 22.792513 5.9726076 0
19.177532 -13.846809 0.047172308 0
19.177422 -13.846728 -0.7107991 0
19.177341 -13.846669 0.80422342 0
-22.979765 3.2543452 4.6463718 0
4.0613708 23.208031 2.3835535 0
19.173746 -13.844009 1.5619593 0
-2.0689502 -23.405462 3.222333 0
-23.316317 -2.7464683 3.5105381 0
-2.0714526 -23.648695 -0.0088039637 0
-2.0707402 -23.644102 0.86012268 0
19.174238 -13.844374 2.3226061 0
4.0606365 23.200981 3.1725478 0
-22.96764 3.2525935 5.190392 0
-22.480812 3.2519672 7.0134754 0
-2.0703645 -23.64168 1.7298996 0
-2.0702848 -23.413322 4.0344448 0
19.182226 -13.850283 3.0891018 0
-23.31151 -2.7461238 4.4041853 0
-1.9391472 22.795572 6.864356 0
-2.072237 -23.653753 2.6039779 0
4.0627337 23.221115 3.9721689 0
19.182505 -13.850488 3.8613777 0
19.419222 -14.0903 -0.23017824 0
-2.0720248 -23.652388 3.4825993 0
-2.0710688 -23.41794 4.8555117 0
19.428717 -14.097033 0.33720005 0
19.423605 -14.093407 -0.7994343 0
19.426918 -14.095757 0.90450573 0
4.0603218 23.19796 4.7736464 0
19.420897 -14.091487 1.4715886 0
-23.306837 -2.7457888 5.3074617 0
19.416025 -14.088033 2.0390093 0
19.170931 -13.841928 4.6394024 0
-2.0728288 -23.657568 4.3697405 0
19.433716 -14.100577 2.6093194 0
-2.0707488 -23.416058 5.6866074 0
19.426523 -14.095477 3.1796532 0
4.0622158 23.216143 5.5940361 0
19.189718 -13.855824 5.4357681 0
