# .PCD v0.7 - Point Cloud Data file format
VERSION 0.7
FIELDS x y z intensity
SIZE 4 4 4 4
TYPE F F F F
COUNT 1 1 1 1
WIDTH 1425
HEIGHT 1
VIEWPOINT 0 0 0 1 0 0 0
POINTS 1425
DATA ascii
6.0305514 5.3145394 -0.98672962 0
0.11797488 -8.0380926 -0.9878459 0
7.705657 2.2948222 -0.98537397 0
7.7314253 2.2108543 -0.98705649 0
7.4546928 -2.9069383 1.2718868 0
6.1483955 5.1849365 -0.98502672 0
1.9657059 -7.850574 -0.42202234 0
-6.0133839 5.3424678 -0.98615527 0
7.6866498 2.3802209 -0.98557591 0
2.0960581 -7.6123629 1.8424003 0
6.2653322 5.0548868 -0.98425746 0
7.5415668 -2.8845284 -0.76242375 0
7.7153325 -2.2970045 -0.98766375 0
1.96542 -7.8417034 -0.66640329 0
7.6651783 2.4650335 -0.9854821 0
7.765131 -2.1282086 -0.9908849 0
0.22186613 -8.0499897 -0.98573077 0
7.5854926 -2.8746793 -0.18520701 0
1.9651711 -7.8339763 0.78666043 0
7.6944785 -2.3821049 -0.98743486 0
7.5835099 -2.8733814 0.3038578 0
7.588685 -2.8767693 0.059552193 0
7.6418786 2.5493569 -0.98524058 0
1.9658619 -7.8554211 0.54629683 0
7.6425118 -2.5495286 -0.98539197 0
6.1016541 5.2617145 -0.98967731 0
7.6706681 -2.4664381 -0.9867903 0
7.5504575 -2.8874946 0.74652672 0
2.1390839 -7.5501041 2.0797396 0
7.3625731 -2.9146202 1.7999909 0
7.5830579 -2.8730853 -0.43131024 0
7.6186709 2.6336942 -0.98530936 0
0.22014618 8.0580158 -0.98732638 0
-6.0288181 -5.3512082 -0.98896456 0
6.3292503 4.9947157 -0.98599124 0
6.9075928 4.1590471 -0.98635066 0
7.5793343 -2.8706477 0.54745495 0
6.219214 5.1314163 -0.98839438 0
7.5921836 -2.7170682 -0.98487794 0
7.5922732 2.7170954 -0.98489964 0
7.5330825 2.8816974 -0.98338604 0
6.3857141 4.9278512 -0.98570108 0
7.5684748 -2.8012879 -0.98540616 0
7.62782 -2.6363161 -0.98750651 0
0.32467663 -8.0658245 -0.98469734 0
7.5704231 2.8019073 -0.98587811 0
7.5434599 -2.88516 0.96063733 0
0.32443488 8.0670376 -0.98493767 0
7.4466968 -2.9015384 1.5157003 0
1.9405601 -7.8933268 0.32723999 0
7.5428452 -2.8849549 -0.98576224 0
2.2492418 -7.3554916 2.6552699 0
6.750176 4.4365311 -0.98285306 0
7.3054385 3.4486668 -0.98201859 0
7.3577566 -2.9266472 1.8788109 0
7.5837555 -2.8735418 -0.67992187 0
2.0233569 -7.7401133 1.4932637 0
-5.9565086 -5.4570041 -0.98740041 0
6.5525494 4.7252054 -0.98580897 0
1.9655132 -7.8445964 -0.91516709 0
1.9390433 -7.8883185 0.5200994 0
7.3253613 -2.9370685 1.9960694 0
2.0568285 -7.6830897 1.7358952 0
7.5776443 -2.8695412 0.79115605 0
6.4507484 4.8681436 -0.98827791 0
6.8953085 4.2184625 -0.98287785 0
7.3831496 3.2919712 -0.98413718 0
-5.9611835 5.4597406 -0.98825836 0
7.5195594 2.969507 -0.98698533 0
2.1450546 -7.5448227 2.196049 0
6.979248 4.0837135 -0.98609817 0
6.6598029 4.586884 -0.98614585 0
6.853724 4.2956076 -0.98445666 0
6.7106171 4.5156217 -0.98593748 0
0.42780626 -8.0792084 -0.9834733 0
7.4589887 3.1338449 -0.98688543 0
7.03619 3.9973793 -0.98429871 0
1.9655379 -7.8453617 1.029278 0
7.2823648 3.5342 -0.98539591 0
1.9391317 -7.8886104 0.71216917 0
7.4980068 3.0548735 -0.98893774 0
6.9523306 4.1510134 -0.98579669 0
-5.8847528 -5.5628357 -0.98620415 0
7.2080965 3.6926575 -0.98590302 0
6.8156681 4.3753934 -0.98733985 0
6.6195793 4.6662726 -0.98972523 0
6.5166616 4.8087125 -0.99134135 0
7.581264 -2.871911 -0.93061662 0
7.4336777 3.2180252 -0.98850822 0
7.0006127 4.0779219 -0.98660326 0
7.0446076 4.0025201 -0.98446321 0
7.3637085 3.3787804 -0.98782289 0
2.0988929 -7.6208391 2.033586 0
0.424878 8.0950766 -0.98660994 0
7.5487208 -2.8869152 1.1771302 0
7.1356506 3.8524017 -0.98807681 0
7.0942707 3.9296746 -0.98826468 0
-5.8962026 5.5697594 -0.98832333 0
7.2610683 3.6210783 -0.98956549 0
7.1825533 3.7780066 -0.98961604 0
1.9652208 -7.8355188 1.2715726 0
7.4431891 -2.8991694 1.7626007 0
-5.8144846 -5.6693716 -0.9855566 0
7.5305591 -2.8808556 1.3919659 0
7.3720136 -2.9179206 2.0234027 0
1.9417675 -7.8973126 0.90404558 0
7.5901723 -2.8777428 1.0370963 0
7.3578148 -2.9266691 2.0761168 0
0.52731752 8.1129551 -0.98655856 0
0.52659047 -8.117238 -0.98740292 0
2.0567849 -7.6821513 1.9816203 0
2.1388178 -7.5443907 2.388905 0
0.63201845 8.1163416 -0.98394549 0
7.3234186 -2.9357157 2.2476609 0
7.128706 3.9386337 -0.98807573 0
-5.8367643 5.6832838 -0.98971677 0
1.9427173 -7.9004498 1.09621 0
1.9649565 -7.8273149 1.515523 0
0.63012087 -8.1285772 -0.98635232 0
7.5853882 -2.8746109 1.2830522 0
2.0237768 -7.75315 1.8048565 0
7.1884475 3.8525274 -0.98556876 0
2.1008992 -7.6268373 2.2260153 0
-5.7553749 -5.7829909 -0.98729157 0
7.3416777 -2.9206202 2.2718778 0
1.8695579 -8.0003519 0.30261612 0
7.7096572 -2.8461578 0.3164258 0
1.8697213 -8.0094843 0.055669427 0
-5.762104 5.7873282 -0.9885596 0
1.9027164 -7.9534216 0.8923825 0
7.7168055 -2.8484294 -0.12266266 0
7.7176762 -2.8487062 0.097169876 0
7.5388942 -2.8836365 1.613276 0
1.9417136 -7.8971348 1.2884216 0
7.7270737 -2.8461494 0.054325342 0
7.7204671 -2.8495932 -0.34436256 0
0.73283291 -8.1447849 -0.98655033 0
7.7099428 -2.8462484 -0.5658837 0
1.8699366 -8.021513 -0.19307542 0
7.7296658 -2.8477941 -0.19453526 0
7.7141724 -2.8475926 0.53505683 0
7.7275214 -2.8464336 0.30199969 0
-5.681706 5.8873377 -0.98658192 0
1.8698039 -8.0141039 -0.44180053 0
7.7229428 -2.8435287 -0.44378155 0
0.73186016 8.1517105 -0.98790979 0
-5.6844554 -5.8891659 -0.98710489 0
7.4489098 -2.9030328 2.0151491 0
1.8697983 -8.0137901 0.54901838 0
7.2636003 3.7800839 -0.98735452 0
7.7053065 -2.844775 0.75354981 0
7.7237868 -2.8440642 0.54932296 0
0.83668292 -8.1523561 -0.98534465 0
7.5859947 -2.8750081 1.5317459 0
2.0957696 -7.6115007 2.4159803 0
7.3226957 3.6939056 -0.98532224 0
7.7138982 -2.8475056 -0.79204667 0
-5.6049495 5.9894428 -0.98555779 0
1.8698912 -8.0189762 -0.69409347 0
1.9410081 -7.8948059 1.4809613 0
7.72752 -2.8464327 -0.69673562 0
0.83494246 8.1661816 -0.9880532 0
2.0571644 -7.6903048 2.2337122 0
2.0231485 -7.7336512 2.1145039 0
1.9027683 -7.9563198 1.2050254 0
1.8698486 -8.0165987 0.79610348 0
1.8695903 -8.0021658 -0.94531953 0
7.7085347 -2.8458009 0.97330332 0
0.94011319 -8.1622868 -0.98489296 0
-5.6159849 -5.9970107 -0.9876771 0
7.7303095 -2.8482022 0.79727542 0
0.93949342 8.1678505 -0.98598123 0
1.8696376 -8.0048075 1.0430136 0
-5.5320687 -6.0940933 -0.98555696 0
-5.8650589 5.853683 0.26770079 0
7.7953072 -2.8236578 0.090312004 0
7.3548641 -2.9255629 2.4742377 0
1.9389958 -7.8881612 1.673595 0
7.791995 -2.8225236 -0.32051337 0
1.9660335 -7.860745 1.7697077 0
7.7316933 -2.8490801 -0.95279109 0
7.700429 -2.8432248 1.1931808 0
2.1388633 -7.5453682 2.7044883 0
7.556004 -2.8893452 1.8403647 0
7.7246833 -2.8446331 1.045419 0
1.0433186 -8.1740656 -0.9850924 0
7.4419847 -2.8983562 2.2682002 0
7.5845566 -2.8740666 1.7827816 0
-5.5452762 6.1034317 -0.98811889 0
7.4065485 3.6280982 -0.98981154 0
7.4537082 3.5326197 -0.98541725 0
7.8109798 -2.8290248 -0.11672318 0
-5.691319 6.0486746 0.26834154 0
7.8092518 -2.8284333 0.29349113 0
-5.7873588 5.9575915 -0.36551911 0
1.0418786 8.1889257 -0.98799443 0
1.9026542 -7.9499435 1.5186489 0
7.7911148 -2.822222 0.70127618 0
-5.7976646 5.9644442 -0.048907638 0
-5.8924251 5.8713207 -0.050389409 0
1.8695955 -8.0024548 1.29177 0
-5.4601293 -6.1994624 -0.98603284 0
7.8065939 -2.827523 -0.53053784 0
-5.9851289 5.7759271 0.26665807 0
-5.8784842 5.8623357 0.58397794 0
7.8113537 -2.8291531 0.49727809 0
-5.841135 5.9188304 0.34411144 0
1.1466752 8.1846285 -0.98534274 0
-6.082406 5.6823583 -0.053589761 0
-6.0796261 5.6806774 0.26612329 0
-5.800128 5.9660826 0.26757431 0
1.9362004 -7.878931 1.8664279 0
-5.991684 5.7800202 -0.052218676 0
-6.2561932 5.4799643 -0.37859553 0
-5.6118593 6.1505094 -0.046391726 0
-6.1678438 5.5807052 -0.37629461 0
-5.5070963 6.235867 0.34252715 0
-5.709518 6.0611548 -0.047915816 0
-5.4677372 6.2050066 -0.98752379 0
-6.1780891 5.5867019 -0.055335939 0
-5.8784652 5.8623233 -0.68767583 0
-6.0813236 5.681704 -0.37430757 0
-6.0708323 5.6753597 0.58509731 0
-5.9720392 5.7677531 -0.6911571 0
-5.8971295 5.8743529 -0.36956525 0
1.9654343 -7.8421464 2.0177004 0
-6.1777935 5.5865293 0.26549089 0
1.1458232 -8.1949596 -0.98735762 0
-6.4452238 5.2823005 -0.059806943 0
-5.6146712 6.1524973 0.26840377 0
-5.7102246 6.0616398 -0.36502111 0
-5.5188193 6.2422318 0.26884961 0
-6.2702398 5.4879184 0.26495135 0
-5.7016563 6.0557637 0.58327723 0
-5.996191 5.7828345 -0.37259424 0
-5.8456249 5.9237599 0.53078055 0
-5.6796303 6.0832658 0.53034079 0
-6.0071526 5.7601318 0.53119516 0
-5.4265518 6.333777 -0.044199526 0
-6.3655186 5.3898196 -0.058799386 0
-5.6180568 6.154891 -0.36306602 0
-6.3623638 5.3880925 0.26439416 0
-5.68787 6.0928497 0.34210134 0
-6.2786264 5.4926677 -0.057443142 0
-5.801105 5.966732 0.58384609 0
-6.172101 5.5831976 0.58579385 0
-5.6098418 6.1490827 0.58289289 0
1.2503886 -8.1908092 -0.98502731 0
-5.9905357 5.7793031 0.58485305 0
-5.5122643 6.2422404 0.52965403 0
7.7345266 -2.8508778 1.2968659 0
7.5515313 -2.8878529 2.0663183 0
-5.329989 6.4213185 -0.042955518 0
7.5304532 3.4604757 -0.98863709 0
-5.5309815 6.2510948 -0.046022475 0
-5.5054827 6.2338772 0.71719837 0
-6.1701155 5.5983591 0.53119433 0
-6.0042963 5.7571716 0.71781337 0
-6.1697588 5.5818262 -0.7001189 0
-5.5116792 6.2370286 -0.67655122 0
-6.1621065 5.5905209 0.71797788 0
1.2498984 8.1980076 -0.98642969 0
-6.270071 5.487823 0.58644521 0
7.8659606 -2.8124609 0.049086332 0
-5.3894849 -6.305944 -0.98706746 0
7.5809183 3.3682745 -0.98572004 0
-5.3897285 6.3061271 -0.98711574 0
-5.9950647 5.7476025 0.90403807 0
-5.804553 5.9690251 -0.68725908 0
-5.3344297 6.4247532 0.26951039 0
2.0231338 -7.7331924 2.4314096 0
-5.5313911 6.2513933 -0.36182982 0
-6.3710861 5.392868 -0.38367045 0
-6.0851068 5.6839919 -0.6976006 0
-5.4334354 6.3389459 -0.3594954 0
7.8113632 -2.8291562 0.90405929 0
-5.6146832 6.1525059 -0.68077374 0
-5.4366956 6.3413935 0.26897264 0
-5.2354941 6.5096722 0.26995349 0
-5.6829729 6.087153 0.71717191 0
-5.4246373 6.3323393 0.58216405 0
7.7287807 -2.8522353 1.4204142 0
-6.2679653 5.4866304 -0.70473671 0
-5.8511095 5.9297814 0.71732128 0
7.868053 -2.8137467 0.3002212 0
1.9341645 -7.8722091 2.0602317 0
-5.2379503 6.5116291 -0.35521042 0
-5.8410435 5.9187303 0.90403855 0
1.8696542 -8.0057364 1.543396 0
-6.555397 5.1896987 0.26303518 0
7.5865335 -2.8753607 2.03807 0
-5.3557882 6.4171662 0.33911324 0
-5.5297155 6.2501721 0.58278561 0
-6.5593843 5.1917357 -0.062925756 0
-5.718626 6.0674014 -0.68527567 0
-5.3502941 6.4099793 0.5281837 0
-6.3352833 5.4383655 0.53075528 0
-5.8929892 5.8716841 0.90182447 0
-5.7987227 5.965148 0.90037405 0
7.8762131 -2.8187613 -0.20406532 0
-5.3426323 6.431098 -0.358064 0
-5.6072822 6.1472731 0.89749789 0
-5.2476907 6.5193887 -0.04273653 0
7.6364422 3.2802074 -0.98436058 0
-6.4746618 5.2549081 0.7179364 0
-6.1627827 5.5911822 0.90403819 0
-6.4747076 5.2978992 0.26341355 0
7.8697286 -2.8147764 -0.45719951 0
-5.7063766 6.0590005 0.89911604 0
1.7722912 -8.1762648 0.31147504 0
-6.3292971 5.4328332 0.71768761 0
-6.4618979 5.291122 0.58773339 0
7.722806 -2.8434417 1.5472512 0
1.3536537 8.2048645 -0.98653424 0
-5.4325066 6.3382478 -0.6761272 0
7.8060789 -2.8273466 1.1072102 0
-5.1446157 6.6002951 -0.35373694 0
1.7692856 -8.1816778 0.29946995 0
-6.4902658 5.2685184 0.53066897 0
7.8913608 -2.8074572 0.089115381 0
-6.3193378 5.4236307 0.90403819 0
-6.3706093 5.3926067 -0.71013117 0
-5.9939575 5.7814398 0.903759 0
7.8703279 -2.8151448 0.5512253 0
1.7692997 -8.1856518 -0.20734066 0
-5.4178181 6.3272185 0.89502704 0
-6.0869637 5.6851144 0.90526879 0
7.8930993 -2.8079827 -0.13634765 0
-6.5633774 5.1937757 -0.39039588 0
-6.4589262 5.2895503 -0.71368253 0
7.8888464 -2.8066978 0.31364202 0
-5.6847687 6.089242 0.90403926 0
-5.2398176 6.5131164 0.58154285 0
7.862247 -2.810179 -0.71179461 0
1.4581618 -8.1935301 -0.98338878 0
1.3533108 -8.2112455 -0.9877764 0
-5.337501 6.4271293 -0.67346442 0
-5.5154324 6.2461472 0.90403962 0
1.7723465 -8.1764679 0.50934768 0
1.7693288 -8.1937637 0.046068549 0
-6.384964 5.4004664 0.58745551 0
7.8913155 -2.8074436 -0.36286795 0
7.8792124 -2.803787 -0.58950102 0
-6.4838152 5.3027177 -0.38861674 0
-5.1545682 6.6084585 0.26996803 0
-5.8402185 5.9178243 1.09038 0
1.9027938 -7.9577417 1.8367715 0
-5.1582656 6.6114922 -0.042126417 0
-5.3468671 6.4343739 0.58216393 0
-6.6626816 5.0938864 -0.06546396 0
-6.1863079 5.5915132 0.90723491 0
-5.675952 6.0789862 1.0906558 0
-5.3179512 -6.4120069 -0.98823905 0
-6.2763309 5.4913678 0.90870476 0
-6.6609573 5.0930362 0.26214528 0
-6.5628061 5.1934838 0.58850992 0
-6.5538883 5.1889277 -0.71832824 0
-5.3195972 6.41328 -0.98856866 0
1.7693137 -8.1895332 -0.46320724 0
7.7200947 -2.8494749 1.6447103 0
-5.2196927 -6.4970841 -0.98431802 0
-6.0060511 5.7589908 1.0903225 0
-6.4553232 5.2876439 0.91180563 0
-5.1926632 6.5871696 0.33636391 0
-5.1495209 6.6043186 0.5813179 0
-6.6474419 5.1000943 0.53015494 0
1.7693106 -8.1886702 0.55205202 0
-5.8835597 5.8656068 1.2195528 0
1.7727671 -8.1780157 0.70676935 0
-5.3611279 6.4241505 0.71579897 0
-5.5337467 6.2531099 0.8976016 0
-5.2246385 6.5010242 -0.98531961 0
7.8721585 -2.8162696 0.8026948 0
7.8812814 -2.8044121 0.76173282 0
-6.4841528 5.2631869 0.90403867 0
-5.3519754 6.412178 0.90404046 0
-5.1907854 6.5845623 0.52608132 0
-6.6674232 5.0962238 -0.39470327 0
-5.2521582 6.5229478 -0.67248654 0
7.8998518 -2.8100226 0.5379585 0
1.7692902 -8.182991 -0.71989894 0
-6.0740528 5.6773071 1.2249641 0
-6.659687 5.0924096 0.58922994 0
7.8055973 -2.8271816 1.3105578 0
-5.2381649 6.5117998 0.89349818 0
-6.3251915 5.42904 1.0902596 0
1.7702398 -8.1687164 0.90405166 0
-5.1864414 6.5785279 0.71533668 0
-5.3420196 6.430624 0.89515245 0
-6.3811951 5.3984027 0.91113591 0
-5.0721469 6.705986 -0.041825652 0
-5.0690675 6.7033849 0.27005506 0
1.4570357 8.2221298 -0.98895228 0
1.7760414 -8.169075 0.90361273 0
-5.5190449 6.2506013 1.091382 0
-6.0003605 5.7530923 1.276427 0
-5.8015804 5.9670482 1.2184134 0
-5.1783571 6.5673003 0.90404105 0
7.8691816 -2.8144405 -0.97189391 0
-5.6755733 6.078546 1.2774482 0
7.715014 3.2084076 -0.98877394 0
1.7693026 -8.1864357 0.80494738 0
7.7559471 3.1103809 -0.98455906 0
-4.9664407 6.783268 -0.35215616 0
-5.9924731 5.7805128 1.2236106 0
1.9659901 -7.8593974 2.2780252 0
7.8909998 -2.8073483 -0.82261813 0
-5.1620126 6.6145658 -0.67095101 0
1.8696929 -8.0078964 1.7978334 0
-5.0637608 6.6989031 0.58122361 0
-6.162179 5.5905914 1.276366 0
-5.5171843 6.2410402 1.2116919 0
-6.6542664 5.1057105 0.71699274 0
-5.7119474 6.0628209 1.2166038 0
-6.1815176 5.609519 1.0907319 0
-6.5625057 5.1933303 0.9145093 0
-5.8448496 5.9229083 1.2772443 0
1.5614381 -8.2137289 -0.98666668 0
-6.1775436 5.5863829 1.2286777 0
-5.0748148 6.7082391 -0.35508496 0
7.7022786 -2.8438127 1.8692198 0
7.8681655 -2.8138158 1.0546389 0
-6.6670094 5.0960197 -0.72562516 0
-6.4846382 5.2636099 1.0904489 0
-5.023551 6.7526984 0.33364606 0
-5.1509023 6.6054516 0.89302719 0
-4.9797068 6.7948012 -0.041175485 0
7.8842864 -2.80532 0.98694205 0
-5.0203295 6.7479424 0.52438915 0
7.5825005 -2.8727202 2.2957497 0
1.7692831 -8.1809921 -0.97986948 0
-5.4261956 6.3335094 1.2101033 0
-5.0667405 6.7014198 -0.66878235 0
-6.2745762 5.4903746 1.2318437 0
-5.992588 5.7450352 1.4623437 0
7.7273421 -2.8463199 1.8031893 0
-4.9814734 6.7963367 0.27016044 0
-5.6261368 6.160604 1.2153316 0
1.7692645 -8.175786 1.0578775 0
1.561085 8.2278242 -0.98940742 0
-4.97226 6.7883272 0.58102643 0
-5.0170336 6.7430754 0.71445537 0
-5.5185375 6.2499757 1.2788901 0
1.9401867 -7.8920941 2.259551 0
-6.6544323 5.1058474 0.90403938 0
1.6654608 8.2113438 -0.98584139 0
-5.1525807 -6.6068282 -0.98697937 0
-6.3727827 5.3937969 1.2352395 0
-5.1560149 6.6096458 -0.98768294 0
-5.3469515 6.4056058 1.2796414 0
-6.6672726 5.096149 0.91713214 0
7.8190722 3.0275984 -0.98586679 0
-5.364665 6.4287772 1.0924187 0
-4.8861427 6.8821692 0.27041733 0
-4.8897471 6.8853946 -0.040780306 0
7.811965 -2.8293624 1.5148304 0
-4.886497 6.8824863 -0.35265267 0
-5.597383 6.1402736 1.529572 0
1.6653259 -8.2239056 -0.9882834 0
-6.6474485 5.1001 1.0908806 0
-5.8450403 5.9231186 1.4643738 0
-5.6953588 6.0514445 1.5332115 0
1.7760466 -8.1705523 1.2236488 0
-5.1882687 6.5810671 1.0928195 0
-6.4862518 5.265018 1.2771614 0
-4.8792458 6.8759975 0.58082104 0
1.7757261 -8.1889019 1.1015978 0
-6.3391361 5.441926 1.2775679 0
-5.0692263 6.7035193 0.89302528 0
-6.4701729 5.2955003 1.2386663 0
-4.8500824 6.9158921 0.33076465 0
-4.983489 6.798089 -0.66874349 0
2.0232129 -7.735651 2.7542167 0
-5.6845627 6.0890031 1.4656248 0
7.8684497 -2.8139904 1.3084149 0
7.887248 -2.8062148 1.2137461 0
-6.1703472 5.5985856 1.4638352 0
-4.963006 6.780282 -0.98176515 0
-5.1492057 6.6040602 1.2056563 0
-5.0213375 6.7494297 0.90404272 0
-5.9861999 5.7765956 1.5446067 0
-5.0686779 6.7030559 -0.98651576 0
-5.8009353 5.966619 1.5381255 0
-6.0794382 5.6805639 1.5481873 0
1.7715812 -8.1736517 1.2986212 0
-5.3559494 6.4413986 1.2109368 0
-5.8964758 5.8739314 1.5417066 0
-4.8846292 6.880815 -0.66635883 0
-5.0714207 -6.7053723 -0.98708439 0
1.7694194 8.2190857 -0.98727405 0
-4.798914 6.9749255 -0.040409327 0
-5.2575803 6.527267 1.208806 0
1.9029307 -7.9654016 2.1589532 0
-4.9786801 6.7939081 0.8925041 0
8.0006685 -2.7729321 -0.21130806 0
7.6978645 -2.8424098 2.0998302 0
7.9180307 2.8444593 -0.98303878 0
-5.5221233 6.2543974 1.4672227 0
-5.1846609 6.576056 1.2815144 0
-5.5197196 6.242888 1.5291729 0
-6.5737085 5.1990538 1.2428107 0
-5.9996157 5.7523193 1.650336 0
1.869664 -8.0062771 2.0550282 0
-4.8564873 6.9259591 0.52164745 0
-6.6617489 5.0934262 1.2455497 0
-4.8020253 6.9777904 -0.35278505 0
-5.3504772 6.4102187 1.4683585 0
-5.0184488 6.7451653 1.0936887 0
-5.4259586 6.3333316 1.5265217 0
-6.336956 5.4399114 1.4646318 0
1.769307 -8.1876669 1.314378 0
-6.2730579 5.4895148 1.5568552 0
-5.8426561 5.9205012 1.6517699 0
-6.1846552 5.5905457 1.5536382 0
-4.8065109 6.9819212 0.27027619 0
7.8898258 2.9494021 -0.98919272 0
-4.9805307 -6.7955174 -0.985443 0
8.0094919 -2.7781818 0.29842985 0
-4.8536081 6.9214334 0.71307421 0
-6.4886484 5.267108 1.464452 0
-6.3652353 5.3896646 1.5607789 0
-4.8847237 6.880899 0.89182687 0
7.8134089 -2.8298569 1.7195971 0
-4.8012762 6.9771008 0.58099949 0
7.7279153 -2.8466833 2.0619199 0
-4.7971807 6.9733291 -0.66604364 0
1.7701178 -8.1682682 1.4960513 0
-5.070013 6.7041836 1.205935 0
7.859942 -2.8087623 1.5627661 0
8.0220261 -2.7856398 0.042814612 0
1.9406621 -7.8936634 2.4577672 0
-4.7103477 7.0663614 -0.040288925 0
-5.6846294 6.0890803 1.65378 0
-6.6620808 5.1121416 1.2788081 0
-6.8440351 5.0315709 -0.072595716 0
-6.1712685 5.5994883 1.6515021 0
1.8736352 8.2282143 -0.9892658 0
-5.181365 6.5714779 1.4703689 0
-4.7104244 7.0664339 0.2704947 0
-4.8514318 6.9180136 0.90404415 0
-5.5169621 6.2480321 1.6551383 0
8.0164738 -2.7823362 -0.47055697 0
-4.8873544 6.8832536 -0.98356712 0
-5.3437133 6.4319344 1.5258288 0
-4.6795502 7.0889974 0.32671642 0
1.9772689 8.2095051 -0.98613489 0
-4.7122798 7.0681925 -0.35244691 0
-6.4668741 5.2937551 1.5661864 0
-4.7913575 6.9679666 0.89127088 0
-6.3303537 5.4338098 1.6516051 0
-4.8433552 6.9053187 1.0945694 0
7.9844899 2.7633061 -0.98593056 0
-6.555356 5.1896772 1.5699306 0
-5.248261 6.5198431 1.5232747 0
-6.8531294 5.0358934 0.25956059 0
7.900074 -2.8100898 1.4443526 0
-4.9787788 6.7939944 1.2049863 0
7.9868488 -2.7647097 -0.98646414 0
-4.6792774 7.0885401 0.51953197 0
-6.4819994 5.2613082 1.651381 0
-5.148807 6.6037331 1.5202537 0
-5.022192 6.7506924 1.2838521 0
-6.8510904 5.0349245 -0.40682989 0
-4.705565 7.0618286 -0.66524184 0
8.0256996 -2.7878249 0.55329931 0
-5.6961327 6.0519757 1.8544695 0
8.0151043 -2.7815208 -0.7301631 0
1.7760935 -8.1836224 1.5471733 0
-6.8454628 5.0322499 0.59169114 0
-6.0026255 5.7554402 1.8389432 0
-4.794292 6.9706688 -0.98195934 0
-4.8796411 6.8763514 1.2032475 0
7.8014612 -2.8257654 1.9236722 0
-5.3540001 6.4148259 1.6579614 0
-6.1605196 5.5889683 1.8381376 0
-4.715127 7.0708909 0.58101833 0
-5.6765232 6.0796509 1.8412941 0
-4.6772709 7.0851779 0.71198392 0
-4.622211 7.1581612 -0.040293455 0
8.0138731 -2.7807887 0.80808806 0
-4.9043694 -6.898478 -0.98718333 0
8.0324221 2.6709704 -0.98490477 0
-4.6202393 7.1562381 0.2705431 0
-5.8906364 5.8701677 1.8641787 0
-4.6997037 7.0562739 0.89092028 0
-6.0770245 5.6791043 1.8731918 0
-6.3194447 5.4237289 1.8382885 0
1.6638145 -8.3647194 0.037089109 0
1.7693288 -8.1937885 1.573009 0
-5.9891038 5.778409 1.8695624 0
-4.6240206 7.1599259 -0.35244274 0
-5.8055415 5.9696822 1.8615358 0
-5.61481 6.1525955 1.8530066 0
8.0423899 -2.6767094 -0.98714054 0
-5.5151062 6.2457438 1.8441041 0
1.6638098 -8.3651552 0.29626071 0
1.6637806 -8.3678799 -0.22331685 0
7.8853049 -2.8056276 1.6728616 0
-6.8516092 5.035171 -0.74277139 0
-5.064827 6.6998038 1.5198748 0
-4.7008948 7.0574026 -0.98052788 0
2.0817866 8.2192383 -0.98882484 0
1.7725463 -8.1772032 1.6952515 0
-4.6210394 7.1570187 0.58087635 0
-6.1784964 5.5869408 1.8795397 0
-5.8564386 5.9356322 1.8426247 0
-6.6740255 5.1219707 1.4677837 0
-5.5233116 6.2455058 1.8498151 0
-6.647727 5.1003284 1.6534712 0
-5.3255291 6.4178686 1.8411565 0
8.0789423 -2.7655954 -0.15089846 0
1.6638658 -8.3599453 0.55504823 0
8.0835152 -2.5805428 -0.98488545 0
-4.5278764 7.2437811 -0.039934754 0
-5.023159 6.7521195 1.4743931 0
7.7166557 -2.8395402 2.3211493 0
1.6637902 -8.3669777 -0.48504144 0
-6.672677 5.0988135 1.5778008 0
8.0842514 -2.7671168 0.080014467 0
-4.851016 6.9173589 1.2859671 0
8.08815 2.5831242 -0.98591685 0
8.0819664 -2.7664623 0.3106066 0
8.0129623 -2.7802465 1.0639596 0
-4.6237135 7.1596265 -0.66631913 0
8.0800562 -2.7659147 -0.38366014 0
-6.3628063 5.3883348 1.8894424 0
-6.2759418 5.4911475 1.8853447 0
7.8671808 -2.8132107 1.8228374 0
-4.6845493 7.0973768 0.90404594 0
-5.1935902 6.5884571 1.6620574 0
-6.1545162 5.5830917 2.0260234 0
2.1855907 8.210393 -0.98819041 0
-4.5311065 7.2470226 -0.35202307 0
-4.8231711 -6.9972639 -0.98817754 0
-4.534481 7.2504091 0.27045119 0
1.869954 -8.0224886 2.3210678 0
-4.5083408 7.2681026 0.32185674 0
-4.6772203 7.0850925 1.0961051 0
-4.9803901 6.7953949 1.519639 0
1.6638186 -8.3643436 -0.74868262 0
1.9029881 -7.9686031 2.4850481 0
-4.806797 6.9821849 1.2047524 0
-4.6112866 7.1475067 -0.98018742 0
-4.6188445 7.1548777 0.89144683 0
1.6638517 -8.3612528 0.81412911 0
7.7991524 -2.8249745 2.1297042 0
-6.8618898 5.0400577 0.92503166 0
-4.7218695 -7.077281 -0.98510492 0
8.1355429 2.490598 -0.98535979 0
8.088213 -2.7682524 0.54090679 0
-6.9098148 5.0122523 0.71370745 0
-4.430759 7.326283 0.27077508 0
-4.5267444 7.2426448 -0.66502416 0
-4.8456516 6.9089279 1.4767482 0
-6.0076666 5.7606645 2.0291936 0
-5.3601027 6.4228091 1.8491578 0
-5.0172701 6.7434249 1.6644945 0
8.1386089 -2.4922485 -0.98603666 0
-6.4968719 5.2742805 1.842052 0
-5.4479909 6.349875 1.8500552 0
-6.9230385 5.0225124 0.52238607 0
1.7760515 -8.1718855 1.8704717 0
1.7704258 -8.1694012 1.8937235 0
-5.8486834 5.9271178 2.0309801 0
-5.6828184 6.0869741 2.0323572 0
-4.5157776 7.2316389 0.89043629 0
-4.5103798 7.2717543 0.51607633 0
-4.5364828 7.2524185 0.58099818 0
-6.4706783 5.2957673 1.8975382 0
-5.2522039 6.522984 1.8423014 0
8.0928535 -2.769582 -0.62043262 0
-4.4408994 7.3367553 -0.040216625 0
1.7693126 -8.1892424 1.8328729 0
-5.1848745 6.5763526 1.8513672 0
-5.1526961 6.6069231 1.8384027 0
8.0830269 -2.7667661 0.77131867 0
-4.5080557 7.2675934 0.7102778 0
2.2900374 8.2110424 -0.98969567 0
-6.3274879 5.4311624 2.0289254 0
8.0122557 -2.7798264 1.3213542 0
-4.4278545 7.3232832 -0.66357899 0
-5.5193949 6.2510333 2.0353355 0
-4.7159863 7.0717053 1.2042937 0
8.1844072 -2.3989055 -0.98542058 0
-4.442482 7.3383899 -0.35229236 0
8.0829735 -2.7667508 -0.85618842 0
-6.9121971 5.0141006 0.90404356 0
-4.8947663 6.8898854 1.519429 0
-5.787694 5.9578142 2.1836905 0
8.1889267 2.4012551 -0.98641062 0
8.0721092 -2.7636373 1.0016766 0
-6.4819784 5.2612906 2.0291324 0
-4.4381185 7.3338833 0.58080947 0
-6.5710869 5.1977143 1.904484 0
-6.8493071 5.0340772 1.2580571 0
-6.1522331 5.5808573 2.2156062 0
7.8977637 -2.809392 1.909976 0
-4.5075579 7.2667007 0.90404761 0
-6.6631851 5.11305 1.8447025 0
-5.7021985 6.0561352 2.180614 0
-6.0729866 5.6766629 2.2012446 0
-4.6839676 7.0964012 1.2889872 0
-4.529254 7.2451634 -0.98182929 0
1.6637604 -8.3697567 1.0748811 0
2.394011 8.2036972 -0.98993409 0
8.2296524 2.3053627 -0.98498023 0
7.8604369 -2.8090665 2.083272 0
2.4958324 8.1751413 -0.98631823 0
-4.3245497 7.4321227 0.31786823 0
-4.3491206 7.4248891 -0.040236652 0
-4.8019581 6.9777288 1.5182409 0
-6.6666307 5.0958328 1.9107707 0
-5.0720959 6.7059426 1.8386245 0
-4.8485308 6.9134526 1.6691198 0
-6.9109926 5.013166 1.0944145 0
-4.6449947 -7.1803813 -0.98764491 0
8.2349005 -2.3079965 -0.98612154 0
-5.3602018 6.4229383 2.0404773 0
-4.6267586 7.1625957 1.2041771 0
-5.9008012 5.876719 2.1934509 0
-5.993361 5.7810674 2.1986833 0
-4.503746 7.2598748 1.0976117 0
-5.8462315 5.9244256 2.2213295 0
8.1603241 -2.744611 0.2964536 0
-5.6208901 6.1568942 2.1788366 0
-6.1787491 5.5870886 2.2100093 0
-4.9778519 6.7931886 1.8362808 0
-5.2715902 6.5052533 2.0470381 0
8.273201 -2.2110469 -0.98446667 0
8.1697931 -2.7500632 0.037072897 0
1.7692547 -8.1730537 2.0932815 0
1.642906 -8.4127007 0.9164058 0
-6.0120306 5.7651882 2.2208724 0
1.5925443 -8.4676228 0.29486465 0
-5.4295177 6.3360038 2.1692767 0
-4.6791954 7.0884037 1.481329 0
-6.322422 5.4264803 2.2183914 0
8.1691971 -2.7497201 -0.22300732 0
-4.4343023 7.3299422 -0.98087013 0
2.5991144 8.1632357 -0.98624051 0
8.0101147 -2.7785525 1.5806437 0
-5.5152693 6.2459455 2.2259443 0
-4.3496675 7.4254704 0.58089983 0
-4.3605032 7.436986 0.27022398 0
-4.3584085 7.4347596 -0.35331249 0
-4.4434505 7.3393898 0.89180875 0
-5.0275688 6.7586312 1.8583097 0
-5.5314374 6.2514272 2.1754265 0
-6.274498 5.4903302 2.2167542 0
-5.6882877 6.0933361 2.2249179 0
8.2812233 2.2149308 -0.98619926 0
-7.046051 4.9744024 0.25696266 0
1.6638448 -8.3618956 1.3358173 0
8.1662941 -2.7480488 -0.48430657 0
-5.3371525 6.4268594 2.1657021 0
-4.7128386 7.0687222 1.5178723 0
-5.1913958 6.5854092 2.0446801 0
-6.6556807 5.1068745 2.0337312 0
8.0838385 -2.7669985 1.2355433 0
-4.3337607 7.449791 0.51268721 0
-4.3273716 7.4375353 0.70879579 0
-4.5533786 -7.2693744 -0.98724258 0
-4.3518972 7.4278398 -0.66642582 0
-5.167027 6.6080108 2.0477083 0
-4.8846865 6.8808661 1.8343999 0
1.7755549 -8.1882725 2.0967877 0
-4.5021677 7.2570472 1.2912352 0
-7.0577669 4.9797668 -0.081598938 0
8.1701803 -2.7502861 0.55514479 0
7.8185205 -2.8316073 2.3407423 0
-6.3718243 5.3932724 2.2241042 0
-4.8445225 6.9071527 1.8610799 0
-4.3423862 7.4177318 0.89112151 0
-4.5384283 7.2543707 1.2043304 0
1.5959108 -8.4815798 0.49762785 0
-4.2592816 7.5151992 -0.35257453 0
-5.1475248 6.6026812 2.1581664 0
-4.2644711 7.520875 -0.040907919 0
-5.994195 5.7467017 2.4082937 0
8.3241234 -2.1202314 -0.98582876 0
-6.9210987 5.0210071 1.2855883 0
2.7027478 8.1538916 -0.98695469 0
-5.2502775 6.5214496 2.1637723 0
7.8921957 -2.8077097 2.1468153 0
-7.0484667 4.9755087 0.59448361 0
-6.4898806 5.2681823 2.2214913 0
-4.2638879 7.520237 0.27030551 0
-5.35499 6.416121 2.2316234 0
-4.6188626 7.1548953 1.5168872 0
8.1692123 -2.7497287 -0.748685 0
-5.0625501 6.7110925 2.0487578 0
-7.0621576 4.9817772 -0.42159873 0
-6.4694576 5.2951217 2.2317727 0
1.6429877 -8.4050817 1.2442095 0
1.9028288 -7.9597015 2.8134258 0
-5.9837985 5.7677183 2.4159589 0
1.776082 -8.1804152 2.2004814 0
-4.3455634 7.4211082 -0.98161054 0
-4.6784773 7.0871992 1.674603 0
8.334857 2.1252391 -0.98813105 0
-4.2603979 7.5164204 0.58100414 0
1.664008 -8.3466873 1.5972857 0
8.1706619 -2.7505636 0.81437957 0
-4.7968335 6.9730091 1.8339067 0
-7.0476103 4.9751167 -0.76146328 0
8.3630123 -2.023767 -0.98489583 0
8.3643723 2.0243778 -0.98518562 0
2.8052063 8.1357336 -0.98622966 0
8.0764656 -2.7648857 1.4691324 0
1.5970321 -8.486228 0.70084226 0
-4.4435978 7.3395419 1.2038326 0
-4.3333216 7.4489484 0.90404987 0
-6.1911907 5.5588093 2.4205573 0
-5.7856126 5.9835925 2.4152317 0
-6.0931692 5.6682777 2.4195256 0
-5.8901181 5.8805346 2.4168081 0
-4.4659472 -7.3626232 -0.98807526 0
-4.9546247 6.8105149 2.0493436 0
-5.0265226 6.7570863 2.0511961 0
-5.8476439 5.9259758 2.4140525 0
-6.8682613 5.0430861 1.5964351 0
-4.1672988 7.6033559 -0.040709496 0
-5.0647669 6.6997533 2.1578736 0
-4.8387613 6.8980975 2.0532804 0
-4.2654138 7.5219064 -0.66767275 0
-5.6841993 6.0885806 2.4165878 0
-5.684504 6.0895915 2.4149361 0
-4.3269577 7.4367418 1.0992825 0
-6.1706495 5.5988822 2.4119539 0
-4.6452231 7.1286621 1.6903152 0
-6.9197397 5.0199533 1.4767585 0
-5.3580523 6.3839335 2.4100637 0
7.8643351 -2.8114619 2.3507295 0
-4.528585 7.2444921 1.5167441 0
-6.6540089 5.1054983 2.2247891 0
1.7727702 -8.1780272 2.2971382 0
-5.5160265 6.2468796 2.4191723 0
-6.5762243 5.2003388 2.2416871 0
1.7692182 -8.1628761 2.3583937 0
-4.3623724 -7.4389725 -0.98549557 0
-5.4729443 6.2922406 2.4129984 0
-5.8835125 5.8655763 2.5205338 0
-4.7063999 7.0626202 1.8331292 0
-4.1708136 7.6073122 -0.35337907 0
-4.251852 7.5070734 -0.98149943 0
-6.6637411 5.0944085 2.2476549 0
-7.054122 4.9780979 0.93278861 0
-4.1737065 7.6105685 0.27018809 0
7.8060341 -2.8273313 2.5480151 0
1.5531504 -8.5445633 0.027561545 0
-5.5849438 6.1970816 2.4154658 0
-4.1505632 7.62429 0.31133437 0
-4.2610221 7.5171027 0.8920399 0
-4.5114574 7.2736845 1.4866881 0
-5.7953148 5.962882 2.5158026 0
8.1703873 -2.7504053 1.0745273 0
-4.3485336 7.4242654 1.2034516 0
-5.607007 6.1470785 2.5039992 0
8.0210495 -2.7850585 1.8455997 0
8.4147959 -1.933001 -0.98699236 0
-4.1481962 7.6194129 0.50951624 0
2.909477 8.1292658 -0.98809361 0
-6.3077736 5.4638944 2.4265816 0
-6.3355141 5.4385786 2.4136488 0
-5.9835172 5.7749205 2.5288174 0
-5.7055402 6.0584269 2.5109713 0
1.5994706 -8.4963369 0.90405953 0
-5.1993914 6.5965142 2.2401986 0
1.5530573 -8.5482817 0.29303002 0
8.4180479 1.9344065 -0.98768103 0
-4.8526635 6.917263 2.0517578 0
1.55296 -8.552165 -0.23961103 0
-4.1710639 7.607594 0.58114243 0
1.5946221 -8.4762373 1.1070368 0
-4.9796576 6.7947583 2.1573272 0
-6.4080429 5.3552012 2.4288666 0
-4.534564 7.2265854 1.6914477 0
-4.3260336 7.4349685 1.2946343 0
-6.0798759 5.6808286 2.5363975 0
-6.1694393 5.5816393 2.5424585 0
8.446846 1.8336835 -0.98519742 0
1.6430686 -8.3975477 1.5734987 0
-4.1716352 7.6082373 -0.66783798 0
-4.1476192 7.6182241 0.70692158 0
-4.6830111 7.094799 1.8698523 0
-6.4931126 5.2710018 2.4146509 0
-5.5235028 6.2456446 2.5016079 0
-4.5027905 7.2581635 1.6802275 0
-6.5083437 5.2460728 2.431515 0
-6.916564 5.0174885 1.6682572 0
-4.6164441 7.1525369 1.8327284 0
1.5530062 -8.5503235 0.55840552 0
-6.601779 5.131422 2.4328625 0
8.455389 -1.8372309 -0.98699558 0
1.5528884 -8.5550232 -0.508371 0
-4.0748272 7.6911573 -0.35336554 0
-4.2523346 7.5076013 1.2030737 0
-5.1554484 6.5953474 2.4130051 0
-5.0245371 6.7541542 2.2449863 0
3.0127671 8.1155672 -0.98882902 0
-5.3616343 6.4248123 2.427515 0
8.2771511 -2.7216094 0.070916891 0
-5.2709832 6.5046086 2.4153459 0
-5.4331932 6.3387637 2.4976313 0
-6.2700205 5.4877944 2.5517719 0
-4.3290524 7.4458933 1.3322334 0
-5.3352394 6.4253798 2.4917662 0
8.278573 -2.7219949 -0.16669792 0
-4.2757602 -7.5332222 -0.98711121 0
-4.4475951 7.3436704 1.5184631 0
-4.892271 6.8876524 2.156532 0
-4.0852642 7.7032499 -0.041815877 0
8.2752094 -2.7210829 -0.40526342 0
-6.3629131 5.3883934 2.5593441 0
-6.898385 5.0033832 1.8581827 0
-4.0752153 7.691607 0.5811435 0
-4.1724868 7.6091957 0.89251876 0
8.4920769 -1.7398808 -0.98646903 0
8.1710558 -2.7507901 1.336381 0
1.5530119 -8.5500946 -0.77841258 0
8.2835512 -2.7233448 0.3074193 0
3.114027 8.0906029 -0.98762894 0
1.5950072 -8.4778337 1.3103118 0
-7.0529451 4.9775591 1.2721121 0
8.095726 -2.7704053 1.7101669 0
-4.0868359 7.705071 0.26994598 0
-4.7514968 7.0257254 2.0547943 0
1.6638503 -8.3613901 1.8664091 0
-6.8585405 5.0384655 1.9341707 0
-4.42729 7.3295412 1.693583 0
-6.6550236 5.1063333 2.4178696 0
8.277132 -2.7216041 0.54386449 0
1.7760258 -8.1647062 2.5300059 0
1.7719312 -8.1749401 2.4999297 0
-4.1519189 7.6270828 0.90405202 0
-4.1709852 7.6075053 -0.98474085 0
-4.7962775 6.9724975 2.1538012 0
8.2988119 -2.7182958 0.048683882 0
-5.1925344 6.5869918 2.4330699 0
-5.1506238 6.6052232 2.4842997 0
3.2147188 8.0636606 -0.9863199 0
8.5039778 1.7446244 -0.98895943 0
-4.1752405 -7.6122956 -0.98575568 0
8.3025036 -2.7194428 -0.16736221 0
-4.3301754 7.4429135 1.4910841 0
-7.1965714 4.9313288 0.51476729 0
8.2858438 -2.7142668 -0.59964287 0
-4.0824718 7.7000146 -0.66910362 0
-5.2558866 6.525918 2.4916883 0
-4.5321074 7.2480268 1.8338695 0
8.3006191 -2.7188573 -0.38394701 0
1.5526378 -8.5650263 0.82491112 0
8.0161772 -2.7821596 2.1108255 0
8.5318565 1.6437724 -0.98687971 0
8.3073912 -2.7209613 0.26271534 0
-4.6817818 7.0927377 2.0649991 0
-5.0620875 6.7105718 2.4174929 0
-4.6414318 7.123868 2.0560069 0
8.3174267 -2.7107985 0.031354189 0
-3.9854946 7.7829723 0.27005649 0
-4.8535738 6.92138 2.252543 0
-4.3581939 7.4345317 1.518954 0
8.3043623 -2.7200205 0.47703469 0
-4.0761666 7.6927094 0.8924861 0
-6.557703 5.1908765 2.5777714 0
8.3166742 -2.7103796 0.29437315 0
-3.9860978 7.7836919 -0.35450202 0
8.5390501 -1.6465209 -0.98837662 0
-4.7039881 7.0603342 2.1523483 0
-3.9916344 7.7902951 -0.042111158 0
3.316144 8.0408154 -0.98610914 0
-4.2218981 7.5513659 1.3343096 0
8.2936401 -2.7260804 -0.64921558 0
-5.0619783 6.6973982 2.4821839 0
-6.4769564 5.299089 2.5727563 0
8.2846289 -2.7236369 0.78088903 0
8.562232 1.544137 -0.98562729 0
-5.0205927 6.7483306 2.4394422 0
-3.9644666 7.8031068 0.30552268 0
-4.1703897 7.6068354 1.2047231 0
-4.3225603 7.4283066 1.6862175 0
-5.8767977 5.8686156 2.7864399 0
-7.2029619 4.9359994 0.70932925 0
1.5955544 -8.4801016 1.5141532 0
-4.0758467 -7.6923385 -0.98492253 0
-3.9841914 7.7814178 0.58130801 0
8.5863419 -1.4424837 -0.98338521 0
8.2806435 -2.7225564 -0.89089286 0
8.3272543 -2.7162712 -0.23359847 0
-4.156127 7.6357517 1.1016364 0
-3.9629707 7.7997856 0.50556326 0
8.569521 -1.5468032 -0.98713601 0
-4.0778046 7.6946073 -0.9853971 0
-4.4370408 7.3327703 1.8328936 0
-4.5140352 7.2783017 1.8785565 0
8.3068953 -2.7208073 0.69060707 0
-4.6085429 7.1448307 2.1503568 0
-5.9865608 5.7701197 2.7904031 0
1.5526922 -8.5628557 1.0919466 0
-4.2595882 7.5155344 1.5180125 0
8.0908604 -2.7690108 1.9501104 0
1.6429962 -8.4042931 1.9073577 0
-4.9733429 6.7892685 2.4804456 0
-6.0903473 5.6658945 2.7929416 0
8.176095 -2.7536917 1.6013427 0
8.5984135 1.4467041 -0.98587096 0
-3.9695845 -7.7639961 -0.98266196 0
8.3295078 -2.717526 -0.49989849 0
-7.201417 4.9348698 0.9040488 0
-4.9639416 6.8213105 2.4211192 0
-4.5349994 7.2271519 2.0585489 0
-3.9633226 7.8005672 0.70489669 0
-5.6799693 6.0852938 2.786901 0
-7.2688265 4.921381 -0.090434968 0
8.2833796 -2.7232981 1.0185335 0
-7.0501175 4.9762645 1.6132016 0
-5.7864413 5.9843559 2.7889545 0
-3.9917369 7.7904177 -0.6703397 0
-4.3295555 7.4465885 1.6980653 0
-4.8469734 6.9104767 2.419589 0
-3.8806601 7.856339 0.58116508 0
8.3317242 -2.7187605 0.55732739 0
-6.9115248 5.0135789 2.0536439 0
8.3019657 -2.719276 0.90407169 0
8.6246128 -1.3458812 -0.98435485 0
3.420598 8.0308008 -0.9887501 0
-4.1539402 7.6312466 1.2992015 0
-5.5772943 6.1896214 2.7865057 0
-6.6699677 5.0974774 2.5912638 0
8.6275005 1.3468442 -0.98494625 0
8.3196259 -2.712023 0.82017767 0
1.6638479 -8.3616104 2.1369009 0
-7.2761869 4.9246244 0.25365436 0
-6.2979031 5.4560308 2.7992613 0
-5.4724264 6.2917209 2.7858725 0
-4.07831 7.6951928 1.2052317 0
-3.9000216 7.8801141 -0.042681515 0
1.594209 -8.4745235 1.7180147 0
-3.9876919 7.785593 0.89318943 0
-3.9812417 7.7778997 -0.98553562 0
-4.8836689 6.8799553 2.4787681 0
-4.1144471 7.6576643 1.336616 0
-7.1992245 4.9332676 1.0986607 0
-6.3981476 5.3475471 2.8020008 0
-6.2061291 5.571063 2.7994802 0
1.5529721 -8.5516853 1.3593609 0
-4.1455293 7.6139178 1.4959652 0
3.5206585 8.0016756 -0.98786879 0
-3.9009175 7.8812146 0.2696749 0
-5.8941355 5.8724227 2.8603828 0
-4.5077972 7.2671289 2.0740032 0
-4.3510323 7.4269204 1.8342743 0
8.3344984 -2.7203052 -0.76916921 0
-7.2711515 4.9224052 0.59764946 0
-5.7103753 6.0617433 2.8474691 0
-4.685339 7.0987 2.2628517 0
8.2757311 -2.7212243 1.2567296 0
-7.2588511 4.916985 -0.78219807 0
-5.805161 5.969429 2.8546736 0
-3.9659929 7.8064957 0.9040544 0
-5.9891982 5.7784681 2.8684051 0
8.0080624 -2.7773318 2.378953 0
-7.2823715 4.9273496 -0.437222 0
8.6593618 -1.2479868 -0.98488402 0
-4.8551378 6.9238381 2.449976 0
-6.7693863 5.0689344 2.4522464 0
8.6610308 1.248517 -0.98522437 0
-5.523016 6.2452903 2.8348694 0
-3.9040971 7.885119 -0.35677284 0
-4.2161384 7.5431576 1.6996422 0
-6.1717882 5.5830145 2.883172 0
-5.6209421 6.1569309 2.8423791 0
-4.171113 7.6076493 1.5191412 0
3.6200223 7.9703622 -0.98683167 0
8.3042021 -2.7199707 1.117471 0
-6.8606863 5.0394855 2.2774611 0
-5.3321729 6.4230075 2.8225696 0
-4.3290634 7.4407806 1.8850038 0
-5.2631822 6.4963179 2.786202 0
-5.4333653 6.3388929 2.8304732 0
-6.2672949 5.4862509 2.8924124 0
-4.749238 7.0229511 2.4243414 0
8.0807362 -2.7661097 2.1921325 0
-4.5340085 7.2499352 2.1544263 0
-6.092845 5.6886711 2.8794692 0
-7.1970415 4.9316721 1.2933581 0
8.1697292 -2.7500265 1.8671021 0
-3.9013486 7.8817439 -0.67191458 0
1.5031037 -8.6423788 0.92857218 0
8.6920033 -1.1493523 -0.98526835 0
8.3244829 -2.7147279 1.0847208 0
-4.4375234 7.3432722 2.0639024 0
-6.3614388 5.3875861 2.9015899 0
-3.8017464 7.9620528 0.26965785 0
-4.2572107 7.5129342 1.834157 0
-6.5159073 5.2517529 2.8102183 0
-5.3865132 6.4133258 2.7920022 0
-3.8875809 -7.8648372 -0.98670113 0
8.7000675 1.1517887 -0.98690581 0
3.7221274 7.9492302 -0.98813355 0
-7.2735071 4.9234433 0.94210291 0
-3.9695191 7.8143249 1.1035638 0
-3.8919597 7.8702145 -0.98779941 0
-6.6132975 5.1398163 2.8129253 0
-4.8098912 6.985034 2.4824624 0
-3.8058343 7.9672227 -0.35699451 0
1.5947175 -8.4766321 1.9234214 0
-3.8997283 7.8797541 0.89405704 0
-5.2529902 6.5236106 2.8225255 0
-3.8115067 7.9743953 -0.043631792 0
-4.5031137 7.2587414 2.2706599 0
8.7215919 1.0497618 -0.98531973 0
8.7218647 -1.04984 -0.98537493 0
-3.8989921 7.8738804 0.97460008 0
-4.6783648 7.0870109 2.4586763 0
8.3062649 -2.7206116 1.3312027 0
-4.4403634 7.3362017 2.1536334 0
-4.6415539 7.1240225 2.4265633 0
-4.7074409 7.0636067 2.4775624 0
-6.9220428 5.0217395 2.2506199 0
1.5529683 -8.551836 1.6300883 0
1.7760595 -8.1741285 2.8705146 0
-5.1698103 6.6110549 2.7909636 0
3.8210087 7.9165416 -0.98739278 0
-4.0104308 7.7705936 1.3397577 0
-5.1585851 6.6117539 2.8177016 0
-4.1515837 7.6263924 1.6955667 0
-5.0562105 6.7039561 2.7893374 0
8.2841864 -2.7235169 1.499064 0
-4.0838771 7.701643 1.5207677 0
-4.0001864 7.8004956 1.2078204 0
-7.1959467 4.9308715 1.4884467 0
8.7434311 0.94804019 -0.98409796 0
-5.0590439 6.6949201 2.8114576 0
-7.0516758 4.9769778 1.9577746 0
-3.7760086 7.989182 0.50093246 0
-3.7848487 -7.9406853 -0.98588645 0
3.9175706 7.8767571 -0.98549068 0
1.6429881 -8.4050455 2.2442384 0
8.3205109 -2.7125156 1.3500338 0
-3.8099842 7.9724703 0.58197391 0
1.5032579 -8.6362228 1.2646477 0
-4.1139283 7.6569014 1.7039971 0
8.7514191 -0.95020586 -0.98570657 0
-3.8893957 7.8670659 1.2061357 0
-6.4734964 5.2972584 2.9165578 0
-3.9688644 7.812871 1.3032153 0
-3.810792 7.9734917 -0.67374134 0
-4.3324862 7.4506397 2.0677643 0
1.4365913 -8.7413082 0.28959692 0
-4.3321848 7.4467673 2.0845032 0
-3.7847319 8.0101376 0.29723644 0
-6.5632706 5.1937213 2.9251025 0
-3.675931 -8.0082779 -0.98372757 0
-7.2656355 4.9199748 1.2870219 0
1.4363043 -8.7485943 -0.25711644 0
-3.9600167 7.7932267 1.5018301 0
8.1597862 -2.7443018 2.1350245 0
-4.1721873 7.6088586 1.8364275 0
1.436118 -8.7533264 0.01642859 0
-4.6208339 7.1568179 2.4780626 0
1.4367338 -8.7376871 0.56173968 0
-4.9746132 6.7903728 2.8109205 0
-3.7993917 7.9590759 -0.98959994 0
8.7792187 0.85005063 -0.98597169 0
-4.3529572 7.4289665 2.1549459 0
4.0188966 7.8522501 -0.98698866 0
-4.1472101 7.6173806 1.8938923 0
1.6636487 -8.3801632 2.4167178 0
-3.8087239 7.9708762 0.89479661 0
-4.5399179 7.2335577 2.4312148 0
8.78339 -0.85111803 -0.98680878 0
-3.7163196 8.0608816 0.26921368 0
-4.9595175 6.8161845 2.7941241 0
4.1146021 7.8107405 -0.98529494 0
-3.7763233 7.9899383 0.90405715 0
8.7975845 -0.74756318 -0.98463702 0
8.7979774 0.74765784 -0.9847157 0
-3.7837567 8.0077944 0.70213509 0
-5.7711573 5.9702806 3.1629624 0
-3.6889019 8.0251722 -0.98710108 0
8.318017 -2.724263 1.5462093 0
-3.7119613 8.0552053 0.58206141 0
-6.664813 5.0949368 2.937547 0
-3.7241116 8.0710306 -0.044811368 0
8.4775829 -2.6747026 0.024900317 0
-3.9003153 7.8759499 1.3422396 0
-3.7901955 7.9828987 0.97639823 0
-4.5028696 7.2583036 2.4700944 0
1.4359075 -8.7586718 -0.53382605 0
-4.847383 6.910965 2.7940168 0
8.480402 -2.6736012 0.061257243 0
-7.2026672 4.9357843 1.6850126 0
-4.8846068 6.8807945 2.8088598 0
-5.8821626 5.8734159 3.1675406 0
-3.9987783 7.7988162 1.5230851 0
-5.984561 5.7683811 3.1695013 0
1.5974073 -8.4877834 2.1313586 0
8.4804516 -2.6762466 -0.24367326 0
-4.2546382 7.5101209 2.1535149 0
-4.5295339 7.2454443 2.4774685 0
8.4805641 -2.6763067 0.29214954 0
8.8197327 0.64610857 -0.98435318 0
-3.5765343 -8.0880375 -0.98430455 0
-6.9246235 5.0237422 2.447839 0
-6.7535572 5.0577426 2.8281817 0
1.5529332 -8.5532379 1.9040811 0
-5.6751318 6.0807095 3.1643605 0
8.3209629 -2.7127678 1.6181154 0
-6.8538733 5.0362473 2.6233208 0
8.2917423 -2.7255657 1.7445281 0
-3.7279687 8.0760536 -0.36031777 0
-4.3273492 7.4374924 2.2827985 0
-6.0902987 5.6658535 3.17314 0
-4.0802135 7.6973982 1.8373809 0
-4.2269187 7.5585213 2.071979 0
8.4924812 -2.6766913 -0.18378538 0
-3.7194033 8.0648985 -0.67569709 0
8.4904776 -2.6761789 0.30413628 0
8.8372803 -0.54370612 -0.98344517 0
1.436141 -8.7527399 0.83494055 0
-4.4319415 7.335783 2.4343994 0
1.4360068 -8.7561493 -0.81162894 0
-3.8922935 7.8706245 1.5215538 0
-6.1958494 5.5626307 3.1771836 0
8.4847584 -2.6785645 -0.51432163 0
-3.8063884 7.9679232 1.2084725 0
8.834137 -0.6493575 -0.98722339 0
-4.4313669 7.3269105 2.4750047 0
-4.012351 7.7735043 1.7089477 0
8.8436661 0.54505068 -0.98471355 0
1.5031402 -8.6409178 1.6036842 0
4.3108463 7.7423234 -0.9857645 0
-3.6215105 8.1483841 -0.044800401 0
-6.9496555 5.0116324 2.4746375 0
8.4965076 -2.6777215 -0.4301827 0
1.4061726 -8.7945719 0.48536193 0
-3.7819252 8.0033951 1.1058695 0
-6.2993059 5.4571486 3.1809726 0
4.2204471 7.7979331 -0.98980772 0
-7.262681 4.9186726 1.6341119 0
8.4853878 -2.6748767 -0.67651761 0
8.313056 -2.7227216 1.7608569 0
-3.7174602 8.0623674 0.89563882 0
1.4098376 -8.8119373 0.063180685 0
1.4091923 -8.8088799 0.27441955 0
8.4939547 -2.6835146 0.55951583 0
-5.5863018 6.1984057 3.1690588 0
8.4758778 -2.6737845 0.82639813 0
-3.5935631 8.1108856 -0.98881781 0
8.4976311 -2.678009 0.54739261 0
-5.4777231 6.2970366 3.1669636 0
-7.4842157 4.8595572 0.25077164 0
-3.6245432 8.1524534 -0.36018938 0
-3.9701128 7.8156433 1.704397 0
8.4830952 -2.6776698 -0.78657031 0
-4.150784 7.6247444 2.095392 0
-7.4819784 4.8586092 -0.45086712 0
-4.8083739 6.9836369 2.8122575 0
-7.0512829 4.9767981 2.3058836 0
1.59412 -8.4741554 2.3370063 0
1.4363375 -8.7477541 1.1084428 0
-7.2045889 4.9371891 1.8821287 0
-4.112947 7.6554594 2.0743475 0
-3.7881694 7.9796276 1.3446898 0
-5.3724308 6.3987827 3.1666422 0
8.87533 -0.33973509 -0.9830904 0
-3.5838737 8.1815958 0.29131532 0
8.8712521 0.44463176 -0.98608339 0
1.6430721 -8.397212 2.5837948 0
4.4103928 7.7114677 -0.98714054 0
-3.4817452 8.1743889 -0.98644364 0
-3.6241727 8.1519566 0.58248377 0
-5.2634487 6.4966011 3.1654391 0
1.407692 -8.8017702 0.69465649 0
-3.6789827 8.0898581 0.97815084 0
-3.4826531 -8.1756439 -0.98668909 0
-4.3398895 7.4150786 2.4751465 0
-3.621006 8.147707 -0.67651701 0
-4.7082601 7.064383 2.8074255 0
8.8760052 -0.44556171 -0.98702478 0
-6.4107523 5.3572965 3.1879406 0
8.4958735 -2.6775594 0.79097962 0
8.2831116 -2.7232256 1.990026 0
-4.1735172 7.6103559 2.1574311 0
-4.7588868 7.0348001 2.8030419 0
-3.637157 8.1693783 0.26853693 0
8.4866829 -2.6752079 -0.92727709 0
-3.993093 7.7920351 1.8398571 0
-3.7815313 8.00245 1.3078527 0
-3.5847921 8.1839933 0.49581313 0
-7.4899054 4.8619676 0.60073614 0
-4.6076818 7.143991 2.8027811 0
8.2974987 -2.7178879 1.9748998 0
-7.5054674 4.8528371 0.50514984 0
-7.5104227 4.8706608 -0.10100347 0
-4.6415663 7.1240387 2.8021576 0
8.1724472 -2.7515917 2.4134831 0
-3.7140512 8.0579271 1.2097182 0
-4.3309178 7.448472 2.4404342 0
8.8940296 0.34311682 -0.98678422 0
-3.3705773 -8.2381172 -0.98444808 0
-5.1593118 6.5995727 3.1666927 0
-3.8031888 7.9638767 1.5236363 0
1.5530994 -8.5466042 2.1800618 0
-3.901463 7.8777447 1.7122643 0
8.3242435 -2.7145951 1.8898444 0
8.9007435 0.2388075 -0.98460484 0
8.9030724 -0.2391941 -0.98506355 0
-3.5844908 8.1832066 0.70006669 0
-6.5194645 5.2544241 3.1944008 0
4.5105014 7.6813912 -0.98898697 0
4.6014585 7.6291828 -0.9864676 0
-6.6126051 5.1393113 3.1961207 0
-7.4885693 4.8614016 -0.80538297 0
-4.0730877 7.6891422 2.1560922 0
-4.3317266 7.4458895 2.4858837 0
1.4091402 -8.8086329 0.90406704 0
-3.9682159 7.8114314 1.9055786 0
8.4866276 -2.6795712 1.0956869 0
-3.5285664 8.2391253 0.26867735 0
-7.5073681 4.8541446 0.70465648 0
1.5035356 -8.6251364 1.9427259 0
1.4049159 -8.7886181 1.1131642 0
-3.6263857 8.1549253 0.89662778 0
-4.1466217 7.6161685 2.2956843 0
8.4985771 -2.678251 1.0357358 0
4.6949911 7.5836229 -0.98562276 0
-3.5349417 8.2479391 -0.046320975 0
-4.2140846 7.5402308 2.4417837 0
-3.8965907 7.8759012 1.8403609 0
8.9237814 0.032367587 -0.98302448 0
-7.2049112 4.9374242 2.0801532 0
8.9237499 0.13726801 -0.98592687 0
-3.7817621 8.0030031 1.5103407 0
1.436039 -8.7553339 1.3848157 0
-5.062017 6.7104926 3.1713166 0
-3.2662792 -8.3113451 -0.98459816 0
8.9310074 0.071244121 -0.98183024 0
-4.2582998 7.5141253 2.4791021 0
-3.3883238 8.2634087 -0.9893415 0
8.9303455 -0.13826674 -0.98722351 0
-7.4960823 4.8645849 0.9515872 0
-3.587636 8.1914167 0.90406048 0
-7.5095949 4.8556762 0.90405464 0
-4.5264292 7.2423286 2.8058357 0
-4.5405965 7.2344418 2.807935 0
-3.5411701 8.2565508 -0.36321366 0
-3.6820478 8.0949678 1.3484735 0
-3.5679035 8.1990147 0.98011899 0
4.7937727 7.549664 -0.98754215 0
8.9432268 -0.035027981 -0.98683953 0
-6.8433475 5.0312443 2.9731698 0
-7.5005255 4.8494377 1.1032593 0
-4.9545417 6.8104191 3.1724892 0
4.8833251 7.4957643 -0.98547971 0
1.4055909 -8.7918158 1.3226411 0
8.4854898 -2.6789584 1.3658235 0
-3.5413671 8.2568235 0.58310378 0
-4.0187025 7.7831306 2.0828362 0
-3.6246676 8.1526203 1.2116075 0
-3.7915335 7.9850588 1.7162261 0
-3.984251 7.7814889 2.158576 0
1.5974181 -8.4878283 2.5488701 0
8.2863235 -2.7240963 2.2421725 0
8.9520416 -0.068672538 -0.98594928 0
8.3019581 -2.7192733 2.1922977 0
-3.7785692 7.9953337 1.7126853 0
-7.2759085 4.9245014 1.9867654 0
-3.2799406 8.3314199 -0.98844397 0
8.5045691 -2.6797841 1.2826045 0
-3.5408664 8.2561312 -0.68142462 0
-3.7183318 8.0635023 1.526881 0
1.3559458 -8.8892717 0.59757793 0
-3.9684381 7.811924 2.1083684 0
-4.4347558 7.3304105 2.80546 0
8.9601116 -0.17234284 -0.98520541 0
-3.804985 7.9661484 1.842428 0
4.9788647 7.4545336 -0.98643017 0
-3.5904741 8.1988258 1.1084437 0
1.4363502 -8.7474289 1.6616466 0
1.3549656 -8.9141655 0.25338709 0
8.3253269 -2.7151976 2.1649704 0
-3.5370007 8.2507868 0.89790499 0
-3.4395685 8.3364391 0.26819527 0
-3.4421668 8.3401423 -0.047435403 0
-4.170867 7.6073723 2.4815798 0
-6.9423981 5.0066552 2.8572197 0
-3.1673036 8.3927364 -0.98658049 0
-4.4347663 7.3395729 2.8125515 0
8.9668341 -0.27605027 -0.98448932 0
-6.7531004 5.0574193 3.2139072 0
8.9730473 0.17094892 -0.98773432 0
-3.4416366 8.339386 -0.36406338 0
-4.8549151 6.9199491 3.1775465 0
8.9689903 -0.38003343 -0.98317337 0
8.9726992 0.2755031 -0.98563433 0
5.1581926 7.3489366 -0.98415422 0
-4.1148968 7.6583252 2.4497075 0
-7.4982977 4.8655238 1.3038177 0
-3.4627109 8.3209133 0.61129344 0
5.0725365 7.409328 -0.98681653 0
1.5529701 -8.5517645 2.4632225 0
8.4929371 -2.6768081 1.5291517 0
-3.8885398 7.866015 2.1593912 0
-7.5090971 4.8553338 1.3031657 0
-3.5873308 8.1906214 1.3126392 0
-4.1526175 7.628521 2.5014534 0
8.4784088 -2.6751473 1.6371274 0
-3.9593964 7.7918501 2.3088064 0
-3.1758933 -8.405755 -0.98905075 0
-7.0597391 4.9806695 2.6609674 0
-3.904469 7.8824453 2.0861716 0
-3.443563 8.3421316 0.58332598 0
-7.2199459 4.9484138 2.2824931 0
-3.5695524 8.2018557 1.3515251 0
-3.5301137 8.2412643 1.2129631 0
1.6430358 -8.4006062 2.9313276 0
1.3134755 -8.9527531 0.0056892633 0
-3.4424143 8.3404942 -0.68284702 0
-4.321629 7.4356289 2.8149683 0
8.98279 -0.48309281 -0.98441637 0
-3.6232009 8.1506529 1.528368 0
-7.1458435 4.9609184 2.5007246 0
-3.0598578 -8.4615965 -0.98645627 0
