# .PCD v0.7 - Point Cloud Data file format
VERSION 0.7
FIELDS x y z intensity
SIZE 4 4 4 4
TYPE F F F F
COUNT 1 1 1 1
WIDTH 1418
HEIGHT 1
VIEWPOINT 0 0 0 1 0 0 0
POINTS 1418
DATA ascii
3.7288711 -6.3646955 0.7267822 0
6.1703782 -4.1055913 -0.16221476 0
6.1608462 -4.1209788 0.14072084 0
6.1549444 -4.1360116 -0.0069913864 0
6.099164 -4.1721544 -0.62745512 0
7.0169992 -2.1876714 -0.99100542 0
6.0150642 -4.2195702 1.0124054 0
6.1595564 -4.1200533 0.33081186 0
5.2298546 -4.7691808 2.2204447 0
5.7067623 -4.445682 1.6457667 0
6.1522751 -4.1148267 0.52043164 0
7.0473566 -2.1038086 -0.98727345 0
5.9361053 -4.2745261 1.2482128 0
5.6281185 -4.4764414 1.8315203 0
6.17663 -4.112731 0.07302773 0
6.143115 -4.1286039 0.54165626 0
-7.122551 1.841264 -0.98560393 0
6.0989585 -4.1720018 0.70963264 0
6.0952449 -4.1657 0.77768683 0
6.154623 -4.1358099 0.35902774 0
6.1601801 -4.120501 -0.43542117 0
5.7567492 -4.4015288 1.6144767 0
3.8240352 -6.2249107 1.3238058 0
5.8337989 -4.3546276 1.460175 0
3.980031 -5.9767685 1.8999276 0
5.3798761 -4.658946 2.1307673 0
5.7009592 -4.440115 1.7255139 0
6.0230803 -4.2116642 1.0863907 0
6.1783071 -4.114646 0.30819368 0
6.1538839 -4.1159811 -0.62962079 0
6.1697745 -4.1049023 0.54298019 0
-2.2555685 7.0108972 -0.98574829 0
3.7051001 -6.3886342 0.82380474 0
7.0569553 2.1093352 -0.98983061 0
5.8560705 -4.327796 1.485445 0
-2.2565975 -7.0124569 -0.98611152 0
7.0836024 2.0237339 -0.98544574 0
5.7645783 -4.3956194 1.6482573 0
-7.1348047 -1.8424959 -0.98755455 0
-7.1020117 1.9672716 -0.98450792 0
4.0037432 -5.9062862 2.0923965 0
3.7312648 -6.3683419 0.90402746 0
6.2234101 -4.0697107 -0.051919222 0
3.9805462 -5.9710927 1.9491603 0
5.9549332 -4.2713337 1.2626534 0
6.0935044 -4.1679678 0.89909887 0
3.7161779 -6.4038534 -0.70164335 0
3.7697988 -6.3109512 1.1293957 0
6.0971289 -4.1679149 -0.88038349 0
6.1696758 -4.1047893 -0.63845813 0
2.1156411 -7.0618811 -0.98795152 0
3.9358468 -6.0349851 1.8487535 0
5.5449791 -4.5510492 1.9694715 0
6.2247891 -4.0706711 0.1395067 0
3.7081506 -6.3816614 0.93104148 0
3.6543479 -6.4790597 0.11911607 0
2.2018056 7.0390472 -0.98404336 0
3.8627567 -6.1565304 1.6002493 0
3.717006 -6.4061427 0.72977579 0
5.207592 -4.7935648 2.3009267 0
6.1584167 -4.119235 0.71052229 0
5.3112721 -4.7185726 2.2204051 0
3.7838497 -6.2675567 1.3466365 0
3.6543353 -6.4790235 -0.29258102 0
6.18541 -4.1227574 -0.40220118 0
6.2198033 -4.0671992 -0.43825817 0
6.1503601 -4.1331406 0.72274351 0
4.1001091 -5.7781672 2.2894983 0
3.8553817 -6.1643825 1.6060727 0
7.1203923 1.9441888 -0.98407614 0
3.6546626 -6.4799705 0.32357156 0
5.8963866 -4.307281 1.4637444 0
6.109242 -4.1796093 -0.82804108 0
3.7250865 -6.358932 1.0811121 0
7.098402 -2.031975 -0.98935652 0
3.8719378 -6.1279898 1.718194 0
5.970583 -4.2683592 1.2768672 0
6.0133672 -4.2175164 1.2487752 0
3.7131026 -6.3953514 -0.91117406 0
2.1165485 7.0767808 -0.99139774 0
3.6590557 -6.492681 -0.08736676 0
6.0975189 -4.1683731 1.013608 0
6.2333837 -4.0766559 0.33019686 0
6.2480536 -4.04812 -0.40045834 0
5.5780106 -4.5401673 1.9647975 0
6.2370105 -4.0791817 -0.24664193 0
-7.1239443 -1.9697938 -0.98800457 0
-2.1678171 7.0665741 -0.9855324 0
2.203124 -7.0565629 -0.98809862 0
6.2562237 -4.0571852 -0.16403687 0
3.7653069 -6.299068 1.3314116 0
6.0220847 -4.2109056 1.2777517 0
6.0903592 -4.1656408 1.0896037 0
3.6554589 -6.4822745 -0.50138259 0
5.3866081 -4.6585732 2.2177355 0
5.9334626 -4.2712336 1.4860215 0
6.176342 -4.112402 0.77834916 0
3.6247869 -6.5148282 0.2913264 0
3.8232188 -6.2228417 1.5274849 0
3.6558001 -6.4832616 0.52788913 0
6.2297969 -4.0741587 0.52112675 0
7.1348271 -1.9519587 -0.98786092 0
3.704824 -6.3876028 1.0901959 0
4.0761023 -5.7993469 2.3391466 0
5.7566442 -4.4014544 1.7935266 0
5.7070308 -4.4459186 1.8418243 0
6.1505461 -4.1332569 0.90403235 0
6.2622676 -4.0638914 0.071960449 0
6.16008 -4.120429 0.9013567 0
2.2894979 7.0384746 -0.98557591 0
5.953352 -4.2702794 1.4423192 0
5.9566092 -4.2573895 1.4668577 0
3.9284892 -6.0564771 1.9139795 0
6.2227678 -4.0692639 0.7117641 0
5.8366671 -4.3570151 1.6552222 0
5.7869935 -4.3952107 1.7285089 0
5.6270409 -4.5012989 1.9709516 0
6.2469621 -4.0469089 -0.63973451 0
2.2899237 -7.0432215 -0.9866761 0
6.1764216 -4.112493 -0.88229859 0
7.1680179 1.8704491 -0.98583388 0
-2.1770501 -7.0810127 -0.98886383 0
-7.1059847 -2.0962806 -0.98761225 0
3.6552613 -6.4817028 -0.7119621 0
3.655057 -6.4811115 0.73239756 0
-7.1084156 2.0965955 -0.98800039 0
6.2670555 -4.0692039 0.30775774 0
6.1778007 -4.1331496 -0.83451605 0
5.8110037 -4.3356543 1.8437555 0
5.4647331 -4.6032143 2.2168832 0
6.2974367 -4.0254226 0.32978058 0
5.891912 -4.3036637 1.6572714 0
3.853081 -6.1610885 1.7825501 0
6.3033948 -4.0294461 0.13733113 0
2.3763356 7.0276861 -0.98503053 0
6.2615833 -4.0631323 0.54349947 0
6.0866461 -4.1628942 1.2813628 0
-2.0806084 -7.1231065 -0.98580265 0
6.2421079 -4.0827312 -0.63989222 0
5.9384327 -4.2603297 1.620985 0
2.3766334 -7.0305467 -0.98569453 0
3.730902 -6.3677888 1.2588832 0
6.1748481 -4.1106958 1.0142083 0
6.308198 -4.0326896 -0.056205094 0
6.1490412 -4.1323142 1.0852852 0
6.2276168 -4.0726404 -0.83584189 0
7.1814251 -1.8774199 -0.98932254 0
3.9828618 -5.9742131 2.1268864 0
6.294435 -4.0233955 0.52155602 0
6.3312216 -3.9961789 -0.16452545 0
6.0963769 -4.1670308 1.2505736 0
6.3258195 -3.9903543 -0.40166694 0
2.4618149 7.0058699 -0.98220932 0
5.5668173 -4.5317369 2.14223 0
6.3339186 -3.9990861 0.07193315 0
-2.0835743 7.1278949 -0.98689747 0
6.3424969 -3.9868767 -0.016697645 0
6.3088326 -4.0331182 -0.25071597 0
3.5957267 -6.5649629 0.36470616 0
6.3030953 -4.0292439 -0.44573796 0
6.1631551 -4.1226363 1.0937176 0
5.775825 -4.4052567 1.8485875 0
6.3442459 -3.9879034 -0.20334232 0
7.2113967 1.7943137 -0.98675549 0
6.3574471 -3.9707072 0.13667679 0
3.6300087 -6.5355468 0.56044638 0
3.6007488 -6.573112 0.18312609 0
-7.0914927 -2.223222 -0.98806357 0
6.2486591 -4.0487919 -0.88236749 0
6.3344493 -3.9996588 0.3078599 0
5.3922014 -4.6687961 2.3128476 0
6.0252419 -4.2133112 1.4721682 0
3.7187157 -6.4108686 1.1387269 0
3.9329195 -6.0256581 2.1136234 0
3.7847567 -6.2707639 1.6141787 0
3.8617501 -6.1531553 1.8665032 0
5.8673596 -4.3422837 1.7298625 0
5.7086697 -4.4506159 1.9725146 0
6.2334542 -4.076705 0.90438986 0
3.6564522 -6.4851484 0.93806946 0
6.2994609 -4.0267892 -0.64293635 0
3.600646 -6.5835738 -0.093266487 0
6.3651752 -3.9757664 -0.057598531 0
3.6257777 -6.5187602 0.82936072 0
7.2192383 -1.7982492 -0.98878109 0
3.8739123 -6.1327929 1.9271801 0
6.0212569 -4.2270651 1.4893775 0
3.601207 -6.5852752 0.11473286 0
3.8233008 -6.2230492 1.7343569 0
6.3487663 -3.9905567 0.35268712 0
2.4638212 -7.0227823 -0.9861412 0
-7.0630045 2.3480504 -0.98656237 0
5.9311457 -4.2683463 1.7262802 0
5.7554188 -4.4005847 1.9733548 0
6.3331752 -3.9982851 0.54350734 0
-7.1035872 2.2249649 -0.98999882 0
7.2448764 1.7132397 -0.98541224 0
6.1509519 -4.1138763 1.2850218 0
3.7698212 -6.3110113 1.5397336 0
6.3645954 -3.9753869 0.32928801 0
3.6011839 -6.5852051 -0.30284607 0
3.6595759 -6.4941864 -0.92856646 0
6.2667966 -4.0689168 0.77979398 0
6.3600368 -3.9971721 0.16675234 0
3.6015942 -6.5864496 0.32210684 0
5.7772074 -4.3822746 1.9693196 0
3.728193 -6.3636632 1.4364476 0
6.1480341 -4.1316843 1.2666795 0
6.3711505 -3.9796782 -0.25345439 0
3.5991564 -6.5790544 -0.51305336 0
-1.9937503 7.1803432 -0.98651433 0
6.3643708 -3.97524 -0.44908351 0
3.7135406 -6.3965621 1.3430507 0
5.5503263 -4.5587864 2.219945 0
7.2527866 -1.7170689 -0.9874413 0
3.7076139 -6.3980398 1.3596027 0
6.3496418 -3.9910705 0.53675449 0
-1.9954932 -7.183249 -0.98717296 0
6.0880251 -4.1572132 1.4876938 0
3.6003082 -6.5825486 0.5292213 0
-7.0767298 -2.3502293 -0.98876345 0
6.4078021 -3.9365704 -0.16531873 0
6.3094416 -4.0335293 0.71445107 0
-7.0362368 2.4729285 -0.98562086 0
3.8511393 -6.1583085 1.9598916 0
6.4058657 -3.9345415 0.30783343 0
5.8888001 -4.3011484 1.8540087 0
3.5960584 -6.5696578 -0.72447968 0
5.9692888 -4.267343 1.666019 0
2.5504613 7.0103478 -0.98579144 0
4.0067716 -5.9154716 2.3626852 0
5.6186094 -4.4894643 2.2152491 0
6.3390565 -4.0046258 -0.64463484 0
3.5989578 -6.5702057 0.72437191 0
6.1775975 -4.1138358 1.2521451 0
3.9746954 -5.9632077 2.3028457 0
6.2331843 -4.0765176 1.0974693 0
6.4141359 -3.9432056 0.071185112 0
6.0942774 -4.1685395 1.4776735 0
6.3719902 -3.9802282 0.52226615 0
3.6104524 -6.5888581 0.54349887 0
6.262063 -4.0636644 1.0161998 0
6.4320598 -3.9245696 -0.060090661 0
6.3089304 -4.0331845 -0.84617221 0
6.3373938 -4.0028334 0.77973461 0
6.1382046 -4.1255288 1.447684 0
-7.0496664 -2.4752579 -0.98777962 0
6.3296995 -3.9945376 -0.88521409 0
7.2906728 1.6380758 -0.98751247 0
6.4350233 -3.9264495 0.134516 0
5.5637465 -4.5294237 2.3222871 0
6.3554316 -3.9944692 0.72033811 0
7.2940307 -1.6396425 -0.98836792 0
3.7646365 -6.2972941 1.7454677 0
6.3724747 -3.9805453 -0.64977741 0
2.5527182 -7.0272965 -0.98973894 0
6.4343438 -3.9260185 -0.2564072 0
3.5970519 -6.5671134 0.9040302 0
-1.9034634 7.2319245 -0.98622954 0
-1.9037881 -7.2324839 -0.9863553 0
6.3407297 -3.9858394 0.90403485 0
6.3099322 -4.0338607 0.90778804 0
3.602025 -6.5877566 0.73680401 0
-7.0161295 2.5989137 -0.98603797 0
3.6613028 -6.4991827 1.1465998 0
5.8583121 -4.3306727 1.9712734 0
3.6277227 -6.5264773 1.1002607 0
3.710304 -6.3876147 1.5496864 0
5.7467413 -4.3944311 2.1527917 0
5.9560175 -4.2720566 1.8041613 0
6.438036 -3.9283609 0.32865524 0
-7.0189867 -2.5994518 -0.98649848 0
6.295424 -4.0240631 1.1001291 0
6.3772016 -3.9836397 0.7159605 0
6.4234138 -3.9529254 -0.40653187 0
6.0371366 -4.2223768 1.6720576 0
6.437263 -3.9278708 -0.45472336 0
7.3264909 1.5581241 -0.98734677 0
7.326869 -1.5582943 -0.98744261 0
6.4354186 -3.9267006 0.52269053 0
2.6393108 7.0130415 -0.98926055 0
6.1604061 -4.1206632 1.4825811 0
2.6393354 -7.0132084 -0.98929954 0
6.2330317 -4.0764112 1.2922111 0
3.8236933 -6.2240434 1.9448338 0
3.5996017 -6.5804062 0.94437456 0
5.9609709 -4.2608132 1.8624001 0
6.0235791 -4.2298751 1.7318273 0
3.5419672 -6.6801109 -0.099734187 0
3.5403562 -6.6749778 -0.31105161 0
3.7845659 -6.2700896 1.8841467 0
3.6006665 -6.5836358 -0.94378221 0
6.0881815 -4.1640301 1.673393 0
6.3683815 -3.9778657 0.90933371 0
3.5428674 -6.6829786 0.1107949 0
6.3751173 -3.9822755 -0.85238862 0
-1.8107202 7.279089 -0.9852519 0
3.8476694 -6.1533403 2.1378005 0
3.5413117 -6.6780224 0.32090759 0
5.7053728 -4.4461255 2.2194643 0
3.7370555 -6.377161 1.6163306 0
-6.9901886 -2.7238178 -0.98580444 0
6.1751909 -4.1110873 1.491184 0
7.3559318 -1.4754198 -0.98586714 0
3.5500329 -6.6772494 0.28888226 0
2.7246184 6.9911351 -0.98728108 0
3.6570759 -6.4869528 1.3535666 0
6.4226456 -3.952121 -0.64765108 0
6.3427763 -3.9870408 1.0873907 0
6.4335976 -3.9255452 0.71679544 0
3.5394206 -6.6719975 -0.52416891 0
3.547349 -6.6659193 0.56231439 0
6.4924121 -3.8847373 0.30740702 0
6.4311595 -3.9610398 0.5442059 0
5.7712817 -4.3744416 2.2146168 0
7.3617206 1.4779212 -0.98732305 0
6.2647586 -4.0666556 1.2549219 0
6.4968534 -3.8892586 -0.16776478 0
6.4172373 -3.9464548 0.78045022 0
3.8622956 -6.154984 2.1374025 0
6.344584 -4.0105853 1.0176444 0
2.8092828 6.9668994 -0.98503637 0
6.4433327 -3.9317212 -0.65621352 0
6.5001264 -3.8925912 0.069955707 0
3.709003 -6.4032359 1.6312282 0
2.7261539 -7.0005884 -0.98949218 0
5.937007 -4.2756495 1.972579 0
6.4930124 -3.8853486 -0.40651566 0
-7.00173 2.726162 -0.98766983 0
7.3854499 -1.3929265 -0.98471224 0
6.5118394 -3.8803208 -0.063960731 0
6.0211473 -4.2101908 1.8668551 0
6.1445293 -4.1294889 1.6305184 0
6.2942863 -4.0232949 1.2954543 0
5.9465141 -4.2657189 1.9847469 0
6.5104418 -3.8794622 -0.26130509 0
6.415329 -3.9444559 -0.88953066 0
6.0959172 -4.1664906 1.7314198 0
3.9341621 -6.0296178 2.3858418 0
6.5150466 -3.8822918 0.13218427 0
6.5046124 -3.8758798 -0.45941007 0
3.6078851 -6.584692 1.0840857 0
-1.8212464 -7.2978334 -0.98943055 0
6.4875607 -3.8797987 -0.64657414 0
3.539391 -6.6719036 -0.7400254 0
-6.9650469 -2.8488796 -0.98598921 0
-6.9650803 2.848887 -0.98599458 0
3.5453598 -6.6909199 0.53072822 0
6.5061584 -3.8768299 0.52327693 0
6.4341702 -3.9259083 0.91170919 0
3.7293708 -6.3654571 1.7942252 0
-1.7201095 7.3299251 -0.9853884 0
6.3716102 -3.9799793 1.1049218 0
6.5465698 -3.8411667 -0.21788692 0
6.5492706 -3.8426492 -0.029390454 0
6.4112163 -3.9401472 1.0171514 0
6.5172696 -3.8836579 0.3278954 0
3.5411115 -6.6773844 0.74029768 0
6.2334814 -4.0767241 1.4892488 0
6.442451 -3.9311619 -0.85906255 0
3.7109957 -6.3895268 1.7611439 0
2.8127465 -6.9864516 -0.98962069 0
6.2507577 -4.0511203 1.4920325 0
3.6022599 -6.5884686 1.1546679 0
3.5473614 -6.6659708 0.83587956 0
6.1584134 -4.1192327 1.6804061 0
7.401792 1.3997126 -0.98879755 0
6.5014119 -3.8938997 0.54421699 0
6.336607 -4.0019846 1.2550144 0
3.6294706 -6.5334115 1.3732796 0
6.5040302 -3.8755219 -0.6604352 0
6.555687 -3.8461721 0.15783036 0
5.7472954 -4.3948245 2.3352427 0
7.4238467 1.3141067 -0.98606491 0
6.347805 -3.9899926 1.2712173 0
2.8973703 6.9618793 -0.98758733 0
3.7687616 -6.3082075 1.9605689 0
3.6033485 -6.5773311 1.2639329 0
6.4934373 -3.885781 0.78094387 0
6.5766153 -3.8256531 0.13095915 0
6.5575399 -3.8471894 0.34494328 0
7.4308772 -1.3169091 -0.98781228 0
6.017025 -4.2219434 1.9746299 0
6.5488796 -3.8424349 0.53210497 0
6.5100026 -3.8791921 0.71890533 0
6.5762057 -3.8254092 -0.26478058 0
6.574934 -3.8246527 0.32756698 0
3.6584327 -6.4908791 1.5652492 0
6.1373081 -4.1249676 1.8126292 0
3.4798851 -6.7727017 -0.10589093 0
6.4020538 -3.930548 1.2541332 0
6.5800643 -3.835016 0.069136143 0
6.4333253 -3.9253724 1.1076589 0
6.5798674 -3.834821 -0.16951746 0
-1.7320445 -7.3519092 -0.99025083 0
2.8998592 -6.9748459 -0.99063551 0
6.3669286 -3.9769144 1.3009677 0
6.5741959 -3.82921 -0.40866882 0
3.5411606 -6.6775408 -0.96021235 0
7.455164 1.2323835 -0.98594022 0
3.544591 -6.6542749 1.109395 0
-6.9467278 2.9755931 -0.98757493 0
2.9832768 6.944665 -0.98756778 0
3.5993953 -6.5797801 1.3645742 0
3.4822483 -6.7806258 0.10683107 0
3.4806051 -6.7751164 0.31959701 0
6.4969296 -3.8893363 -0.89286745 0
-1.6308231 7.3833747 -0.98638356 0
5.864233 -4.3382711 2.2220976 0
6.5829177 -3.8378389 0.30687189 0
6.1013298 -4.1737566 1.8781741 0
6.5931411 -3.8354855 -0.068017721 0
6.5104599 -3.8794732 -0.86606014 0
-6.901536 3.095958 -0.98507619 0
-6.9539528 -2.9772773 -0.98874986 0
3.4822309 -6.7805676 -0.32136053 0
6.3040228 -4.0298705 1.4954062 0
7.4643903 -1.2359087 -0.98822045 0
6.5832243 -3.8295853 -0.46627045 0
2.9849102 -6.9525623 -0.98942959 0
6.1834984 -4.120575 1.7357867 0
3.5451479 -6.6902447 0.95206332 0
3.0671473 6.9181981 -0.98565042 0
6.5718918 -3.8228428 -0.66642439 0
6.5817041 -3.828681 0.52397037 0
6.3434057 -3.9874101 1.4549503 0
3.4699757 -6.7895832 0.35572433 0
6.4919868 -3.8843043 1.0185571 0
6.2310567 -4.075036 1.6882095 0
3.7073665 -6.3971133 1.9039755 0
-1.6354711 -7.3922367 -0.9883287 0
3.8577712 -6.1678042 2.321259 0
3.0683632 -6.9236798 -0.98694682 0
5.3480148 5.3627248 -0.98732018 0
6.5140629 -3.8816874 0.91558897 0
6.5821939 -3.8371232 0.54451025 0
7.4876933 -1.1511009 -0.98640239 0
3.4818907 -6.7794271 0.53188133 0
3.7858987 -6.2748046 2.1590486 0
6.5746226 -3.8244674 0.72031927 0
6.1550956 -4.1168513 1.880837 0
6.5687094 -3.8237822 0.78142667 0
7.4887085 1.1514723 -0.9866519 0
3.605222 -6.5803709 1.4446228 0
5.9536486 -4.2704773 2.1692724 0
6.5639496 -3.8507082 0.71777236 0
3.4641166 -6.807961 0.2869935 0
-6.9174404 -3.0999057 -0.98767149 0
3.4832335 -6.7839293 -0.53851718 0
6.338552 -4.0040822 1.4959173 0
3.4610651 -6.7942019 0.56416035 0
3.4711828 -6.7916741 0.53871202 0
6.5822287 -3.837157 -0.65237343 0
3.6543224 -6.4789863 1.7762535 0
6.653913 -3.7709382 0.068710089 0
3.8603563 -6.1484814 2.4105103 0
-1.5372334 7.4286976 -0.98588014 0
3.5419564 -6.6800766 1.1631076 0
3.1528561 6.9004469 -0.98607886 0
3.4799137 -6.7727981 0.74414074 0
3.7119482 -6.3921599 1.976387 0
6.6550908 -3.7720706 -0.17039591 0
6.364222 -3.9751425 1.4992599 0
6.6537108 -3.777163 0.12875581 0
6.2539701 -4.0546846 1.7353094 0
6.5048418 -3.8760207 1.1118979 0
5.9417539 -4.2815647 2.2230639 0
3.6297479 -6.5345111 1.6481984 0
6.1034293 -4.1753211 1.979198 0
6.6545882 -3.7715871 0.30678368 0
-6.8746128 3.2206962 -0.98584199 0
6.5587091 -3.8478312 0.90403831 0
3.7407801 -6.382834 1.9773288 0
6.442266 -3.9310446 1.3070617 0
6.6557813 -3.7783551 0.32675731 0
6.2950258 -4.0237942 1.6936984 0
3.1553254 -6.9108725 -0.98855233 0
6.6583419 -3.7798293 -0.2706573 0
6.5751772 -3.8247974 0.91758883 0
-5.2386084 5.5926991 -0.013722599 0
3.4761057 -6.7600284 -0.97402763 0
6.5812774 -3.8284271 -0.87395263 0
-5.3244562 5.5052624 0.27892709 0
7.5249729 -1.0713995 -0.98830926 0
5.438242 5.3109107 -0.98741543 0
3.4837568 -6.7856841 -0.75800979 0
6.5442295 -3.8398817 1.0897803 0
6.6588583 -3.7756922 -0.41152292 0
6.0087171 -4.2118893 2.2199173 0
3.4741716 -6.7968507 0.72133279 0
6.1442213 -4.1292963 1.9976809 0
7.527998 1.0724571 -0.98904908 0
6.6684585 -3.7856541 -0.071502328 0
-5.3275328 5.5072451 -0.31027871 0
-1.4406612 7.4677954 -0.98432446 0
6.5806828 -3.8356278 -0.89696336 0
-1.546319 -7.44664 -0.98978949 0
6.3433886 -3.9874003 1.6395197 0
6.4932241 -3.8855641 1.2579527 0
3.2390604 6.8843708 -0.98719907 0
-5.3358812 5.5126257 -0.015689254 0
3.6021798 -6.5882258 1.57968 0
-5.419745 5.422884 -0.31313717 0
-5.157537 5.6826105 -0.012838662 0
3.2397642 -6.8871632 -0.9878639 0
-5.4224873 5.4245968 0.27823639 0
-5.4027891 5.4375787 0.38961971 0
-5.0670085 5.765274 -0.011420906 0
6.413372 -3.942405 1.4969237 0
6.6541729 -3.771188 -0.65323603 0
7.5487118 -0.98691219 -0.98718989 0
6.6609974 -3.7777493 0.54477143 0
-5.4287443 5.4285035 -0.017436981 0
3.60519 -6.5803189 1.6257293 0
6.6472411 -3.773438 0.72225285 0
-5.2481799 5.5990634 0.27914417 0
6.647368 -3.7646458 0.78221405 0
-6.8979168 -3.2268364 -0.98965883 0
3.4187005 -6.8759365 0.10296321 0
-5.1579661 5.6829047 0.27963006 0
6.177659 -4.1139059 1.9796617 0
3.5485249 -6.6708827 1.3873167 0
6.5792975 -3.8342574 1.0208473 0
-5.3270254 5.506918 0.57252622 0
-1.447119 -7.4810147 -0.98718429 0
-5.4155574 5.4202695 0.57302094 0
3.418108 -6.8738403 -0.33016264 0
6.6698246 -3.7864408 -0.47465616 0
5.5235739 5.2509985 -0.9859606 0
6.3307085 -3.9956253 1.7369022 0
-6.8479919 -3.3456895 -0.9869535 0
3.4186354 -6.8757057 0.31821263 0
6.7231092 -3.7229905 -0.072961509 0
6.2341595 -4.0771966 1.8920012 0
3.47368 -6.7959991 0.90403402 0
-5.2527356 5.6020927 -0.30934894 0
3.4643545 -6.8090329 0.84221518 0
7.5690961 0.9014855 -0.98555672 0
-5.2579918 5.592802 0.38820148 0
-5.1628232 5.6862359 -0.30694979 0
-4.795331 6.0077562 -0.0075311065 0
3.7298748 -6.3662248 2.155921 0
7.5584536 0.99016243 -0.98956084 0
-5.1021957 5.7365875 0.38746667 0
3.5425334 -6.6819148 1.3772151 0
7.5705118 -0.9019354 -0.98589969 0
-4.979413 5.8491478 -0.30207562 0
6.5385427 -3.8367596 1.2754223 0
3.4211001 -6.8844247 -0.11384314 0
3.4839964 -6.7864871 0.95854938 0
-5.3293648 5.5084262 -0.60746515 0
6.6709046 -3.7870624 0.52494717 0
-5.1525044 5.6791596 0.5716542 0
-4.9864507 5.8542767 -0.010711193 0
6.4374213 -3.9279709 1.5062525 0
-6.8527651 3.3470206 -0.98773825 0
3.3242474 6.8638806 -0.98756325 0
-5.0608358 5.76091 -0.59748876 0
7.5849509 0.81488305 -0.98313367 0
6.7234797 -3.7231967 0.32620347 0
-5.0990658 5.732728 0.56019378 0
6.663928 -3.7830455 -0.67795658 0
3.4766924 -6.7619963 1.1703811 0
6.7365704 -3.7147439 0.067591667 0
6.57969 -3.8274825 1.1166782 0
-5.2467999 5.598146 0.57222676 0
6.7271786 -3.7252564 -0.27471036 0
6.7189059 -3.72065 -0.47628605 0
-5.0657125 5.764358 0.57126081 0
5.9536304 -4.2704649 2.3539972 0
-1.347096 7.5127907 -0.98434436 0
3.4185314 -6.8753381 0.53318059 0
-4.9747663 5.8457618 0.57079983 0
6.7383914 -3.7164452 -0.17233813 0
6.7184629 -3.7204032 0.52509618 0
-5.2586765 5.5935988 0.56040287 0
6.3675547 -3.9773242 1.7017016 0
-4.8951249 5.9347386 0.28079402 0
6.73387 -3.7289827 0.12634444 0
-5.2487102 5.5994163 -0.605299 0
-5.4121161 5.4478183 0.56075144 0
-4.9495296 5.8857465 0.38587713 0
-4.9759135 5.8465977 -0.59515333 0
-5.083189 5.7767148 -0.30575597 0
-5.3910942 5.4247384 0.90401947 0
3.3272021 -6.8749347 -0.99020481 0
-4.9922757 5.8585215 0.28022194 0
-5.1618533 5.6855707 -0.60238111 0
-4.8858047 5.9277406 0.57040238 0
6.2479415 -4.0479956 1.9790621 0
-4.903626 5.9411221 -0.0099283457 0
3.4711959 -6.791697 1.086597 0
-4.7141242 6.0943274 -0.0069849491 0
6.0913324 -4.1611009 2.2237115 0
-5.0875373 5.779789 0.2796725 0
-5.243083 5.5754595 0.90401995 0
-5.4071627 5.4423804 0.7326498 0
3.4164014 -6.8678036 0.74799383 0
-4.8075137 6.01718 -0.29887617 0
-5.0998507 5.7336955 0.73217142 0
3.4614563 -6.7959666 1.1198525 0
-4.9030375 5.94068 -0.30146623 0
-4.8089166 6.0182648 0.28110719 0
6.7650833 -3.6958425 -0.043633103 0
7.6014347 -0.81986326 -0.98710907 0
3.4163747 -6.8677092 -0.7696681 0
6.7641172 -3.6953475 0.14724016 0
-6.813797 -3.4686904 -0.98711395 0
6.656332 -3.7786722 0.92167807 0
3.6274161 -6.5252604 1.92418 0
6.2961454 -4.0245504 1.8977208 0
3.6009266 -6.5734005 1.8066792 0
3.4096479 6.843915 -0.98834658 0
-5.2571917 5.5918722 0.73235774 0
5.6112843 5.1952262 -0.9857229 0
6.6609583 -3.7777116 -0.9002744 0
-5.3230357 5.5043468 -0.90582609 0
-6.81569 3.4692473 -0.9874264 0
3.4100642 -6.8453879 -0.98869991 0
-4.9503546 5.886826 0.55884063 0
6.7646856 -3.6956384 -0.23538291 0
3.4899201 6.8063517 -0.98518753 0
-5.3282876 5.5077319 0.86661565 0
6.6633596 -3.7827184 -0.88497674 0
-5.0918579 5.7238402 0.90402043 0
6.5296931 -3.8912926 1.3154726 0
-5.1505532 5.6778212 0.8637948 0
7.6161976 -0.73298532 -0.98471522 0
-5.4400511 5.4355636 -0.61414862 0
6.7450438 -3.7226598 -0.41472471 0
3.6591053 -6.4928246 1.9970965 0
-4.7944794 6.0341253 0.38400555 0
3.5392013 -6.6712985 1.5913022 0
6.7345576 -3.7128637 -0.65612268 0
-4.7207685 6.0996208 0.2814405 0
6.5740681 -3.8241374 1.3159828 0
-5.2407947 5.5941529 -0.90271902 0
-4.8973403 5.9364023 -0.59395492 0
6.5795422 -3.8344996 1.2609921 0
6.4081545 -3.9369395 1.7389107 0
6.7267838 -3.7250366 -0.68303216 0
3.424607 -6.8968291 -0.55309951 0
6.3514252 -3.9921172 1.825984 0
6.49822 -3.89065 1.5003834 0
-1.3581195 -7.5361991 -0.9893738 0
-4.9475012 5.8830929 0.73163378 0
-5.065371 5.7641168 0.86271572 0
-5.425159 5.4262648 0.86861539 0
-4.8056312 6.0157237 -0.59090257 0
-4.7239709 6.1021719 -0.29771841 0
-5.2481136 5.5990195 0.86572075 0
6.6593871 -3.776201 1.0223174 0
-5.0638208 5.7630205 -0.89472878 0
6.7553601 -3.7322977 0.30597866 0
-5.4240618 5.4255795 -0.91265428 0
6.7739477 -3.7003832 0.33638716 0
6.7472262 -3.7246988 0.54522693 0
-4.6312318 6.1791615 -0.29564321 0
-4.9780021 5.8481197 0.86156321 0
3.7126207 -6.4167695 2.1861653 0
-4.8854337 5.9274616 0.86013603 0
3.5741427 6.78262 -0.98563874 0
-4.8131528 6.0215416 0.57038629 0
3.5467772 -6.6635056 1.6649249 0
-1.2560763 7.5634565 -0.9858613 0
6.7685347 -3.6976104 0.52623034 0
3.6056173 -6.5986528 1.7988324 0
6.7972093 -3.6702342 0.32551861 0
-4.717803 6.0972586 -0.58860171 0
-4.7887659 6.0261898 0.731161 0
-4.7973061 6.0380511 0.55743241 0
5.69631 5.1353469 -0.9848206 0
7.6420703 0.649409 -0.98528636 0
3.7885742 -6.2842684 2.4400864 0
3.3775854 -6.9511027 0.28486693 0
6.7356348 -3.7299654 0.72516131 0
3.4721522 -6.7933531 1.2694473 0
6.5154562 -3.8825433 1.514442 0
7.6361465 0.73870224 -0.98950624 0
-4.7221684 6.1007361 0.56999063 0
-4.9820633 5.851079 -0.89234245 0
6.760191 -3.6933362 0.71545613 0
6.8074985 -3.6757727 -0.077453673 0
-6.7811117 -3.5922165 -0.98781669 0
-5.5627246 5.3681011 -0.32128555 0
6.1694379 -4.1045175 2.225908 0
-4.6437936 6.1894665 -0.00725317 0
6.4419737 -3.9308591 1.7103319 0
-5.1670375 5.689126 -0.90145624 0
-5.5698342 5.3724003 -0.022197425 0
3.3754406 -6.9407325 0.5663482 0
3.7291377 -6.3651023 2.3384476 0
6.1621723 -4.1405373 2.18647 0
6.3626256 -3.9740973 1.9050686 0
-5.5666609 5.3704815 0.27658689 0
-4.6387386 6.1845355 0.38161886 0
3.6558981 6.7511697 -0.98450804 0
-6.7854166 3.5935509 -0.98853052 0
3.3542747 -6.976213 -0.12003613 0
-4.6430826 6.1888833 0.2815156 0
6.7992506 -3.6713331 -0.48369682 0
6.7251534 -3.7241287 0.92456603 0
-4.5503101 6.265275 -0.0060292482 0
-4.4517035 6.3357759 -0.0045092106 0
-4.8030367 6.0137172 0.85944152 0
6.8152905 -3.6541235 -0.4153688 0
-4.9504395 5.8869367 0.90402162 0
-5.4057274 5.4408045 1.075341 0
-4.5472054 6.2626529 -0.29466599 0
-1.2623141 -7.5772104 -0.98879683 0
6.8242383 -3.662246 0.066075683 0
6.7459307 -3.7234886 0.78447962 0
-4.6337271 6.1812091 0.56967318 0
-6.72857 3.7094364 -0.98550904 0
-4.896852 5.9360356 -0.88949466 0
3.4818892 -6.7794223 1.3891721 0
-5.0991344 5.7328124 1.0758438 0
6.8172441 -3.6810181 0.12371898 0
-4.6375437 6.1827712 0.55616736 0
3.3544993 -6.9770527 -0.34031129 0
-5.2565784 5.5911584 1.0756617 0
7.6588006 -0.65394539 -0.98928833 0
6.6686134 -3.7857432 1.1235125 0
-6.7333908 -3.7110069 -0.98631227 0
6.8164806 -3.6806073 -0.28169537 0
5.7790184 5.0722108 -0.98343098 0
6.8283849 -3.6660101 -0.17514068 0
-5.3296061 5.5085812 1.1618943 0
6.8060923 -3.6750157 0.52605736 0
6.7375603 -3.7310376 -0.89400423 0
-4.8081479 6.0176706 -0.88615799 0
6.8264227 -3.6642292 0.30587113 0
6.816514 -3.6552341 0.54529524 0
-4.7910318 6.0293374 0.9040221 0
3.422811 -6.8904772 0.96579337 0
-5.565722 5.3699136 0.57479382 0
-4.6404352 6.1867113 -0.58811915 0
6.5749211 -3.824645 1.5185094 0
-4.6338453 6.1773105 0.73034286 0
3.3583851 -6.9915891 0.097957015 0
3.4621429 -6.7990618 1.4002864 0
-5.244626 5.5967002 1.1598969 0
-1.1613615 7.606267 -0.98597991 0
6.5714741 -3.8548396 1.4642477 0
6.7465038 -3.7240241 -0.9051652 0
-4.5463161 6.2619019 0.5694015 0
-5.4236565 5.4253263 1.1649404 0
3.598053 -6.5757079 2.0129054 0
-4.5607486 6.2740908 0.28166866 0
7.6776028 0.56821221 -0.9884429 0
7.6845436 -0.4797141 -0.98507583 0
-5.0676622 5.7657366 1.1554923 0
-4.7204313 6.0993524 -0.88321829 0
6.6525393 -3.7764885 1.322897 0
-4.9485121 5.8844151 1.0764482 0
6.3439307 -4.0098805 1.9875221 0
-4.4636207 6.3461361 0.28213787 0
3.3555036 -6.9808092 0.53466403 0
6.7677402 -3.6972034 0.90404153 0
-4.7242537 6.1023974 0.85906363 0
-4.478631 6.3320575 0.37914073 0
-4.5501051 6.2651014 -0.58575201 0
-4.4733009 6.3236804 0.55488026 0
3.331399 -7.0063429 0.34721589 0
-4.7850924 6.0210881 1.0767367 0
3.3595717 -6.9960279 0.31646085 0
3.6076295 -6.5842776 1.9911766 0
6.7418427 -3.7196696 1.0241513 0
6.8080783 -3.6760848 -0.69232321 0
-4.6302032 6.178318 0.85773182 0
-1.1660013 -7.6168995 -0.98823488 0
3.3763442 -6.9451017 0.84822154 0
-4.4545822 6.3382788 -0.58269203 0
3.4186463 -6.8757458 1.1818056 0
6.6671166 -3.7836325 1.2643294 0
-5.1648211 5.6876059 1.1585617 0
3.7432868 6.7363925 -0.98772955 0
6.4963579 -3.8887541 1.7441087 0
-4.4679694 6.3499169 -0.29436952 0
6.510159 -3.8792882 1.7173786 0
-5.0974236 5.7307034 1.2477269 0
7.6925583 0.48164278 -0.98697889 0
-4.9820499 5.8510695 1.1537609 0
6.7264204 -3.7248342 1.1260037 0
-5.5762515 5.3762808 -0.62458575 0
3.4749224 -6.7981515 1.4530377 0
3.357193 -6.9871292 -0.56405884 0
7.6880484 -0.57088464 -0.99093211 0
6.809835 -3.6770301 0.72723997 0
6.1447315 -4.1296158 2.369832 0
-4.4590888 6.3421965 0.56915724 0
6.5523224 -3.8443246 1.6498914 0
6.5880609 -3.8429267 1.5050726 0
3.5416386 -6.6790638 1.8119807 0
6.8251257 -3.6630518 -0.66133022 0
6.357914 -3.9959259 2.0136492 0
3.4777703 -6.7656102 1.6053379 0
-6.6930466 3.8320572 -0.98631883 0
-5.4090424 5.4444437 1.2470775 0
7.7026086 0.39413458 -0.9846524 0
-5.2575397 5.5922771 1.2475581 0
-4.3791771 6.4285321 -0.0048741102 0
-4.3754759 6.42522 0.28237855 0
6.8840518 -3.6228051 -0.081206739 0
6.2537856 -4.0544806 2.2308955 0
6.8843088 -3.6229386 0.12203574 0
6.8216019 -3.6598532 0.78513765 0
6.4380774 -3.9283874 1.9154274 0
6.8810463 -3.6212423 0.32462502 0
-4.6382761 6.1838531 0.90402329 0
-4.8984442 5.9372311 1.1523635 0
-5.6186361 5.3574247 0.55724573 0
-4.5429039 6.2590203 -0.87751734 0
3.8255873 6.7063222 -0.98751962 0
6.814033 -3.6529825 -0.90546632 0
-4.4758806 6.3277349 0.72943485 0
-4.2801933 6.4972267 -0.29072058 0
6.8854747 -3.6235449 -0.28590703 0
-4.5466428 6.2621779 0.85717762 0
3.3557577 -6.9817605 -0.78792012 0
-6.7040911 -3.8358302 -0.98816729 0
6.8063402 -3.675149 -0.9017359 0
3.3570046 -6.9864254 0.75316274 0
-5.5697875 5.3723722 0.87359452 0
-4.3821692 6.4312096 -0.2934444 0
3.9041896 6.6664901 -0.9851892 0
-1.0675254 7.6512733 -0.98684728 0
-4.6442723 6.1898594 -0.88284969 0
-4.8087482 6.0181346 1.1504126 0
5.8710599 5.0229015 -0.98557293 0
7.7164207 -0.39725 -0.98792136 0
-4.9487085 5.8846722 1.2490771 0
6.9063392 -3.6037076 0.064914942 0
3.330971 -7.0055499 0.71871912 0
6.732779 -3.7112019 1.2640638 0
6.9059477 -3.6033623 -0.17654282 0
6.770153 -3.6984389 1.0928876 0
-4.3725944 6.4226418 -0.58199406 0
6.8796282 -3.6205051 0.52674699 0
3.3389416 -7.020318 0.53241897 0
3.4154019 -6.8642688 1.3991404 0
6.6478028 -3.7737615 1.5257397 0
6.9061794 -3.6035669 0.30553973 0
-4.3767166 6.4263306 0.56905043 0
6.8112779 -3.6778069 0.92922902 0
6.4205747 -3.9499509 1.9895716 0
3.7083473 -6.4007831 2.4644895 0
3.3531866 -6.9721413 0.97106719 0
6.7216697 -3.7221887 1.328187 0
-4.2931237 6.5091348 -0.0043741465 0
-4.6346703 6.1785283 1.0777378 0
3.3752704 -6.9399095 1.1305866 0
6.9053121 -3.602802 -0.41940397 0
6.8752575 -3.6182327 -0.69860697 0
-5.1492686 5.67694 1.4519074 0
-5.6213903 5.3602796 0.73063576 0
6.6592398 -3.7760594 1.5057492 0
-1.0730214 -7.6643758 -0.98960912 0
7.7346997 0.31154388 -0.98782909 0
3.6009457 -6.573432 2.1732869 0
-5.5784874 5.3776331 -0.92951703 0
-4.7925777 6.0314841 1.2502363 0
-0.96761394 7.681592 -0.9849143 0
6.8932157 -3.6275699 -0.49361062 0
-4.3161669 6.4799442 0.55252457 0
3.9868479 6.6376801 -0.98585939 0
6.8193536 -3.6578124 1.0254736 0
-6.6577024 3.9549253 -0.98745728 0
3.5493894 -6.6745329 1.948765 0
-4.2839074 6.5006471 -0.58036888 0
6.5748305 -3.829838 1.7467632 0
-5.1020498 5.7364073 1.4205608 0
-5.2586622 5.5935822 1.4199138 0
-4.3228378 6.4911256 0.37538731 0
-4.2976365 6.5132904 0.28235137 0
7.7393236 -0.31251746 -0.98892009 0
3.3305027 -7.0046825 0.90403724 0
-5.0650139 5.763864 1.4495168 0
-4.4665012 6.3486404 0.85693669 0
-4.7300067 6.1069808 1.1497936 0
-6.6607075 -3.9560001 -0.98796272 0
6.7609968 -3.6937487 1.2814589 0
-0.9697597 -7.6869202 -0.9860307 0
3.287787 -7.0777049 0.31539583 0
-5.4129963 5.4487848 1.4194829 0
3.2894478 -7.0842934 -0.12776321 0
-5.2486925 5.5994043 1.4566965 0
-4.6352191 6.1824327 1.1474943 0
6.951571 -3.563911 -0.084123135 0
6.5863347 -3.8314357 1.726711 0
-4.4814472 6.3364844 0.90402448 0
7.7493072 0.22511262 -0.98716235 0
6.3491344 -3.9907727 2.1999874 0
3.4627399 -6.801753 1.6832924 0
6.5080304 -3.8779802 1.9241726 0
6.8055677 -3.6747332 1.1315737 0
6.9122558 -3.6089261 0.54600155 0
-5.3420744 5.5166173 1.4607215 0
-5.4299641 5.4292655 1.4640884 0
-4.9474068 5.8829694 1.4219236 0
-4.980125 5.8496666 1.4471931 0
7.7516866 -0.22557813 -0.98772204 0
-4.471437 6.3529315 -0.87860024 0
3.6357667 -6.558393 2.2133536 0
6.8888192 -3.625284 0.72963071 0
6.4893527 -3.881623 1.9892845 0
7.7562037 -0.13735276 -0.98497891 0
6.3361678 -4.0015116 2.2353163 0
6.9586134 -3.5674455 0.11989093 0
-4.5449305 6.2607312 1.1458054 0
6.9458513 -3.5610402 -0.49624074 0
-4.3762665 6.4259276 0.85606933 0
3.48175 -6.8099771 1.6382437 0
3.2903161 -7.0877395 -0.35148537 0
-4.3755255 6.4252644 -0.87478554 0
5.9607286 4.9696817 -0.98711634 0
6.7247491 -3.7037003 1.5053966 0
6.9576678 -3.5669708 -0.29064059 0
7.7607336 0.13817197 -0.98604167 0
6.5602999 -3.8487043 1.838944 0
-5.6251192 5.3641448 0.90402281 0
3.2929935 -7.098362 0.093402028 0
-6.6088428 -4.0729871 -0.98661304 0
6.8784075 -3.6198704 -0.91047466 0
3.2851439 -7.082078 0.56845963 0
6.9134808 -3.6100066 -0.66615665 0
3.2891095 -7.0829515 0.53609848 0
6.9602838 -3.5682836 0.3238138 0
-4.4775152 6.3303041 1.0786846 0
-0.87018514 7.7176089 -0.984478 0
-4.3012042 6.5165763 0.56913328 0
-4.789608 6.0273595 1.4234579 0
3.3536115 -6.9737315 1.1912889 0
-4.3211555 6.4883051 0.72814381 0
6.906321 -3.6036918 0.78648376 0
-4.2159534 6.5978127 -0.004591465 0
-5.5726004 5.374073 1.1736951 0
4.1474409 6.5681596 -0.985111 0
-5.4043465 5.4392881 1.5909765 0
3.5422354 -6.6809654 2.0351729 0
3.2893577 -7.0839367 -0.57619953 0
-4.8990254 5.9376674 1.4456134 0
-6.61551 4.07548 -0.9877404 0
6.9858742 -3.5421088 0.063887239 0
-5.7397213 5.3301115 -0.028715849 0
-4.6396723 6.185914 1.2520568 0
-5.7338247 5.3266602 -0.33229637 0
3.2893732 -7.1041107 0.28254867 0
-5.0980806 5.7315135 1.5930266 0
4.0738683 6.619215 -0.9894104 0
6.9565134 -3.5663912 0.52751243 0
-4.807548 6.0172062 1.4426 0
6.8858008 -3.6237147 0.93277907 0
-4.2177134 6.5994806 0.28234363 0
-5.6184635 5.3572459 1.0773115 0
6.9021745 -3.6000345 -0.91137135 0
3.4692607 -6.7883449 1.8203762 0
3.2871017 -7.074985 0.75673437 0
-5.7399144 5.3302245 0.27434719 0
6.9886923 -3.544524 -0.17862886 0
-4.2062912 6.5886555 -0.58078194 0
3.482312 -6.7808394 1.8304412 0
6.9871712 -3.5432208 0.30516386 0
7.778677 0.052436411 -0.98674047 0
6.6517444 -3.7760308 1.7332823 0
6.9850926 -3.5414398 -0.4218536 0
6.9911871 -3.5459855 -0.25460207 0
-4.2220097 6.6035523 -0.29335135 0
-4.2108817 6.5930061 0.56889188 0
-4.4649096 6.3472567 1.1454148 0
6.8026419 -3.6731584 1.3357067 0
6.6543303 -3.7713397 1.749887 0
7.7846704 0.035214424 -0.98493421 0
-4.2965302 6.5122714 0.85601676 0
-4.1284394 6.6766024 -0.0041469336 0
-4.9471998 5.8826985 1.5954022 0
-6.5636024 4.1923261 -0.98666596 0
6.4111724 -3.9401009 2.2371047 0
-4.1563444 6.6377115 0.54988384 0
-5.7371669 5.3286166 0.57699716 0
6.9015894 -3.5995185 1.0274343 0
-4.1617899 6.6474633 0.37155104 0
6.8269916 -3.6647456 1.2687092 0
6.9869804 -3.5439811 0.52028191 0
3.5979254 -6.568531 2.357517 0
6.7362661 -3.7303169 1.5365417 0
-4.1263375 6.6745524 0.28258538 0
-5.734499 5.3270545 -0.63819385 0
-0.87912107 -7.7407475 -0.98929942 0
-4.1504011 6.6270676 0.72733474 0
3.3408613 -7.0238748 1.0898411 0
6.0481453 4.9129748 -0.98814309 0
3.4205561 -6.8825002 1.6240556 0
6.999774 -3.5500774 0.32688916 0
-4.7281632 6.1055117 1.441628 0
6.7722988 -3.6995385 1.4715691 0
-4.374927 6.4247293 1.1439941 0
7.7937732 -0.05494386 -0.99027336 0
6.8797245 -3.6205552 1.1365111 0
-4.4788942 6.3324723 1.2536545 0
-4.1298494 6.677978 -0.29205161 0
3.2907801 -7.0895796 -0.80503142 0
3.3777139 -6.9517236 1.4164429 0
-4.143609 6.6149035 0.90402627 0
-5.2698908 5.6066437 1.5943599 0
7.0082369 -3.5541105 -0.061771452 0
6.9625311 -3.5694115 0.73173869 0
7.0081949 -3.5540905 0.13265705 0
7.7975445 -0.033264935 -0.98794043 0
6.5705757 -3.8256285 1.9933631 0
-5.2383351 5.5925174 1.7536511 0
-4.3040342 6.5191827 -0.87639987 0
-4.6384983 6.1841807 1.4263997 0
6.993485 -3.5486305 0.54638112 0
-5.4157815 5.4204092 1.7625079 0
4.30968 6.5023003 -0.98644578 0
-4.6380701 6.1847715 1.4391434 0
7.0309358 -3.5096722 -0.29559904 0
-0.77650118 7.7636275 -0.98640668 0
3.3331757 -7.009635 1.2750916 0
3.4591336 -6.7854939 1.965867 0
-4.3307581 6.5043998 0.90402627 0
6.5562181 -3.8464637 2.0275192 0
6.9906869 -3.5462334 -0.66875815 0
7.0387144 -3.5134375 -0.089009047 0
4.2371197 6.5545683 -0.99051619 0
-6.5798054 -4.1986499 -0.98942077 0
6.7893744 -3.6660173 1.5395942 0
-5.6218576 5.3607645 1.2510166 0
7.8056498 0.12060708 -0.98691618 0
6.9894438 -3.5451546 0.71220398 0
-4.321032 6.4880986 1.0799022 0
3.3546977 -6.9777942 1.4139283 0
6.9758563 -3.5760994 -0.71229494 0
7.028851 -3.5086629 -0.50436395 0
7.042747 -3.5153899 0.1171422 0
7.0380535 -3.5131178 0.32302201 0
3.6279869 -6.527524 2.4919486 0
3.2889342 -7.1018248 0.85538101 0
-4.213572 6.5955563 0.85581946 0
6.5959744 -3.8371713 1.9386792 0
4.387742 6.4626279 -0.9858377 0
-5.3377724 5.5138445 1.7600026 0
3.5472684 -6.6655779 2.2325408 0
6.3520842 -3.9925041 2.3898444 0
6.9874334 -3.5434449 0.78762031 0
-4.1312838 6.6793766 0.56893516 0
-4.7964621 6.0368791 1.598578 0
-0.78005004 -7.7732229 -0.98839521 0
-4.5495973 6.2646732 1.4370704 0
-5.2567263 5.5913305 1.765995 0
-5.4091511 5.4445624 1.7649543 0
-6.5165796 4.3109779 -0.98670554 0
6.960175 -3.5682292 -0.92186165 0
-4.044508 6.758678 -0.0040451884 0
-5.7347383 5.3271952 0.87981319 0
6.959496 -3.5678885 0.93629885 0
3.2910011 -7.090457 0.97971916 0
-4.0419688 6.7561297 -0.29139459 0
-0.67471576 7.787653 -0.98406827 0
-4.0311871 6.7453094 -0.57881939 0
-4.1345124 6.6825256 -0.58241665 0
7.8152628 0.20765489 -0.98653567 0
-4.1153741 6.6638603 -0.87047362 0
3.4781957 -6.7670369 2.0522051 0
-4.0438924 6.75806 0.28258324 0
-6.5215712 -4.3130088 -0.98755908 0
3.4684548 -6.7869492 2.0056221 0
7.8183885 -0.11886424 -0.98988461 0
-4.9835329 5.85215 1.7440305 0
7.8171463 -0.20742464 -0.98697376 0
6.1325846 4.8520465 -0.98845553 0
-5.1047277 5.7397094 1.7679207 0
-5.0763884 5.7719064 1.7485664 0
-4.2199454 6.6015959 -0.87557852 0
-4.8930306 5.933166 1.7401376 0
6.7644119 -3.6954982 1.6608777 0
-5.1691623 5.6905832 1.7532644 0
6.7279949 -3.7257111 1.7428765 0
-5.5767279 5.3765688 1.476054 0
-4.6340485 6.1776104 1.6006684 0
6.8209667 -3.6592762 1.5118403 0
6.8780804 -3.6197004 1.3423085 0
-4.0376291 6.7517748 0.56866181 0
7.0745797 -3.4873869 0.062185764 0
6.4906421 -3.8829353 2.2409134 0
7.0715113 -3.484833 0.30469668 0
6.6500525 -3.7750566 1.9427772 0
-4.2998881 6.5153642 1.1444631 0
-4.4634976 6.3460293 1.4355423 0
-6.4589682 4.4251804 -0.98521543 0
7.8238745 -0.29478133 -0.98621261 0
-4.481657 6.3368144 1.4293044 0
-4.1256313 6.6738644 0.85534132 0
3.2249494 -7.2048111 0.088829517 0
7.0783286 -3.4905074 -0.18157113 0
7.0327826 -3.5105662 0.73367739 0
-4.3203201 6.4869051 1.2559052 0
3.2236831 -7.1994648 0.31359696 0
6.9947262 -3.547672 0.90404546 0
-4.0244379 6.7385359 0.85395491 0
6.2071772 4.7783718 -0.98592663 0
7.034956 -3.5116181 -0.71705699 0
-3.9540153 6.8339314 -0.0035353899 0
7.0718889 -3.4851477 -0.42553616 0
-0.68054962 -7.8041496 -0.98746955 0
7.0499034 -3.5188541 0.52860773 0
3.4184566 -6.8750744 1.8472221 0
3.2255216 -7.2072263 -0.13688308 0
7.0683179 -3.4821751 0.54663062 0
4.4720449 6.4356313 -0.98878074 0
3.2245095 -7.2029533 -0.36330897 0
-4.9549913 5.8928914 1.7711613 0
-5.624505 5.3635077 1.4252515 0
7.1065426 -3.4521701 0.1155448 0
6.7452936 -3.7228935 1.7562432 0
-4.1547208 6.6348033 1.0809255 0
6.9136815 -3.6101835 1.2721741 0
6.9988375 -3.5532172 -0.91958082 0
-3.9556308 6.8356004 -0.29106152 0
4.5464816 6.3886552 -0.98686862 0
3.2877584 -7.0956984 1.1424565 0
-3.956223 6.8362122 0.2826823 0
-5.249238 5.5826197 1.938848 0
3.2899337 -7.0862222 1.2026932 0
-4.210145 6.592308 1.143321 0
7.834383 -0.3817085 -0.98661935 0
6.9619222 -3.5691059 1.1426249 0
6.9914904 -3.5469215 1.0303512 0
7.8362446 0.38153481 -0.98705101 0
-4.817256 6.0247154 1.7393816 0
-6.475071 -4.4320025 -0.98798525 0
-5.8540068 5.2889791 0.55178607 0
-4.7236843 6.101944 1.7352769 0
-5.7570548 5.3402576 -0.95079625 0
-4.0018206 6.8130665 0.36667395 0
3.3537083 -6.9740934 1.6377773 0
6.9864168 -3.5437121 1.0958087 0
3.3389132 -7.0202656 1.4619679 0
4.6220055 6.3441815 -0.98587453 0
-5.0973406 5.7306008 1.9411297 0
-3.9977779 6.8053122 0.54652309 0
6.5504494 -3.8432963 2.2167988 0
-4.7964716 6.0368929 1.7736387 0
4.6936865 6.2929668 -0.98337877 0
7.8444843 0.2925604 -0.99099839 0
3.2253027 -7.2063026 0.5379256 0
7.8379865 -0.46924889 -0.98571479 0
6.6607032 -3.7774661 2.0004964 0
-4.0370917 6.751235 -0.87139237 0
7.03233 -3.5103471 -0.93089485 0
7.1151814 -3.4562006 -0.30212325 0
-4.3841038 6.4329405 1.4352903 0
-3.9933524 6.7968235 0.72559547 0
-0.58066249 7.833571 -0.98653233 0
3.3782301 -6.9542203 1.7041006 0
7.1213012 -3.4590557 -0.093492568 0
-6.4094172 4.5426683 -0.98539293 0
-3.9552569 6.8352141 0.56869328 0
7.1162591 -3.4567034 0.32221174 0
-0.58165884 -7.8365221 -0.98713779 0
6.2882314 4.7133102 -0.98577964 0
3.2226534 -7.1951165 0.76204824 0
7.1091466 -3.4533849 0.52905118 0
7.0787439 -3.4908531 -0.67375422 0
7.8403282 0.55677629 -0.98480916 0
6.8089795 -3.6483948 1.7555394 0
7.8461766 0.46860287 -0.98761153 0
-4.4798336 6.3339477 1.6049695 0
-6.4140406 -4.5447059 -0.98619318 0
-4.6332598 6.176446 1.7760897 0
-5.414135 5.4500346 1.9402525 0
-4.6392226 6.1857166 1.7332149 0
3.1907623 -7.2349544 0.52674687 0
3.222343 -7.1938066 -0.82155335 0
3.1955292 -7.2472582 0.28038871 0
-4.1232643 6.6715555 1.1426468 0
6.7200117 -3.7212656 1.9519868 0
-5.6182652 5.3570399 1.5990372 0
-4.3213854 6.4886909 1.4324679 0
3.1966639 -7.2466822 0.33667016 0
3.1931376 -7.233757 0.57077181 0
-5.9100204 5.283936 -0.035243154 0
3.2277298 -7.2165494 -0.59428537 0
-3.9621515 6.8423343 -0.58137846 0
-3.8685198 6.9141254 -0.29076886 0
-3.8687649 6.9143858 0.28274941 0
-3.8723297 6.9181743 -0.0037732124 0
7.0767641 -3.4892051 0.78936303 0
7.1510673 -3.4215667 -0.182666 0
3.2869563 -7.074409 1.4260433 0
6.8058405 -3.6748803 1.7530048 0
7.1189137 -3.4579418 -0.51379901 0
-4.1560054 6.6371036 1.2581389 0
-4.9489412 5.8849769 1.9452744 0
7.0674496 -3.4814522 -0.92076957 0
-5.7490759 5.335587 1.1852424 0
6.9042015 -3.6018221 1.5155969 0
6.7701044 -3.6984141 1.8523819 0
3.469888 -6.7894316 2.1927457 0
-3.9929209 6.7959952 0.90402877 0
-5.9115534 5.2848043 0.27214634 0
-4.5503898 6.2653422 1.7304692 0
-5.1499472 5.6774058 2.0504494 0
-4.2984862 6.5140729 1.4342022 0
7.0499511 -3.5188773 0.94150114 0
6.5762162 -3.8312089 2.2472801 0
7.8542891 -0.5558759 -0.9880389 0
6.8871336 -3.6244075 1.5526087 0
7.1500401 -3.4207366 -0.42793936 0
-0.48086214 7.8628817 -0.98586941 0
-5.8658619 5.3005819 0.72761559 0
-3.8660927 6.9115462 0.56858253 0
4.7779684 6.2644081 -0.98715723 0
-4.7893648 6.0270214 1.9479437 0
6.9645438 -3.5704217 1.3509531 0
-3.8677392 6.9132962 -0.57967687 0
3.2863352 -7.0882845 1.4306931 0
7.1633487 -3.4314954 0.060446739 0
7.1146483 -3.4559517 0.73632383 0
-5.3355875 5.5124364 2.0627432 0
-5.2460403 5.5788999 2.1133819 0
-3.9555707 6.8355384 -0.87187016 0
7.1508861 -3.4214203 0.54707241 0
3.1938138 -7.2410188 0.71533835 0
6.9933424 -3.5470126 1.2881379 0
-0.483248 -7.870296 -0.98738337 0
3.3390021 -7.0204306 1.6489065 0
3.1506114 -7.2945013 -0.14286071 0
-5.4252653 5.426331 2.0684962 0
-5.5756011 5.3758874 1.7803826 0
7.1185513 -3.4577727 -0.7272402 0
4.8516083 6.2168593 -0.98619926 0
-3.9584332 6.8384943 0.85526824 0
-5.2502217 5.6004214 2.058228 0
-5.921308 5.290328 -0.34492558 0
6.995697 -3.5505259 1.2749681 0
3.2233372 -7.1980033 0.9874537 0
-3.8267303 6.9570947 0.36318159 0
-5.070858 5.7679958 2.0478964 0
7.853282 0.73128772 -0.98577869 0
7.8607202 0.64330423 -0.98836637 0
3.4606891 -6.7925072 2.2566361 0
3.1515257 -7.298624 0.08489728 0
7.8479552 0.81892282 -0.9839704 0
-6.3654137 4.6627607 -0.98683 0
7.0403171 -3.5142136 1.1482787 0
-4.8168225 6.0219445 1.9419303 0
-4.4663739 6.3485298 1.7289376 0
-4.2106891 6.5928235 1.4329257 0
-4.9832568 5.8519487 2.0435796 0
-4.1523657 6.6305861 1.4351535 0
-3.7846861 6.9961286 -0.0036448836 0
7.1683846 -3.4355662 0.30393481 0
-5.4055538 5.4406133 2.1137357 0
4.9257689 6.1703582 -0.98579991 0
-3.9932079 6.796546 1.0824552 0
6.7419691 -3.7197874 2.0049543 0
7.8688946 -0.64289445 -0.99025595 0
-4.7126193 6.1110201 1.9410501 0
7.8626199 -0.73095345 -0.9879359 0
-4.3205938 6.4873648 1.6093657 0
-3.7844353 6.9958544 -0.29100859 0
-6.3722038 -4.6658702 -0.98801291 0
-5.9145508 5.2865014 -0.6548686 0
6.377892 4.6586647 -0.9885484 0
3.4203715 -6.8818469 2.0774264 0
-5.8687143 5.3033733 0.90402651 0
3.3543911 -6.9766479 1.8659115 0
-4.0474539 6.7616343 1.1434743 0
-0.38125753 7.89257 -0.98557734 0
7.0811572 -3.4928615 1.033293 0
6.7550764 -3.6907163 2.0419571 0
7.2002144 -3.4013965 0.11218905 0
3.152729 -7.3040485 -0.37343812 0
7.1133146 -3.4553297 0.94412136 0
7.1961398 -3.3995659 -0.30826664 0
-5.9242039 5.2919679 0.57950735 0
-4.8063374 6.0162702 2.0352573 0
-3.7890739 7.0009279 0.28258777 0
3.19524 -7.2456245 0.86190116 0
3.2201195 -7.1844201 1.2123704 0
-3.8236918 6.9508348 0.72416985 0
7.8625045 -0.81861043 -0.98733008 0
-4.4833994 6.3395524 1.7824156 0
-6.3016748 -4.7737899 -0.98511648 0
-4.9016767 5.9396582 2.0409703 0
7.2078695 -3.3832078 -0.27273512 0
-4.3786507 6.428061 1.7268496 0
6.795084 -3.6690903 1.9629173 0
-5.8577499 5.2926426 1.0801728 0
-4.7143922 6.0945415 2.0305939 0
3.1542721 -7.3110065 0.31197 0
6.9547038 -3.5654831 1.5590944 0
7.2055101 -3.4037755 -0.09817785 0
-5.1056604 5.7408595 2.1190283 0
-4.6115866 6.2034674 1.9412136 0
-5.9039631 5.2805057 0.88627815 0
-5.7370062 5.3285227 1.4899504 0
5.0020766 6.1273279 -0.98663199 0
6.553895 -3.8451881 2.4092059 0
7.2159996 -3.3867996 -0.075682878 0
5.0707283 6.0722895 -0.98446536 0
7.2172861 -3.3873677 0.1214112 0
3.1527858 -7.3043041 0.5393101 0
3.5503011 -6.6783824 2.5262733 0
6.4507074 4.5835547 -0.98645413 0
-5.6265135 5.3655896 1.7756011 0
7.8516283 -0.99371266 -0.98452961 0
7.8621655 -0.90621185 -0.98696244 0
6.8834958 -3.6225162 1.7631986 0
3.198678 -7.2506847 0.90404177 0
7.167748 -3.4350517 -0.67904806 0
-0.38585114 -7.9075799 -0.98862851 0
7.2084785 -3.4051089 0.32112312 0
3.3770666 -6.9485941 1.9935246 0
-4.9503088 5.8867655 2.1220734 0
-3.7871423 6.9988151 -0.58064568 0
-4.6414957 6.1886063 1.9546652 0
7.8663692 0.90618181 -0.98793292 0
-4.1288238 6.6769776 1.4328408 0
6.6593995 -3.7762129 2.2529483 0
7.2010927 -3.4017911 -0.52193123 0
-3.8775492 6.9237213 0.85557222 0
7.1637955 -3.4318564 0.79098332 0
7.8362889 -1.1681039 -0.98185301 0
-3.837841 6.9799867 0.54260564 0
6.9904227 -3.5460064 1.520103 0
-6.3183861 4.7817326 -0.988047 0
7.2044659 -3.4033065 0.5302 0
3.3378758 -7.0183434 1.8363693 0
7.0711293 -3.4845154 1.2768147 0
6.9056807 -3.6031268 1.76368 0
-3.880156 6.9264922 -0.87404335 0
7.1342793 -3.4651108 -0.94766998 0
7.8645091 0.99380487 -0.98750341 0
7.2266273 -3.3914948 0.31710029 0
-3.7949529 7.0073576 0.56896424 0
7.2351851 -3.361078 -0.43155217 0
7.1930146 -3.3981619 0.73879719 0
3.1942563 -7.2418981 1.0927677 0
-4.6361322 6.1831818 2.0295959 0
7.8552232 1.0812333 -0.98564875 0
-3.6996489 7.0769477 0.28264713 0
7.2459879 -3.3695581 0.059081793 0
-4.7925386 6.0314302 2.1257181 0
-0.28281188 -7.9261713 -0.98636758 0
7.0048151 -3.5524797 1.481595 0
-4.4038215 6.3819199 1.9411097 0
-3.7049236 7.0828848 -0.0042237639 0
-4.2987032 6.5142727 1.7266519 0
3.291739 -7.0933847 1.6571941 0
7.2235441 -3.3901324 -0.4749428 0
7.2223244 -3.3895934 0.51332247 0
-3.8282075 6.9601383 0.90403092 0
3.1563087 -7.3201885 -0.60775685 0
7.8474798 1.1685046 -0.9844383 0
7.2445207 -3.3684065 0.3036257 0
7.1620269 -3.4304268 -0.92869306 0
7.0510411 -3.5194049 1.3596685 0
6.8210268 -3.6593311 2.0089254 0
-3.9682498 6.8486323 1.1440485 0
3.4748268 -6.7979856 2.382762 0
-4.0002251 6.8100071 1.2617829 0
-6.2512798 4.8910809 -0.986027 0
-4.3215976 6.4890461 1.7873719 0
-5.9209366 5.2901173 -0.9693284 0
3.2860234 -7.0866594 1.721817 0
7.1547203 -3.4245203 1.034477 0
5.153183 6.0382981 -0.98839891 0
7.213109 -3.3855221 0.70902598 0
-4.4787922 6.3323107 1.9590001 0
-4.226491 6.5991592 1.6074281 0
5.220284 5.9812007 -0.9862169 0
-5.2017117 5.6320386 2.2856417 0
7.2029247 -3.4026141 -0.73768878 0
-3.7859793 6.9975433 0.85514522 0
-4.548533 6.2637739 2.0265303 0
-4.204236 6.5867081 1.7235506 0
-5.8634939 5.298264 1.2568855 0
-4.9992132 5.8168097 2.2825384 0
3.1550078 -7.3143229 0.76734531 0
-3.8672185 6.9127426 1.1420026 0
-4.1598425 6.6439762 1.614527 0
-4.5227146 6.3100924 1.9446459 0
3.195596 -7.2476349 1.1540654 0
-6.256979 -4.8938899 -0.98703313 0
3.1540315 -7.3099213 -0.84058535 0
6.5334005 4.5201616 -0.9876281 0
-4.9370584 5.8694329 2.2958016 0
-5.2546148 5.5888739 2.2924299 0
5.290132 5.9283943 -0.98549974 0
-4.1137094 6.678453 1.606596 0
7.1272349 -3.4618242 1.1551564 0
-0.28722334 7.9413595 -0.98944187 0
7.2579308 -3.3789337 -0.18765467 0
-5.4087057 5.4440746 2.2912393 0
-3.7123175 7.091208 -0.29298145 0
-3.7016296 7.0791774 -0.58094597 0
-5.3084507 5.5441666 2.2891424 0
-3.9917421 6.7937346 1.4398615 0
7.8747821 -1.0816531 -0.99016523 0
7.2791829 -3.3422532 -0.1019057 0
-3.7033014 7.081059 0.56884873 0
-4.0489826 6.7631683 1.4333148 0
-4.634675 6.1785364 2.1306856 0
-0.18135881 7.9493546 -0.98533916 0
-4.4589257 6.3420548 2.0232046 0
-4.9020653 5.9130187 2.2826471 0
-3.9167771 6.8758726 1.2706866 0
-5.1032934 5.7379413 2.2957146 0
-5.4104738 5.451345 2.2916987 0
-5.1114683 5.7353172 2.2869096 0
7.2423992 -3.3667409 -0.68155456 0
6.991271 -3.5460255 1.6736879 0
6.7357144 -3.7139442 2.2563133 0
7.8550587 1.2564118 -0.98705769 0
7.2509336 -3.3734405 0.54791641 0
