# .PCD v0.7 - Point Cloud Data file format
VERSION 0.7
FIELDS x y z intensity
SIZE 4 4 4 4
TYPE F F F F
COUNT 1 1 1 1
WIDTH 1457
HEIGHT 1
VIEWPOINT 0 0 0 1 0 0 0
POINTS 1457
DATA ascii
5.3319106 3.6551406 -0.92215562 0
3.7651472 5.3241715 0.34158754 0
5.5482664 3.4409556 -0.13269049 0
3.7113128 5.3728318 0.0021784306 0
4.2876253 4.7466569 1.3140759 0
-4.2711911 4.8264289 1.0517292 0
-3.814321 -4.7896652 2.2702172 0
4.1514139 -5.0303793 -0.32471406 0
-4.3905673 -4.7802348 -0.71967363 0
5.3309383 3.6538928 0.93633819 0
5.5364647 3.4332294 -0.45554638 0
5.5786829 3.383172 -0.29368031 0
-4.3261318 -4.7796292 1.0472403 0
3.9975519 -5.0322676 1.1642885 0
5.4882121 3.4789388 0.66251755 0
4.4810219 4.5688519 1.3077369 0
3.9139547 5.1614003 0.84020734 0
5.5616312 3.410404 0.32453299 0
3.7994533 5.2866154 0.5403235 0
-4.5483732 -4.6327772 -0.72897696 0
5.5839434 3.3865094 0.18733788 0
5.5242786 3.4252517 0.66253352 0
3.7498105 5.3333249 0.42923486 0
4.0145273 5.0450077 1.0608277 0
3.8413911 -5.0206094 1.65276 0
5.5098486 3.4775522 -0.49496543 0
4.733933 4.2872891 1.3809087 0
4.9701271 4.0174179 1.3638775 0
5.3698535 3.6326504 0.82034767 0
4.3881454 4.6623149 1.3116968 0
4.0779305 -5.0384383 -0.83580554 0
5.5870953 3.3885088 -0.13320929 0
5.6211367 3.3330972 0.09435606 0
5.18466 3.8143196 1.1348403 0
4.1575031 -5.0406981 -0.15751559 0
5.5721102 3.3790023 0.50484478 0
5.2802057 3.7264099 0.97778535 0
3.8132706 5.2650342 -0.67918754 0
5.0831251 3.9238269 1.2199881 0
-3.6557546 -4.7880077 2.5368166 0
-4.5211458 -4.6168404 -0.9852668 0
4.1052628 4.9521766 1.161732 0
4.6830807 4.3491569 1.3745348 0
5.5665793 3.416055 -0.28686357 0
4.1029887 -5.032125 0.76271641 0
-4.5440817 -4.6302652 0.80751002 0
5.4968948 3.4848022 -0.61995411 0
5.4523149 3.5385306 -0.70610189 0
-1.0988717 6.3691435 -0.98704576 0
3.7139578 5.3787766 0.17165947 0
4.4378467 4.619781 1.3106594 0
4.9267216 4.099328 1.2961187 0
3.7454369 5.3277707 0.58810616 0
5.4131603 3.5842669 -0.78471994 0
-4.3900905 -4.7799368 0.80466282 0
5.4847803 3.4834373 0.74381053 0
5.5785375 3.3830798 -0.45713967 0
5.3880973 3.5916541 -0.91870511 0
4.0018539 5.0400591 1.1656983 0
5.2147217 3.777869 1.1458783 0
5.558445 3.4067662 0.52678251 0
1.7622675 6.2210178 -0.98667192 0
5.2263489 3.7656214 1.1350536 0
-4.2540064 4.9379864 0.55141616 0
5.62638 3.3361847 0.026965141 0
5.6128392 3.3433206 0.32481468 0
4.73592 4.2703381 1.4576511 0
4.1520567 4.9094219 1.2035606 0
4.1595583 4.913466 1.1608975 0
3.7655129 5.3249631 0.50982749 0
5.6147189 3.3454063 -0.28430408 0
5.61835 3.3494351 0.12236667 0
3.7218027 5.3530545 0.54101229 0
3.7080512 5.3655014 -0.51371092 0
4.9415617 4.0608077 1.3760684 0
4.8164778 4.2087064 1.3754973 0
3.9624619 5.1082721 1.0044231 0
5.2674665 3.7084506 1.1429143 0
4.0181251 5.0679131 0.98855555 0
-4.5164828 -4.2618747 2.0607047 0
3.7952466 5.2738547 0.7691462 0
5.4514027 3.5321138 -0.78501916 0
5.3619328 3.6394279 0.90400577 0
5.2654877 3.7148557 1.134892 0
4.4166136 4.6281996 1.3737044 0
5.0512414 3.9527683 1.29409 0
5.6272621 3.3367271 -0.13402516 0
4.9178977 4.0935864 1.3695846 0
-4.5338278 -4.4835615 1.4702358 0
3.7596345 5.3122444 -0.68377268 0
4.3444309 4.7138038 1.3150089 0
5.6291332 3.3374875 -0.070802569 0
5.5958767 3.3940799 0.026546001 0
5.6206937 3.3520353 -0.080985665 0
3.7137952 5.3784113 -0.34198624 0
5.5024133 3.4688118 0.72973728 0
5.4497995 3.530998 0.82084358 0
4.5148954 4.5066638 1.466682 0
3.6592908 5.4273701 -0.00037443638 0
3.9427376 5.1301899 0.99137807 0
4.0052128 -5.0337524 1.2111466 0
3.9187326 -5.0263276 1.4924123 0
4.5497155 4.4949298 1.3958941 0
3.7170944 5.3858261 -0.17043084 0
4.468771 4.5526576 1.4686193 0
4.7781143 -4.3646646 -0.98722529 0
3.6586962 5.4259801 0.17055058 0
3.7146063 5.3802338 0.34106076 0
3.8697927 5.1731887 1.0608943 0
-3.8566713 -4.7904868 2.2451913 0
5.3257065 3.680176 0.97873116 0
-3.9821277 -4.7960739 2.0024447 0
4.1548777 4.9121556 1.2176509 0
5.665307 3.2834454 0.026438475 0
4.4176264 4.6249285 1.4050128 0
5.36306 3.6276248 0.97852445 0
5.6269674 3.3365457 -0.29625571 0
4.147634 -5.0239744 -0.66641986 0
5.0343552 3.9609754 1.3620181 0
-4.2671523 4.9467273 -0.46056658 0
4.4852095 4.5620961 1.4007695 0
4.0731039 -5.0299859 1.0025749 0
4.1982689 4.8502526 1.321502 0
5.5495172 3.4417746 0.50510693 0
4.8628836 4.167201 1.374908 0
5.1346035 3.8558145 1.2937763 0
4.7849255 4.2291002 1.4582593 0
4.6165152 4.4338942 1.3922472 0
1.8375274 6.2103248 -0.98402333 0
6.1981564 -1.8761771 -0.98789513 0
5.4928455 3.4820678 -0.78659308 0
4.1617393 -5.0478764 0.34264445 0
4.6991224 4.3254228 1.4615164 0
-4.5219755 -4.3804379 1.8141618 0
4.1565537 -5.0390892 0.50857735 0
4.0824714 4.9801083 1.2084198 0
5.490283 3.4803374 0.82125783 0
3.8777738 5.2255116 0.76812923 0
3.8113775 5.2610879 -0.85547662 0
4.6105347 4.4198079 1.4648623 0
5.3947544 3.5999491 0.93609953 0
6.2006016 1.8777282 -0.98867095 0
4.0614634 5.0096006 1.1661148 0
4.0097208 -5.0395761 1.2174854 0
5.6651025 3.2833238 -0.2970624 0
5.2152491 3.7780519 1.2212117 0
4.6567459 4.3747096 1.4637384 0
5.5700846 3.420058 -0.49430537 0
4.2516212 4.811306 1.3207109 0
-4.2527118 4.9371252 -0.71478212 0
3.8687754 5.222826 -0.85301554 0
3.8693528 5.2239871 0.84332967 0
4.1588664 -5.0430079 -0.49811023 0
5.3121681 3.6698582 1.1363797 0
3.8588829 5.2029381 1.008929 0
5.352437 3.633482 1.0633783 0
5.1000757 3.9105849 1.2956963 0
3.8910015 5.1985874 0.90400338 0
4.1510282 4.8994732 1.3247998 0
5.6175661 3.3311369 0.58156633 0
-4.2685666 4.7086458 1.6126947 0
5.5122471 3.4803717 -0.70492351 0
5.4475079 3.5327127 -0.91681445 0
4.5680904 4.4698439 1.4676323 0
4.353425 4.6969461 1.4110003 0
3.9948411 -5.0273585 1.3310568 0
-4.2557998 4.8165088 1.3020422 0
3.8039131 5.2455273 1.0106649 0
3.608371 5.4695082 0.26809525 0
3.7578177 5.3083143 0.84576142 0
-4.1164107 -4.7959599 1.7525511 0
3.6052647 5.4792666 -0.0027331114 0
3.7663593 5.3267946 0.6783936 0
3.6018419 5.4709406 -0.34848475 0
5.6381941 3.3424621 0.25552678 0
6.2285337 -1.8062227 -0.98487127 0
5.6255178 3.3356547 0.50523472 0
3.9159365 5.1652455 1.0079648 0
5.5494204 3.4417112 -0.62454355 0
-4.2098584 -4.7868996 1.5474703 0
5.0769157 3.9194236 1.3778768 0
5.4086151 3.5810044 0.97967362 0
5.1498957 3.8315513 1.3555574 0
5.3292294 3.6517003 1.1420057 0
3.6024482 5.4724154 0.34035158 0
5.6754274 3.2891605 0.12267947 0
3.6617789 5.4331841 0.34058249 0
5.5589952 3.4073942 0.72923803 0
4.8034992 4.1983342 1.5319085 0
5.581275 3.3848164 0.66389632 0
3.8158574 5.2704268 0.84492588 0
-1.0195172 6.4062953 -0.98627675 0
3.6576912 5.4236317 0.51063609 0
-4.5333204 -4.6239662 1.0619965 0
5.5703058 3.3778572 -0.78866374 0
-4.3301535 -4.7845879 1.1909478 0
5.3340168 3.6219468 1.2219112 0
5.4492807 3.5348589 0.93469608 0
5.1821456 3.8122268 1.2953699 0
5.6368108 3.3425946 0.34593379 0
4.2020521 -5.0310416 0.31282401 0
5.6336479 3.3399661 0.41862571 0
5.6772332 3.2911069 -0.0803895 0
3.7104592 5.3709135 0.67928934 0
-4.2544661 4.9765477 0.46588457 0
5.6767478 3.2902524 0.18583512 0
3.8712521 5.2066417 0.99559879 0
5.5633678 3.4123881 -0.70141232 0
3.6659298 5.4428854 -0.17433941 0
3.7216499 5.3525677 0.77189171 0
5.6443624 3.3472352 0.18574226 0
4.1019335 -5.0294504 0.98805809 0
4.2867403 4.7660899 1.4166112 0
5.7217216 3.2178113 -0.078386605 0
5.5879345 3.3890417 -0.62543023 0
4.8796768 4.1428905 1.4589665 0
3.7518113 5.335865 0.74590087 0
4.2909956 4.7751174 1.3746133 0
4.1037455 4.949605 1.3284287 0
4.1558332 -5.0378685 0.67445993 0
3.6636288 5.4375076 -0.34738708 0
5.6793323 3.29179 -0.13664103 0
5.6228023 3.3543751 -0.49207336 0
6.2341018 1.8096445 -0.98662245 0
5.6340165 3.3408775 -0.46194214 0
3.7181923 5.3882933 0.51049304 0
3.6516914 5.4487953 0.3091476 0
5.4994307 3.4653056 0.93285203 0
4.0129552 5.0542355 1.2138352 0
4.2067204 -5.042398 0.08615315 0
4.1982737 -5.0218511 0.53840244 0
5.5411949 3.4363265 -0.7905947 0
5.713829 3.2360163 -0.13683712 0
5.3583746 3.6241591 1.137886 0
3.961503 5.1064749 1.1718941 0
-4.5143862 -4.1833129 2.2943149 0
5.6211033 3.332942 0.66422689 0
4.8517494 -4.3170981 -0.98626328 0
5.5027447 3.4692013 -0.91377151 0
3.6478713 5.4359856 0.54201889 0
4.0196123 5.0507541 1.2181814 0
-4.5312395 -4.1555953 2.3136828 0
4.6809874 4.3473825 1.531919 0
4.965354 4.0475674 1.4575503 0
4.148078 -5.0247264 -0.84206522 0
5.101613 3.9094789 1.3612685 0
5.6238832 3.3555739 0.52687311 0
-4.2734981 4.43397 2.2897372 0
4.2901363 4.7504044 1.4818778 0
4.3392696 4.7063346 1.4798484 0
3.742543 5.3240952 0.9040035 0
4.436142 4.6174593 1.4761136 0
5.4945354 3.4891629 0.90400684 0
4.5493269 4.4884396 1.5313118 0
5.6115456 3.3418849 0.72850049 0
5.6275077 3.3368778 -0.62680113 0
3.7137325 5.3782701 -0.69327784 0
5.0871353 3.8991718 1.4550233 0
3.6617689 5.4331608 -0.52216667 0
5.2278433 3.7668295 1.2966411 0
5.617425 3.3310595 0.74287796 0
5.6795263 3.2935789 0.32467008 0
5.5764685 3.3817673 0.82284307 0
3.7464054 -5.0254259 1.9802213 0
3.612766 5.4754314 0.42716098 0
5.0087848 4.0006037 1.4573698 0
3.610137 5.4911189 -0.17715096 0
4.2303071 -5.0295224 -0.16093719 0
4.3900394 4.6649737 1.4787643 0
3.9038415 -5.0226593 1.6602836 0
-4.5120945 -4.0333829 2.5687091 0
4.1506767 -5.0291305 0.84008801 0
4.2198811 4.8374491 1.4227347 0
3.5513611 5.5336161 -0.005382061 0
-4.4002528 -4.7862825 -0.9822011 0
4.2322245 -5.0326672 0.0073764324 0
-4.254406 4.9764686 0.61218774 0
4.8446579 4.1989727 1.4626441 0
4.9287329 4.1013179 1.4601617 0
-4.2647481 4.5830035 2.0133452 0
5.7222333 3.240855 0.02402246 0
1.9129995 6.2145228 -0.98565435 0
5.4574175 3.5363026 0.98139787 0
-4.2623849 4.9435577 0.80368257 0
5.7147398 3.2365406 0.34571123 0
-4.3912792 -4.7806792 1.0584569 0
3.6042671 5.4768395 -0.52567267 0
4.1541672 4.9113975 1.3748283 0
-4.4805126 -4.7136745 -0.98810351 0
-4.5466061 -4.7536421 0.040469885 0
3.8075032 -5.0221944 1.8845148 0
4.1943855 4.8440824 1.4879732 0
5.2694769 3.7179878 1.2970555 0
3.6050234 5.4786797 0.51116657 0
5.0521154 3.9535613 1.4573712 0
-4.5413218 -4.7504468 0.29750204 0
3.612071 5.4958243 0.16812027 0
5.3904867 3.5946314 1.1411748 0
3.9876051 -5.0142546 1.4975491 0
5.6780415 3.2910223 -0.46425039 0
5.494729 3.4833398 0.981498 0
-0.93746209 6.4377432 -0.98434031 0
4.0061398 -5.0355301 1.374275 0
3.6583157 5.4250908 -0.6980679 0
3.6093981 5.4708929 0.58665907 0
5.6673775 3.2846775 -0.62844169 0
-4.0314879 -4.7900224 2.026783 0
5.5485225 3.4411235 0.82360113 0
4.4185696 4.6300597 1.5313191 0
3.7095833 5.3689446 0.8488493 0
4.005971 5.0475149 1.3355327 0
5.2152247 3.7785542 1.35482 0
5.6863623 3.3009489 -0.28621137 0
4.075223 -5.0336971 1.1705098 0
4.0594654 5.0061011 1.3336048 0
5.6650791 3.2780035 -0.69524395 0
5.6784496 3.2924182 -0.49077851 0
3.6598105 5.4285841 0.68099785 0
3.7669497 5.3280716 -0.86664295 0
-4.5475264 -4.7541986 -0.21749067 0
-4.2835112 4.2895565 2.5655458 0
4.2347088 -5.0367432 0.17486417 0
5.406167 3.579247 1.1398144 0
4.7337747 4.2870121 1.5979362 0
4.9463539 4.0644174 1.5347829 0
4.0022736 -5.0259776 1.4375608 0
5.7351098 3.231837 0.12272406 0
3.7986307 5.2841201 0.99998879 0
5.7315769 3.2281363 -0.28350478 0
5.7235146 3.2415926 -0.30170792 0
4.6724253 4.3544626 1.603529 0
4.5609674 4.460968 1.6319332 0
4.1515589 4.9082093 1.428884 0
-4.5381808 -4.5070982 1.5690453 0
5.6815548 3.2931125 0.50568748 0
5.1362042 3.8571858 1.4572129 0
-4.3281441 -4.7821107 1.3345952 0
-4.5337934 -4.7458944 0.55374432 0
5.2158184 3.7784317 1.3802938 0
4.1480513 4.8945894 1.4922528 0
5.4875278 3.48505 1.0642769 0
4.8566918 4.1570444 1.5883214 0
-4.2657528 4.5838065 2.0469522 0
5.6251316 3.3569591 -0.70133102 0
4.7841988 4.2283173 1.6238184 0
-4.1101518 -4.7877727 1.8946373 0
3.552711 5.5370388 -0.35528886 0
4.4798069 4.5512357 1.6200147 0
-4.2530484 4.9746933 0.75821924 0
5.6925631 3.2996624 0.34548879 0
5.7674189 3.1848001 0.087374568 0
5.5370975 3.4336436 0.9824512 0
3.5743937 5.5266609 0.30821872 0
5.7636709 3.1887195 0.1845423 0
3.5702491 5.5120006 0.54291523 0
5.7682695 3.1852362 -0.078049779 0
4.7421083 4.2772045 1.6258755 0
5.0726128 3.9163721 1.5361438 0
4.2354345 -5.0379329 -0.33258551 0
6.2770262 1.7474043 -0.98783469 0
5.4475226 3.5294123 1.1406059 0
-4.2546315 4.9384022 -0.97442639 0
5.7328897 3.2469907 0.18444121 0
3.7408898 5.3219962 1.0616958 0
5.5642262 3.413368 -0.91328752 0
5.0316038 3.9568703 1.5738535 0
5.7357178 3.2324741 0.32477462 0
4.4723115 4.5573378 1.6377008 0
5.6834736 3.2978351 0.52683115 0
-4.2676768 4.7075486 1.7559428 0
3.7131166 5.3768859 -0.87259698 0
4.1477604 -5.024189 1.0065618 0
3.918088 5.1694193 1.1775291 0
3.9576755 5.0993018 1.3399005 0
-4.5399923 -4.7576036 0.46519959 0
4.2365103 -5.0396976 0.34209549 0
5.6747761 3.2890794 0.66544449 0
3.8820941 5.1879206 1.2188511 0
3.5571823 5.5483747 -0.18124324 0
4.7985764 4.1944008 1.6894321 0
4.2864733 4.7705622 1.5316806 0
3.8633132 5.2118444 1.1796045 0
6.2807012 -1.7495909 -0.98898065 0
4.2318339 -5.0320272 0.50914752 0
5.7214689 3.2404149 0.50582421 0
3.9930089 -5.0206914 1.529978 0
5.3559217 3.6223445 1.2991507 0
4.6124759 4.4221568 1.6325846 0
5.2756796 3.7193067 1.3530178 0
4.2539139 4.814836 1.4896886 0
5.4500217 3.5357554 1.1401854 0
3.551692 5.5344553 0.51172185 0
-4.5474706 -4.7541652 -0.47696757 0
3.7135162 -5.0259418 2.1117182 0
3.9230461 -5.034411 1.6661978 0
5.5657883 3.4151518 0.9333235 0
4.9568825 4.039423 1.6201324 0
-4.5468512 -4.497859 1.6152182 0
4.6144476 4.4300189 1.6110597 0
3.9471726 5.1424522 1.2211928 0
4.8018408 4.2325287 1.5954196 0
4.428051 4.6064396 1.6411631 0
4.9281249 -4.2742233 -0.98684478 0
-4.2739949 4.4721751 2.2939537 0
3.6065655 5.4824309 0.68252075 0
5.7731638 3.1940057 0.022164822 0
3.5590553 5.5531225 0.16637266 0
4.8758512 4.1389956 1.6234622 0
5.6147747 3.3454678 -0.90931892 0
5.3225031 3.6777349 1.3004212 0
4.226243 -5.0228562 0.67568338 0
4.7043509 4.3313937 1.6300113 0
5.7730498 3.1939425 -0.14061904 0
3.6110575 5.4731293 0.74535298 0
5.8061624 3.1367991 0.022036076 0
5.4998703 3.4658225 1.1375375 0
4.5413141 4.4812455 1.6881628 0
5.7163191 3.2374501 -0.6326853 0
-4.532515 -4.3502469 2.0224547 0
4.2348804 -5.037024 -0.50471336 0
-4.537096 -4.7542348 0.61193383 0
3.7078643 5.3650818 1.019043 0
3.7655954 5.3251414 1.0175047 0
4.5517511 4.498879 1.6172528 0
4.418458 4.6266618 1.627954 0
3.5531492 5.5381498 -0.53301555 0
4.020689 5.051971 1.3758111 0
5.759542 3.1864204 0.50593805 0
5.7354569 3.2322009 -0.49001998 0
-4.2678194 4.7035871 1.803252 0
5.7304387 3.2455795 -0.46857828 0
5.7572832 3.1796086 0.57912588 0
4.1470842 4.903842 1.5316 0
5.3976998 3.573169 1.3000844 0
4.3503819 4.690362 1.6335185 0
4.5253344 4.5200605 1.6384306 0
4.9815364 4.0349822 1.5811672 0
4.8366327 4.1905651 1.6260791 0
3.8712955 5.2067671 1.2255316 0
5.5828447 3.3858123 0.98399115 0
5.7766409 3.1895244 0.25080025 0
4.6627922 4.3818164 1.6329637 0
4.9244003 4.1039176 1.5864735 0
5.6781797 3.2921278 0.7289325 0
5.33184 3.6550505 1.3503625 0
5.78654 3.1661236 0.32498956 0
3.497889 5.591599 0.33908594 0
1.9887148 6.2198677 -0.98788381 0
3.501071 5.6000166 -0.0092163086 0
5.7728763 3.1938457 -0.30478477 0
4.2040806 -5.0359764 0.76488292 0
3.608252 5.4865336 -0.70667827 0
5.1882896 3.8173411 1.4604647 0
4.1027021 -5.0313993 1.2151895 0
3.5005891 5.5987425 0.16524625 0
5.7649899 3.1894541 -0.46904665 0
5.792984 3.172684 -0.079887271 0
5.7710371 3.1866536 0.41516328 0
3.4936142 5.5802903 -0.53648776 0
5.2269278 3.7660894 1.459857 0
5.7721982 3.1934681 0.345209 0
4.9334917 4.0547299 1.6918848 0
3.8126469 5.2637339 1.1834667 0
3.5598011 5.5550132 0.33929229 0
-4.3213081 -4.7736812 1.4778471 0
4.1061339 4.9536524 1.4989684 0
3.4983788 5.592895 -0.36044157 0
5.4365826 3.5217941 1.3004904 0
5.6410904 3.3452244 -0.80012071 0
3.7251158 5.3636098 1.0046391 0
5.6743536 3.2888277 -0.79992795 0
5.7939277 3.1736448 0.12277067 0
3.4394023 5.6386919 -0.18650371 0
-4.2584205 4.9409213 1.0562811 0
4.9238768 4.0965137 1.6244819 0
3.6525931 5.4518189 0.77580655 0
5.5315719 3.4300263 1.1428285 0
4.6811085 4.347486 1.6902008 0
4.3866873 4.6602674 1.6463544 0
5.6396713 3.3443527 0.82579958 0
-4.5305424 -4.4799542 1.7557707 0
4.2314939 -5.0314689 -0.67786276 0
4.2746897 -5.0399623 0.09642005 0
5.845283 3.0827129 -0.14195585 0
5.781415 3.1609061 0.52628267 0
5.7396326 3.2365754 0.52672422 0
4.0735788 -5.0308175 1.3391371 0
6.3159199 1.6826763 -0.98806751 0
3.5024836 5.6037545 -0.1851669 0
-4.3809309 -4.7742171 1.3122344 0
3.4963686 5.5875769 0.51223898 0
3.4952295 5.6035185 0.30729163 0
5.793323 3.1730292 -0.28391773 0
3.6043959 5.4771528 0.8539331 0
5.6760335 3.2898273 0.82605338 0
4.0129905 5.0543289 1.4423614 0
4.2849894 4.7621555 1.6409779 0
5.3504791 3.6322558 1.3826551 0
4.2744179 -5.0396729 0.25902867 0
3.6034136 5.4747634 -0.88514578 0
-4.2573729 4.9803495 0.90398896 0
-0.8622303 6.4831586 -0.98628211 0
5.6233964 3.3550341 0.93273878 0
-4.2524285 5.0618939 -0.21037018 0
5.726141 3.2431049 0.66655064 0
5.388278 3.5918787 1.3480592 0
-4.2553782 5.0639172 0.04449141 0
3.6550746 5.4175167 1.0223513 0
5.6264343 3.3362181 0.98530579 0
-4.5353475 -4.7468338 0.81024051 0
5.4875593 3.4850688 1.2247229 0
6.3200359 -1.6850462 -0.98934019 0
5.7617807 3.1876669 -0.63615489 0
4.4159212 4.6275411 1.6890039 0
3.5523558 5.5361381 -0.71248043 0
5.0114517 4.0030956 1.6240499 0
4.0896792 4.9983821 1.4384708 0
3.6655235 5.441936 0.85316038 0
5.101243 3.9089429 1.5737677 0
4.2935553 4.7555065 1.653162 0
3.6099384 5.4716206 0.90400457 0
4.2155619 4.8273568 1.6471958 0
3.4729664 5.6168461 0.4248482 0
4.005929 5.0474386 1.5063004 0
5.8377595 3.1006377 0.32516825 0
5.57377 3.3800552 1.1441588 0
3.9149952 5.1634188 1.3470843 0
5.8209515 3.1447594 0.18301558 0
5.5055809 3.4906681 1.1447189 0
5.7166362 3.2376325 -0.80277634 0
5.2745361 3.7219589 1.4621058 0
5.0931349 3.9044631 1.6224918 0
3.4790139 5.625505 0.26333308 0
2.0638804 6.2120123 -0.98686254 0
-4.5472989 -4.7540612 -0.73865318 0
5.8537388 3.0871093 0.18290961 0
-4.2623758 4.8207474 1.5573661 0
4.2782068 4.7622361 1.6885118 0
-4.2482042 4.9683561 1.0495727 0
3.4420462 5.6460009 0.3385334 0
5.0549822 3.9561641 1.6241112 0
5.8109479 3.1393747 -0.47220749 0
5.6428108 3.3449967 0.90400851 0
3.4445932 5.6530423 0.16359508 0
3.6661768 5.4434619 -0.88391662 0
5.8465915 3.1093752 -0.079274178 0
4.2666264 -5.0313616 0.5827477 0
3.8614731 5.2081456 1.3501406 0
-4.5419474 -4.7598782 0.75786746 0
5.793014 3.1727145 -0.48959291 0
5.4425635 3.5267293 1.3454871 0
5.6232071 3.334234 1.0652912 0
5.3151255 3.6721122 1.462477 0
5.8434186 3.1062362 -0.2824499 0
3.4459538 5.6568036 -0.012203455 0
-4.547142 -4.6320567 1.3206663 0
6.3482156 -1.6142278 -0.98656011 0
5.5628138 3.4117548 1.1375618 0
3.763361 5.3203073 1.1882477 0
5.7382655 3.2351434 -0.69892538 0
5.76721 3.1906905 0.66706991 0
4.197464 4.8489733 1.6601391 0
3.5566659 5.5470653 0.68468595 0
4.3045011 -5.0352039 0.084518552 0
-4.2101359 -4.7870784 1.8024781 0
5.8601413 3.0904381 0.019758463 0
-4.2448626 5.056705 0.55244362 0
4.0629034 5.0121217 1.5056317 0
3.4948905 5.6022496 0.54408538 0
5.7367363 3.2335408 0.72879934 0
5.1611652 3.8473694 1.5706606 0
3.7996068 5.2870812 1.2320592 0
4.2777538 -5.043231 0.4205451 0
3.748965 -5.0284915 2.1381054 0
5.6783991 3.2923639 -0.9101826 0
5.765008 3.1835656 0.74145365 0
-4.2647438 4.7039318 1.8995328 0
5.8498721 3.1126211 0.12296665 0
5.8247643 3.1468115 -0.30841577 0
4.3488226 4.7201586 1.6536634 0
-4.1080136 -4.784976 2.0386124 0
6.3516402 1.6161349 -0.98761046 0
5.1386175 3.8592539 1.6237416 0
5.6775403 3.2914379 0.93182898 0
-4.261878 5.0683742 0.29859614 0
3.6494141 5.4411588 1.0091887 0
4.1477799 4.8990173 1.6549449 0
3.9901726 -5.0174861 1.6872516 0
5.2160416 3.7796662 1.5662484 0
5.0055223 -4.2328024 -0.98812532 0
4.1527338 -5.0326157 1.1765254 0
4.2326508 -5.0333662 0.84409499 0
5.8569217 3.0887642 0.34477293 0
4.2027264 -5.0326829 0.9916147 0
4.3137598 -5.0337424 -0.16677386 0
5.3576241 3.6236041 1.4635985 0
-4.5244374 -4.3817859 2.0754433 0
5.1794677 3.8099978 1.6235881 0
3.3861351 5.7030234 -0.014270902 0
3.5757811 5.5315685 0.77869749 0
3.9935517 -5.0250235 1.6730008 0
6.3756747 1.5433416 -0.98389196 0
5.8346319 3.152123 -0.1447854 0
4.311408 -5.0300059 -0.33785504 0
3.8659225 5.1912217 1.4548283 0
4.0010195 -5.0226593 1.6668358 0
-4.5221376 -4.4980135 1.8253086 0
5.7855601 3.1651261 0.7280035 0
5.829772 3.149507 0.34469604 0
5.7539806 3.1779165 0.90400898 0
3.9443183 5.1345611 1.4505072 0
3.8891656 5.1963892 1.3774745 0
3.6040864 5.4763999 1.0265968 0
3.9606123 5.1048055 1.5129488 0
3.9036551 -5.0221443 1.8919053 0
3.3867345 5.7047582 0.16205084 0
3.3865314 5.7041702 -0.19191915 0
3.8115497 5.2614465 1.3551903 0
3.4469557 5.659574 -0.36752176 0
5.0790577 3.9209423 1.6963954 0
5.8422232 3.1050537 0.5263412 0
5.228303 3.786757 1.5412648 0
5.2733126 3.7161782 1.5630059 0
4.3184309 -5.0411634 0.0027726889 0
3.5541134 5.5405936 0.85743821 0
4.3072796 -5.041697 0.31194198 0
4.022131 5.0536003 1.5340824 0
2.139127 6.2064843 -0.9867543 0
4.2553225 4.8170042 1.6612744 0
5.7661419 3.1900954 -0.80804276 0
4.1536961 4.9038501 1.6664639 0
5.7318368 3.2463844 0.82834697 0
4.7333012 4.2861824 1.8177605 0
4.236517 -5.0397091 -0.85769796 0
4.0984406 -5.0205946 1.4422526 0
-4.1361628 -4.7841353 2.0220981 0
4.8016157 4.1968293 1.8489544 0
3.5010538 5.5999718 0.68622255 0
5.904273 3.0280333 0.24679899 0
4.0700951 -5.0247164 1.5089803 0
3.553165 5.5381894 -0.8958807 0
5.6261768 3.33606 1.1475086 0
4.5405922 4.480597 1.8467445 0
5.868073 3.0945623 -0.31060898 0
5.6819372 3.29334 0.9884131 0
-0.78323293 6.5208983 -0.98653924 0
3.8052182 -5.0155826 2.1169486 0
4.3197765 -5.0433011 0.17222416 0
4.4049807 4.617136 1.8457696 0
4.2271228 -5.0242987 1.011586 0
-4.2667637 5.0717249 -0.46911669 0
5.9025149 3.0485487 0.12333596 0
4.2707081 -5.0357151 0.74332547 0
4.6763182 4.3434267 1.8484488 0
4.3173676 -5.0394735 0.34135556 0
-3.9826803 -4.796629 2.2986021 0
4.104805 4.9514008 1.6706514 0
5.8191662 3.1437986 -0.64291191 0
-4.5448151 -4.7632132 0.90398932 0
3.4820461 5.6298461 0.58411765 0
3.4939325 5.5986667 0.78095067 0
-3.8188167 -4.7943072 2.5682068 0
5.8998256 3.0459633 -0.28224111 0
5.913023 3.0322025 -0.086758137 0
3.7145903 5.380198 1.193696 0
5.913393 3.0323789 0.079972744 0
3.6131756 5.4759836 1.0627394 0
5.7962432 3.1760018 -0.69850624 0
3.7249639 5.3631263 1.2381406 0
5.2283483 3.7672377 1.6264482 0
5.3295221 3.6520755 1.5597763 0
5.8306007 3.1499531 0.5067203 0
3.4734182 5.6174927 0.74449873 0
3.5020709 5.6026626 -0.72262549 0
3.4136138 5.6769519 0.5449909 0
3.7584531 5.3443003 1.2208827 0
4.6108074 4.4231977 1.8317833 0
4.3048201 -5.0359488 0.53934884 0
4.917778 4.0933962 1.8014965 0
5.8519807 3.1147072 -0.48967689 0
-4.5318794 -4.7447367 1.0672908 0
5.4420881 3.5256279 1.4662495 0
-4.5304499 -4.4798527 1.9000742 0
5.9118619 3.0420949 0.017652988 0
4.859642 4.1618838 1.8078699 0
5.900743 3.046845 0.32503676 0
5.9058161 3.0390606 -0.31193322 0
5.7378759 3.2347348 -0.90990269 0
4.0817995 4.978405 1.6644681 0
5.9072518 3.0531027 -0.079636216 0
5.9119797 3.0421541 -0.14698309 0
5.5081205 3.4755208 1.345943 0
4.5476675 4.4909558 1.838866 0
5.7229691 3.2412789 0.98953199 0
3.3280504 5.7567105 0.16045499 0
5.8416033 3.1044409 -0.69487619 0
5.737504 3.2343452 0.9317863 0
6.3923707 -1.5523281 -0.98897243 0
5.8669324 3.0939691 0.5068239 0
5.8231525 3.1459441 0.66851532 0
3.4480128 5.6624961 -0.5484004 0
-4.2525311 4.9740162 1.1956468 0
3.4435689 5.6502109 0.6876471 0
4.3158932 -5.0371318 -0.51302409 0
5.4931831 3.4883692 1.385973 0
4.8019495 4.2327132 1.8150418 0
5.6728697 3.2864029 1.1351752 0
-4.2550535 5.063694 -0.72630894 0
3.9141688 5.1618161 1.5196247 0
3.4194484 5.7001004 0.30599225 0
5.5446477 3.4385867 1.3088474 0
3.6593676 5.4275494 1.1970716 0
4.979619 4.0320301 1.7972517 0
3.390696 5.7162204 0.33767664 0
5.5107193 3.494138 1.3093348 0
3.5513036 5.5334706 1.0306759 0
-4.537303 -4.7544756 1.0499451 0
4.483654 4.558969 1.8461981 0
3.7447693 5.3269229 1.3782046 0
5.4127464 3.5839698 1.4684944 0
3.4503334 5.668911 0.51329184 0
5.8582163 3.0894372 0.66875482 0
-4.025135 -4.7857976 2.2818975 0
4.2655296 -5.0301909 0.90400684 0
5.8605523 3.0906518 -0.64561963 0
4.2997236 -5.0240388 0.76624489 0
5.8731885 3.0972219 -0.47906995 0
5.7834091 3.162936 0.93009186 0
5.6311522 3.3636396 1.1387179 0
5.9175868 3.0449681 0.18093455 0
3.7944617 5.2714739 1.4632506 0
4.0585966 5.0045795 1.6767583 0
4.9409637 4.0603571 1.8526714 0
5.8143425 3.141202 -0.8130796 0
5.9509358 2.9868488 0.01672399 0
5.0810375 -4.1881599 -0.98883438 0
6.4167371 -1.4798317 -0.98565924 0
3.4441533 5.6518259 -0.72863305 0
3.4983654 5.5928588 -0.90425599 0
5.7809191 3.1983242 0.83001173 0
5.0387535 3.9675391 1.7923429 0
-4.3331938 -4.7883377 1.6246922 0
3.5007339 5.5991259 0.86053288 0
3.3915734 5.7187591 -0.3734349 0
4.1988516 -5.0232558 1.2186725 0
-4.5424929 -4.2756357 2.3311963 0
5.8135386 3.1407692 0.83009672 0
5.6753473 3.2894194 1.1503503 0
5.3601933 3.6383386 1.5440857 0
5.2147827 3.7777407 1.6999824 0
-4.2528248 5.0621657 0.80674624 0
4.0107546 5.0484133 1.6721876 0
3.5748246 5.5281849 1.0146804 0
4.6816463 4.3711624 1.8290281 0
-4.2653437 4.9455247 1.3116999 0
5.584486 3.3868535 1.3099089 0
-4.3760858 -4.7711921 1.5683694 0
3.7650948 5.3240581 1.3623543 0
4.1615314 4.9192533 1.6922529 0
5.2778025 3.7245231 1.6296811 0
5.9163499 3.0443475 0.34420192 0
2.2148447 6.2061625 -0.98833621 0
5.5636234 3.4126794 1.3441517 0
3.3318119 5.7681203 -0.19720948 0
5.7909536 3.1706164 -0.90779257 0
3.3300524 5.7627835 0.33724523 0
3.8856418 5.1921692 1.5355864 0
5.9050303 3.050967 -0.48864347 0
4.4202752 4.6304502 1.8546038 0
5.391387 3.5957534 1.5586483 0
5.9549456 2.98879 0.18048024 0
5.9574461 2.986867 0.12347007 0
4.3140945 -5.0342741 -0.68845606 0
5.8493776 3.1121318 0.72839677 0
5.6359158 3.3412108 1.2274256 0
3.7090373 5.3677173 1.3655822 0
5.8336248 3.0965474 -0.90263271 0
-4.5344672 -4.6246376 1.5778248 0
5.9585848 2.9879305 -0.07897377 0
5.0984278 3.9048698 1.7881327 0
5.921546 3.0362642 0.41038859 0
4.2812681 4.7653189 1.8479116 0
4.32376 -5.0496302 0.51025379 0
5.913095 3.0427139 -0.48115748 0
5.3561716 3.6225295 1.629817 0
5.4934931 3.4825048 1.4704063 0
-4.263483 4.7023778 2.0445085 0
3.3916149 5.7188792 0.51377237 0
5.9535933 2.9881353 -0.31515425 0
5.9121399 3.0317822 0.57571185 0
4.0175848 5.0484624 1.6920881 0
4.353817 4.6977949 1.8621333 0
4.1568384 -5.0395708 1.3487344 0
2.2888799 6.1879034 -0.98538005 0
5.9541392 2.9883997 0.34404206 0
-4.2410879 5.0541167 -0.98483312 0
3.4763145 5.6216397 0.90400577 0
4.2842836 4.7605681 1.868701 0
5.9475946 2.9852316 -0.48223203 0
5.3225956 3.6778052 1.631516 0
3.8669405 5.2191377 1.5265055 0
3.339231 5.7712483 0.25938582 0
4.26015 -5.0244527 1.0643291 0
3.8108649 5.2600193 1.5293031 0
3.331809 5.7559509 0.54599142 0
3.6130416 5.4758029 1.2216358 0
3.3356981 5.7799091 -0.01923269 0
4.3188982 -5.0419064 0.67908931 0
4.0662508 -5.0179839 1.6808944 0
3.3922915 5.7208366 -0.55548078 0
5.910099 3.0558398 0.52658963 0
-4.266891 4.5844951 2.3077068 0
3.4973288 5.5901175 1.0347767 0
3.6512885 5.4474449 1.2453933 0
6.450408 1.4123838 -0.98547149 0
3.3363066 5.7749395 0.3050679 0
3.6085556 5.4872723 1.2026813 0
-0.70702982 6.565165 -0.98872471 0
3.4449153 5.6539326 0.86333621 0
5.2124496 3.7747743 1.778944 0
5.9895864 2.9310551 0.34391296 0
5.9008222 3.046921 -0.69531059 0
-4.2552752 4.8161707 1.8129168 0
3.54883 5.5271993 1.2050135 0
6.4521389 -1.4132526 -0.98599052 0
-4.2685866 4.7040663 2.0620465 0
5.9675031 2.9948692 -0.15053093 0
6.4346523 1.4891465 -0.99106979 0
4.0151777 5.064188 1.6849885 0
5.99264 2.9324796 -0.31695586 0
5.6330395 3.3402772 1.3131192 0
3.4944415 5.6005707 1.0189221 0
5.7248316 3.2423511 1.1533487 0
3.3899159 5.7139635 0.68985951 0
5.4855452 3.4838865 1.546617 0
3.3883307 5.7093763 -0.73686254 0
3.3387115 5.7704573 0.42121971 0
3.3344207 5.7760339 -0.37913424 0
5.9635391 2.992559 0.324893 0
5.9228883 3.0476289 0.50732565 0
4.2317638 -5.0319128 1.1828687 0
5.4500003 3.5357296 1.5567956 0
5.1519909 -4.1365199 -0.98790479 0
5.4018803 3.5761697 1.6323991 0
-4.2704339 4.5882397 2.3131528 0
5.7814608 3.198626 0.99320102 0
3.9414086 5.1265168 1.6817513 0
4.1461754 4.9028726 1.8486423 0
5.8660169 3.093493 -0.81934047 0
4.3957458 -5.0331802 -0.00028300285 0
4.2979517 -5.0198979 0.99380589 0
-4.3247347 -4.7779059 1.7686787 0
4.3138475 -5.0338812 0.8478744 0
5.5401831 3.4356637 1.4733944 0
5.622611 3.3541629 1.3434281 0
5.7376003 3.2344463 1.1359758 0
3.3327007 5.7708163 0.51430237 0
5.967752 2.9964945 -0.28411663 0
3.3342028 5.7635903 0.58282197 0
5.9133635 3.0428486 0.67021775 0
3.9634643 5.1101499 1.6892009 0
5.8663578 3.0936704 0.83225441 0
3.3849373 5.6995583 0.86535013 0
3.8745735 5.1789141 1.692754 0
5.9582167 2.9903736 0.50743687 0
3.9095664 5.1528859 1.6926339 0
6.0115829 2.9245398 0.12359583 0
5.9607358 2.9899402 -0.48839849 0
3.3323588 5.7697792 -0.56076783 0
5.1648312 3.852515 1.787044 0
-4.5416727 -4.7595577 1.196372 0
5.8468094 3.1095908 0.9307009 0
4.8025646 4.197588 2.0092664 0
5.9596157 2.9888935 0.5264132 0
3.6592546 5.4272847 1.3723242 0
5.6735449 3.288347 1.3146334 0
3.4181323 5.6948795 0.78483284 0
5.5029001 3.469384 1.5535192 0
5.9158392 3.0335445 0.73985517 0
5.6286354 3.3372142 1.3889923 0
5.0875206 3.926944 1.8582382 0
5.9077759 3.0536067 0.72844636 0
5.9040537 3.0381761 -0.82167339 0
5.8527141 3.0865765 0.99438417 0
5.7853017 3.1648629 1.1339121 0
4.2209086 4.8398514 1.8796253 0
5.9214654 3.0469146 -0.65354931 0
-4.5306158 -4.4800353 2.0455527 0
3.2766738 5.8349047 -0.02223134 0
-4.5241904 -4.1913552 2.5978413 0
4.5443649 4.483984 2.0073156 0
5.4466524 3.528806 1.6348681 0
-4.2825375 4.4420581 2.5923805 0
5.7685661 3.1914456 1.1554034 0
3.7623806 5.3181863 1.5366838 0
5.8234715 3.146116 0.99462914 0
5.6740427 3.287667 1.341152 0
4.3179092 -5.0403342 -0.8693254 0
-4.5300879 -4.348197 2.3214545 0
5.9546962 2.9886692 -0.65448487 0
4.6793537 4.3459992 2.0091293 0
-4.1789823 5.1373987 -0.98417735 0
3.4488435 5.6647925 -0.9177314 0
6.0190377 2.9313071 -0.079508424 0
-4.2647409 4.74405 2.0347152 0
4.4021959 -5.0431094 -0.17359275 0
4.15131 -5.0302038 1.5194898 0
5.9547424 2.9843407 -0.6945504 0
-4.2627282 4.9873548 1.3430467 0
-4.2078519 -4.7856064 2.0602911 0
3.7261205 5.3668103 1.4743094 0
5.8947735 3.0411057 0.92952168 0
5.7889767 3.195843 1.067193 0
3.868948 5.199976 1.6905174 0
5.9096713 3.0409954 0.83353233 0
4.4032488 -5.0447311 0.16980422 0
5.5865507 3.3881633 1.4764516 0
3.3324175 5.769958 0.69167602 0
3.4790821 5.6256027 1.0637434 0
3.278048 5.8392825 -0.2035054 0
6.0160174 2.9433863 0.1786108 0
5.9072666 3.0294597 0.90401101 0
4.4005976 -5.0406499 -0.34688574 0
3.2787223 5.8414302 0.15702009 0
5.7169342 3.2378042 1.3169494 0
4.669096 4.3484344 2.0474677 0
3.7513297 5.3352542 1.5380645 0
6.0194397 2.944983 0.012883186 0
4.4106369 -5.0445437 0.081845045 0
4.4014726 -5.0419965 0.34052765 0
4.6056633 4.4135585 2.0546942 0
3.6116312 5.4739017 1.380717 0
6.0183768 2.9444871 -0.15351713 0
3.9018888 -5.0172615 2.1260092 0
3.5750456 5.5289664 1.2523947 0
4.0109959 -5.0410166 1.850203 0
6.0205865 2.932713 -0.28358346 0
4.7328029 4.2853103 2.0410776 0
-4.5342751 -4.7509532 1.3421669 0
5.3637342 3.6405559 1.7059031 0
5.9618368 2.992126 0.67132092 0
6.0107112 2.9237485 0.526299 0
6.0207629 2.9328735 0.32486403 0
2.3656836 6.1955318 -0.98968959 0
4.795537 4.2218471 2.0348108 0
6.0532417 2.8861351 0.012337685 0
6.0536709 2.8732886 -0.26474464 0
3.4465566 5.6584706 1.0404861 0
6.0644941 2.8612013 0.12374282 0
3.4146276 5.6809735 1.0239758 0
3.2779436 5.8389506 -0.38588059 0
4.2289038 -5.0272212 1.3538816 0
-4.2318406 5.1747718 0.55343485 0
-0.62841368 6.6044264 -0.98991799 0
5.3346815 3.6586964 1.7745962 0
6.0079732 2.9396334 0.50784111 0
4.3990593 -5.0382814 0.510795 0
3.8637872 5.2127976 1.7014143 0
3.2755208 5.8312306 0.51500058 0
3.6075506 5.4848275 1.3787513 0
5.9608078 2.9900072 0.72817087 0
-4.2632732 5.0693312 1.0629206 0
5.3852515 3.5881078 1.7690554 0
5.2257471 -4.0891066 -0.98843551 0
2.5108318 6.1435652 -0.98102021 0
5.2842035 3.7305744 1.7806613 0
5.9056911 3.0516021 -0.90729916 0
3.2794838 5.8438568 0.33616841 0
4.4051151 -5.0321336 0.53998804 0
5.4952579 3.4836967 1.638773 0
4.1553183 4.9173551 1.8902683 0
5.2205439 3.7815831 1.8620663 0
4.0159111 5.0465713 1.8512459 0
6.497663 1.351517 -0.98961747 0
5.5301456 3.4290926 1.6384559 0
6.0617266 2.8768475 -0.096643209 0
3.3850036 5.6997495 1.0427446 0
4.9179621 4.093689 2.022563 0
6.0624008 2.8771453 0.071713686 0
5.7753525 3.188864 1.2298396 0
4.4119329 -5.0474567 0.3111192 0
6.0558105 2.8872893 0.17793858 0
3.2158365 5.8873067 -0.20690858 0
4.2679482 -5.0327716 1.2253571 0
3.3346219 5.7766442 -0.74761045 0
5.0333905 3.9595363 2.0092654 0
3.3913751 5.7181849 -0.92608535 0
4.0821667 4.9793353 1.897233 0
3.275569 5.8313847 -0.56878626 0
6.0521264 2.8856342 -0.32243371 0
5.842289 3.105119 1.1336546 0
6.0005231 2.9361575 -0.65883636 0
3.6481211 5.4368238 1.481298 0
4.4013462 -5.0418019 -0.5227375 0
3.7125859 5.3756933 1.5440266 0
4.4119339 4.613061 2.0789399 0
4.947773 4.0654864 2.0148146 0
4.1065035 -5.0410361 1.6775551 0
6.0014215 2.9365766 0.67194498 0
4.4238596 4.6350899 2.0096254 0
4.5468917 4.4894509 2.0653887 0
6.0717893 2.8676355 -0.07923317 0
3.2174039 5.8925624 0.15539801 0
5.8197975 3.1441383 1.1589222 0
4.3185754 -5.0413928 1.0192838 0
5.5683289 3.4180534 1.554276 0
5.7335749 3.2302287 1.3409882 0
5.956862 2.989718 -0.82862413 0
3.3433831 5.7775722 0.74311244 0
6.5194826 1.2782776 -0.98647368 0
-4.5517368 -4.7567449 1.3289795 0
2.4398348 6.1796379 -0.98794603 0
3.4936044 5.5974388 1.2578499 0
-4.2564697 5.1921859 -0.21717459 0
5.6359634 3.3420739 1.4804921 0
6.0576553 2.8750486 0.40644252 0
-4.2456489 5.184535 -0.47490478 0
-4.2544827 5.1907811 0.29748106 0
6.0655432 2.8785334 0.2389394 0
6.0186424 2.9446111 -0.49131584 0
6.0236192 2.9354663 -0.48988026 0
3.3370242 5.7779689 0.78805363 0
-4.2673364 4.9468498 1.5689635 0
-4.2573452 4.9803138 1.4893146 0
6.5059786 -1.3555427 -0.99209309 0
3.2166004 5.8898673 0.33572161 0
6.0638208 2.8908877 -0.15585077 0
5.9503703 2.9802566 0.92939019 0
3.3298435 5.7621493 -0.93197262 0
4.0094919 -5.0450735 1.9053464 0
3.5516987 5.5344725 1.383647 0
5.9595962 2.9910414 0.83551776 0
5.4864302 3.4844055 1.7087033 0
5.7656531 3.1898234 1.3205941 0
4.2047634 -5.0376377 1.4510479 0
3.5030804 5.6053333 1.2139475 0
3.4755576 5.6205564 1.2233672 0
3.2161081 5.888217 -0.39047611 0
-4.2624426 5.1964087 0.040219545 0
6.5237489 -1.2802682 -0.98773503 0
3.2564993 5.8719053 0.30372953 0
3.2138515 5.88065 0.51551044 0
6.01196 2.9248824 -0.69490242 0
4.3986082 -5.0375867 0.68114913 0
4.9827509 4.0368509 2.0190847 0
5.9124107 3.0423703 0.99844217 0
5.0772238 3.9196422 2.0178475 0
6.0618267 2.8899918 0.34306479 0
3.3371346 5.7680554 0.90400696 0
5.4448271 3.5294688 1.7672429 0
-4.5343819 -4.5049472 2.0912828 0
3.2207575 5.9038076 -0.026564121 0
6.0539408 2.8734078 0.572788 0
4.4851565 4.5619903 2.0752563 0
3.6590304 5.4267616 1.5498872 0
6.0668211 2.8632536 -0.48735267 0
5.2926641 -4.0319486 -0.98650718 0
-4.326746 -4.7803864 1.9157166 0
4.2906685 4.7747879 2.0100405 0
-4.5456896 -4.5174837 2.0455518 0
6.1001139 2.832726 -0.15704888 0
4.8679852 4.17557 2.0341628 0
5.5792985 3.3835626 1.6429172 0
5.7851458 3.1647041 1.3392143 0
6.0779815 2.8730967 -0.28395408 0
5.098803 3.9054124 2.0071373 0
6.0578313 2.8881969 -0.49367696 0
4.4017844 -5.0424762 -0.70095801 0
5.8638258 3.0923541 1.1612508 0
4.1474051 -5.0235868 1.6931105 0
3.8172932 5.2734203 1.7105417 0
-0.54633141 6.6355252 -0.98935354 0
3.3279715 5.7564716 1.0471034 0
5.8969378 3.0431869 1.1331491 0
3.9372153 5.1149244 1.9146833 0
6.1045704 2.8346519 0.17671251 0
4.3518925 4.6936307 2.0916176 0
4.3035479 -5.0329766 1.2247458 0
6.1009035 2.8330672 -0.32614601 0
-4.538137 -4.3892865 2.3446023 0
3.7484481 5.3315945 1.6973314 0
5.6270099 3.3590434 1.5532763 0
3.2789207 5.8420625 0.6944145 0
4.4065633 -5.0353889 0.76902962 0
3.1569097 5.9499202 -0.028880358 0
3.2166214 5.8899374 -0.5763166 0
5.769228 3.1857271 1.3927157 0
5.9180155 3.0345819 1.068224 0
-4.1354623 -4.7834525 2.3215382 0
4.2633085 -5.0278225 1.385994 0
6.5526714 1.2104969 -0.98699856 0
5.638854 3.3428245 1.5525637 0
6.5530391 -1.2106621 -0.98710644 0
6.1101589 2.8370669 0.0095119476 0
5.1582403 3.8432639 2.0026534 0
4.1526642 4.9097948 2.0102613 0
3.2732601 5.824029 0.87263393 0
-4.5386004 -4.6270571 1.8405979 0
-4.2354178 5.1773014 0.80944586 0
5.3565063 3.63603 1.8670123 0
6.0053625 2.9384153 0.83715773 0
6.0057201 2.9385822 -0.83456635 0
4.3965731 -5.0344543 0.85181582 0
3.721179 5.351068 1.7094188 0
6.0839038 2.8783205 0.32467759 0
3.3383954 5.7880898 0.87138617 0
4.3156271 -5.0367084 1.1905093 0
6.0228815 2.9347963 0.72860384 0
3.8819859 5.1877909 1.8540273 0
3.8027925 5.2967439 1.7042255 0
3.4475775 5.6612921 1.2192111 0
6.0665474 2.8921127 0.50842547 0
-4.2514672 5.0612345 1.3182392 0
4.0055027 -5.0348096 2.0091639 0
3.6139662 5.4770489 1.5407941 0
6.054719 2.8867989 -0.66546905 0
6.0533934 2.8731661 0.73850405 0
4.4815316 -5.0360165 -0.0046235323 0
3.2575517 5.8766489 0.54775524 0
-4.1341658 5.2331867 -0.98795831 0
3.3347692 5.7684488 1.0297511 0
4.0175381 5.0663595 1.9105997 0
3.3337917 5.7629638 1.0644951 0
5.9593406 2.9909177 1.0008173 0
6.0559173 2.8873372 0.67346752 0
6.0774384 2.872618 0.52657175 0
3.7649899 5.3238311 1.7167912 0
3.2032137 5.9280357 0.25385308 0
-4.5400362 -4.7576547 1.4897931 0
3.1585164 5.9556031 0.15308607 0
3.2155511 5.8863497 0.69566202 0
-4.3901243 -4.7799582 1.8312798 0
-4.2474418 5.1858029 -0.73637187 0
3.7074785 5.3642139 1.7202806 0
5.6916127 3.2990966 1.486352 0
4.8086739 4.2024698 2.172111 0
5.7252359 3.242584 1.4864607 0
5.2696681 3.7113602 1.9918337 0
5.5066981 3.4738486 1.7665801 0
5.6797285 3.2937973 1.5508313 0
6.1397023 2.7756155 0.34260893 0
5.9731698 3.0015564 -0.91065896 0
3.607583 5.4849067 1.557672 0
-4.2538757 4.9757757 1.6361747 0
-0.46142316 6.6591616 -0.9872371 0
3.2016075 5.9254293 0.41722357 0
5.9035273 3.0276775 1.2318666 0
3.1953423 5.9152627 0.58033442 0
6.0131273 2.9259419 -0.90561903 0
3.1595802 5.9593668 -0.2134788 0
3.1705058 5.9498959 0.30271292 0
6.01127 2.9242561 0.92999053 0
6.1138816 2.8386757 0.3425945 0
5.760777 3.187108 1.4872897 0
4.2885408 4.7701359 2.1032753 0
2.5889883 6.1560912 -0.98754644 0
3.2817228 5.8509903 -0.76020908 0
5.2205305 3.7857802 1.9999542 0
4.6852179 4.3509674 2.1719289 0
5.2174587 3.7795255 2.0237899 0
6.1318555 2.8103278 0.32482457 0
4.4028101 -5.0440559 -0.88242137 0
-4.3061147 -4.7832608 2.0457954 0
4.4871593 -5.0444145 0.16739619 0
4.4154301 4.6270738 2.1688576 0
-3.9818377 -4.7957835 2.5990994 0
3.1682663 5.9390683 0.54849398 0
6.5831575 -1.1414704 -0.98701537 0
5.5588093 3.407182 1.7627892 0
4.5531206 4.4918461 2.1706195 0
6.0718799 2.8677154 0.72817314 0
-4.3172121 -4.76863 2.06058 0
3.2550757 5.8654861 0.79156423 0
4.4877295 -5.0452657 -0.17959768 0
4.1971607 -5.0191441 1.680191 0
3.2168489 5.8907013 -0.76459301 0
5.8459148 3.1087058 1.3397253 0
5.7297382 3.2262099 1.5479248 0
3.5031734 5.6055789 1.3931427 0
4.4843245 -5.040184 -0.35412753 0
5.365901 -3.983772 -0.98740399 0
6.1262732 2.8055441 -0.48846215 0
5.9173861 3.0448675 1.1653836 0
5.6354799 3.3417771 1.6497564 0
3.4783559 5.6245627 1.3838234 0
3.1595836 5.9593782 -0.39880276 0
6.136519 2.8143239 -0.28464383 0
6.5863781 1.1428618 -0.98795533 0
5.8294396 3.1493282 1.3276896 0
6.0524621 2.8857849 0.83898747 0
3.1610343 5.96451 0.33474088 0
6.157166 2.7828674 -0.16111094 0
-4.2603273 4.819427 2.0747042 0
3.5772839 5.5368838 1.4933879 0
4.2785263 4.762558 2.168278 0
5.6711378 3.2869143 1.6503253 0
6.1595316 2.7838497 0.0073509216 0
6.1527395 2.7810292 -0.33049035 0
6.1148324 2.8390865 -0.49996674 0
4.4874201 -5.0448036 0.33966053 0
6.1435347 2.8203354 0.12202179 0
3.3917093 5.7191515 1.2249007 0
3.8687577 5.1994257 1.9278069 0
6.1289744 2.8078592 0.52650905 0
6.0805445 2.8753576 -0.69841814 0
5.8650355 3.0929828 1.3286836 0
6.1805663 2.7432585 -0.079379499 0
4.2380171 -5.04217 1.532156 0
6.1031923 2.8340564 0.67460871 0
2.6624513 6.1380367 -0.98607183 0
3.1948128 5.9144034 0.74228239 0
3.2151487 5.8849998 0.87624693 0
-4.2681198 4.7037745 2.3247213 0
3.553308 5.5385518 1.5644794 0
6.1175241 2.8402498 0.50887465 0
6.1463618 2.8227577 -0.081580997 0
4.0217314 5.0531483 2.01319 0
3.4189746 5.6982212 1.2675245 0
5.6294384 3.3376548 1.7147722 0
4.9491787 4.066545 2.1773274 0
6.0098696 2.9405181 1.0037644 0
3.4447961 5.6536031 1.3979621 0
6.1485591 2.7792933 0.50895834 0
3.1585288 5.9556475 -0.58543301 0
3.279176 5.8428764 -0.94840574 0
-4.5464983 -4.7535772 1.5899048 0
6.1646791 2.7859874 0.17480683 0
-4.070312 5.3154025 -0.9874841 0
3.213541 5.8796091 -0.95267093 0
4.3998528 -5.0395031 1.0244646 0
3.3329265 5.7616463 1.2250843 0
-4.2535677 4.9376945 1.825578 0
4.1513309 4.9076548 2.1226907 0
5.3857474 3.5887258 1.9850311 0
4.1035447 -5.0335345 1.9106839 0
4.314621 -5.03511 1.3639596 0
6.6111875 1.0714049 -0.98660707 0
-4.1972222 -4.7787552 2.3194432 0
4.4868145 -5.0439 0.51172042 0
5.9606338 2.9915438 1.167793 0
6.0624037 2.8771465 0.90401328 0
4.1416731 4.8980703 2.1687498 0
4.2251897 4.8498559 2.1160641 0
6.0646725 2.8912704 -0.84365129 0
-0.37885189 6.6884131 -0.9868139 0
3.7450354 5.3272605 1.8571296 0
5.4935226 3.488569 1.8727345 0
5.9664097 2.9952407 1.1352911 0
5.6172533 3.3482182 1.7615736 0
6.2041063 2.7143745 -0.1061343 0
4.5154209 -5.0474343 0.079438806 0
6.1127257 2.838176 -0.67319739 0
6.155479 2.7821667 -0.50292557 0
3.6109083 5.4729276 1.7006934 0
4.4102869 -5.0437579 0.99965024 0
4.0035191 -5.0292716 2.1384737 0
6.1862173 2.747962 -0.28404844 0
3.4959273 5.6061292 1.5005465 0
6.200078 2.7263381 0.17426658 0
3.9961326 -5.0242214 2.1678565 0
4.3019438 -5.0292273 1.4557734 0
5.0789385 3.9208579 2.1808677 0
3.2775817 5.8377972 1.0547142 0
3.6504061 5.4444857 1.7227569 0
-4.5408659 -4.7586193 1.6375906 0
4.2682123 -5.0330529 1.5481417 0
-4.2424817 5.267446 0.45005035 0
2.7363381 6.1229453 -0.98568797 0
-0.29035497 6.7008047 -0.98255444 0
6.0103679 2.9234371 1.1332889 0
5.9104218 3.0413723 1.3319759 0
6.2073584 2.7157011 0.23269713 0
6.1936016 2.754108 0.12225664 0
5.7770224 3.1897194 1.5572627 0
6.0753107 2.8707416 -0.90781951 0
3.1642876 5.976017 0.51686764 0
4.0816913 4.9781308 2.1332369 0
6.2130232 2.7180121 0.062781096 0
6.1328678 2.8111951 -0.69791102 0
5.9066067 3.0524824 1.3403897 0
3.4987679 5.5939245 1.5718689 0
6.1829472 2.74524 -0.48915738 0
3.6639862 5.4383426 1.7338245 0
4.4930849 -5.053257 -0.53441697 0
3.2540264 5.860755 1.0360436 0
3.1601801 5.9614878 0.69863427 0
5.8214316 3.1450179 1.4949059 0
3.1578898 5.9533873 -0.77469444 0
3.3348932 5.7774673 1.2307732 0
4.5172672 -5.0514288 0.31029654 0
4.484427 -5.0403371 -0.71105373 0
6.1314964 2.8100202 0.72854733 0
3.4749911 5.6197448 1.5440261 0
6.1523814 2.7808807 0.67589521 0
5.7942352 3.1739576 1.5493491 0
6.2044621 2.7280858 -0.33491808 0
5.4393306 -3.9356363 -0.9886241 0
-4.0002871 5.3927841 -0.98577571 0
3.1700993 5.9479299 0.79485595 0
6.6268806 -1.0779216 -0.99116004 0
3.7972279 5.2798648 1.9401195 0
6.0780001 2.8731132 0.93135762 0
6.6402969 1.0018003 -0.98680246 0
5.7272859 3.2437642 1.6574688 0
-4.2450333 5.0568223 1.5757842 0
-4.2413325 5.2658496 0.60173035 0
-4.2677112 4.585732 2.615315 0
6.1550622 2.7819939 -0.67713726 0
-4.2610273 4.740531 2.3355684 0
5.8570929 3.0888531 1.4961195 0
-4.2331595 5.2544985 0.75326979 0
6.1861558 2.7479107 0.52659643 0
-4.242559 4.8878999 2.0509863 0
5.360568 3.6385734 2.0309711 0
6.2160211 2.732693 0.0044598579 0
6.1113758 2.8375928 0.84200394 0
6.1109033 2.8373885 -0.84916532 0
6.0086017 2.9399266 1.1711454 0
3.3365607 5.7760129 1.2744002 0
3.3900466 5.7143407 1.4055448 0
5.349062 3.6771519 1.997519 0
3.1995208 5.9220433 0.90400863 0
6.0632854 2.8906472 1.0071785 0
5.915678 3.033468 1.3971815 0
6.1415548 2.7763846 -0.85035098 0
-4.2522664 5.1892138 1.0681241 0
3.887284 5.1941361 2.0163579 0
-4.2388482 5.3094721 0.037768602 0
4.2326317 -5.0333362 1.707098 0
3.413794 5.6776662 1.5082438 0
5.2101088 3.7746236 2.1856167 0
6.202857 2.7274458 0.50949514 0
6.2188535 2.7338219 -0.16585708 0
3.5713048 5.5157342 1.7317681 0
3.2170596 5.891407 1.0588338 0
4.5560179 -5.042047 0.073413372 0
4.5164709 -5.0497055 0.54107022 0
6.0636225 2.8776853 1.0697827 0
4.4931421 -5.0533428 0.68456697 0
5.452424 3.5386627 1.9859109 0
3.274323 5.8274155 1.2353656 0
6.6501398 -1.0057235 -0.98964167 0
4.3100166 -5.0277948 1.5380883 0
5.9582829 2.9876485 1.3392668 0
6.2436452 2.6880054 0.12242603 0
4.4012332 -5.0416279 1.1984704 0
6.2385421 2.6838799 0.32480526 0
4.0123525 5.0526414 2.1451681 0
4.4837561 -5.0393367 0.85637307 0
6.1481667 2.7791302 0.8429724 0
6.6633368 0.92983776 -0.98554242 0
6.2047405 2.7633798 0.32438135 0
6.125351 2.804754 0.93056011 0
6.2202339 2.7209532 0.40019226 0
6.6649976 -0.9304722 -0.98601878 0
4.4059048 -5.0339084 1.2298775 0
-4.240375 5.310585 0.29646158 0
5.9611888 2.9918125 1.3365676 0
6.2194662 2.734066 0.34159267 0
6.2337284 2.6799889 -0.48882133 0
3.1050482 6.0438662 0.33366442 0
3.5514178 5.5337601 1.7460048 0
6.2479095 2.6914527 -0.081060231 0
6.2280149 2.7241275 -0.28153539 0
5.6836061 3.2979777 1.7633502 0
3.330075 5.7628522 1.4107499 0
6.2121744 2.7176657 0.56884193 0
6.1862202 2.7479644 -0.69790387 0
3.6126707 5.497283 1.7430696 0
2.8123045 6.1180329 -0.98837733 0
3.6048205 5.4647231 1.8605111 0
6.2561436 2.6742549 0.17252183 0
6.1047659 2.8347363 1.0090711 0
5.8070889 3.1372976 1.6622722 0
6.0520849 2.8856156 1.1738265 0
5.6277943 3.3367522 1.8786116 0
4.485301 -5.0416417 -0.89405465 0
6.0696578 2.8657553 1.1339912 0
-4.2674174 4.9934888 1.7875078 0
3.1080279 6.0550146 0.14876413 0
3.1611347 5.9648657 0.881639 0
6.2476535 2.691246 -0.28546405 0
5.5085764 3.4760563 1.9827228 0
5.7311635 3.2277029 1.7590585 0
6.1341157 2.8122642 -0.9092077 0
6.2435107 2.6694281 0.50978804 0
3.1091774 6.0593138 -0.037001371 0
6.2037625 2.727807 -0.68283677 0
5.7759948 3.1553881 1.7542644 0
5.4872265 3.4848733 2.0356746 0
4.2643986 -5.028985 1.7098403 0
6.2639585 2.6772408 0.0023168325 0
4.5136614 -5.0436277 0.77174127 0
4.5738726 -5.045815 0.16477871 0
4.5738144 -5.0457306 -0.18559188 0
-4.2518206 5.3189259 -0.22331041 0
-4.5364623 -4.5094624 2.3467977 0
3.1066937 6.0500231 -0.41042471 0
3.3409219 5.7738237 1.3870783 0
6.2635245 2.6770751 -0.16843325 0
-4.5349813 -4.5052867 2.3589859 0
4.5605345 -5.0465956 0.4066484 0
5.8567028 3.1193788 1.5504045 0
6.2208962 2.7346361 -0.51122177 0
5.7723122 3.1873066 1.7212927 0
4.5666866 -5.0527925 0.23920417 0
4.0219107 5.0533509 2.1751852 0
6.2078462 2.7294345 0.67757154 0
4.5718751 -5.0429249 0.33885813 0
5.7828412 3.1993947 1.6645641 0
4.5529242 -5.0389309 0.57323897 0
3.1599476 5.9606662 -0.96952307 0
4.577003 -5.0503454 -0.010359406 0
2.8848906 6.0964823 -0.98680651 0
6.2950759 2.6148751 0.0016777515 0
3.4482975 5.6632833 1.5828457 0
3.2005398 5.9236965 1.065989 0
6.1932306 2.7537994 0.72911799 0
-4.5417519 -4.7596502 1.7862663 0
-4.3877215 -4.7784576 2.0944726 0
-4.5316148 -4.7445765 1.8511114 0
6.004303 2.9379208 1.3396401 0
5.5130339 -3.8875763 -0.9901861 0
3.7258635 5.3659916 1.9540017 0
5.9011016 3.0471897 1.5467858 0
6.0605421 2.8763242 1.2355752 0
6.2465053 2.6903176 0.52677333 0
3.1069436 6.0509572 0.51786351 0
-4.247725 5.3159413 -0.48452097 0
5.9092073 3.0303845 1.5617371 0
3.2159576 5.8877125 1.2417927 0
-4.5429697 -4.359076 2.6304598 0
6.1813564 2.7439158 -0.90735877 0
6.1791983 2.7421198 0.93062365 0
6.2671661 2.6784666 0.34116983 0
6.0162587 2.9287844 1.3397057 0
-4.5466428 -4.6317644 2.1083455 0
-0.21455836 6.749218 -0.98740232 0
-3.944262 5.4810238 -0.98780072 0
3.1060581 6.0476451 -0.59997141 0
3.9444385 5.1348925 2.1595268 0
4.5704165 -5.0408139 -0.54087472 0
5.567255 3.4168265 1.9809813 0
3.2543569 5.8622456 1.2824645 0
5.6139069 3.3445051 1.9747961 0
6.2178898 2.7199972 0.73637593 0
4.5777898 -5.0514841 -0.36393607 0
3.0926256 6.0791092 0.30076671 0
6.7002168 -0.86306423 -0.98853242 0
3.1593425 5.9585257 1.0647714 0
5.9219122 3.0471389 1.5050645 0
4.4862361 -5.0430369 1.0306683 0
3.1718121 5.9562116 1.0427027 0
3.4774995 5.6233363 1.705852 0
6.3017397 2.6283188 0.12199366 0
4.5080986 -5.0315914 1.0022154 0
4.5739326 -5.0459023 0.51260483 0
