# .PCD v0.7 - Point Cloud Data file format
VERSION 0.7
FIELDS x y z intensity
SIZE 4 4 4 4
TYPE F F F F
COUNT 1 1 1 1
WIDTH 1443
HEIGHT 1
VIEWPOINT 0 0 0 1 0 0 0
POINTS 1443
DATA ascii
2.8929267 5.250329 -0.12085247 0
3.423255 4.7254295 1.3797116 0
3.9397068 4.182693 1.7146022 0
3.0022039 5.1361752 0.75141335 0
3.332942 4.8039446 1.3316302 0
4.6382618 3.7987311 0.13423276 0
4.6070633 3.7830837 -0.65366912 0
3.7042654 4.4314747 1.6140733 0
2.9991412 5.1606932 -0.58872259 0
3.8770289 4.2403746 1.7212853 0
2.8930888 5.2509351 0.19238365 0
4.6349888 3.7933624 0.32873285 0
4.6277103 3.7814233 0.52242291 0
2.9412994 5.1872549 0.65646827 0
3.140208 4.991468 1.1029575 0
3.2868557 4.8630314 1.2433462 0
-5.3645821 2.499898 -0.98841429 0
3.4568691 4.6786904 1.4731069 0
4.5485382 3.8057742 0.91720939 0
4.3596163 3.8528121 1.4727902 0
3.507606 4.6278191 1.5186806 0
2.8922782 5.2479033 0.34804583 0
-0.014421225 5.9205527 -0.98698568 0
4.6706581 3.7642484 -0.21744198 0
2.9953213 5.1478848 -0.74807298 0
3.3634152 4.7803798 1.3688736 0
3.376678 4.7669134 1.3841887 0
4.6664076 3.7601621 -0.36246204 0
4.6193566 3.7677195 0.71526384 0
2.8911724 5.2437663 -0.43822706 0
4.6745081 3.7679498 0.069972873 0
3.0765409 5.0492496 1.0473578 0
4.6747599 3.7681921 -0.073582411 0
3.460712 4.6655083 1.5224638 0
2.9938583 5.1429787 0.80850315 0
4.1877441 3.9294679 1.7584181 0
2.8380351 5.2932129 0.033836007 0
3.327883 4.8044944 1.3878322 0
3.4946423 4.6293378 1.5623803 0
2.8375728 5.291378 0.1910634 0
4.3679771 3.850287 1.4798384 0
4.9831767 3.2076099 -0.98661828 0
4.5536871 3.8120325 0.90946221 0
2.8947644 5.2572045 -0.28044593 0
3.2381895 4.9045496 1.2474668 0
2.998055 5.116116 0.96764827 0
3.0432892 5.0913577 0.95865428 0
3.2129936 4.9366541 1.1903427 0
-5.3280902 -2.5983028 -0.98570347 0
3.5778544 4.5515585 1.6145005 0
4.985589 -3.210706 -0.98766983 0
2.891943 5.2466488 0.50333142 0
4.0713882 4.0593419 1.7580922 0
4.6192036 3.7950947 0.63770711 0
4.6977386 3.7438009 -0.25528181 0
4.673172 3.7666657 0.35476041 0
3.9475639 4.182128 1.7570219 0
4.5809879 3.7892313 0.90398979 0
3.0995569 5.0636225 0.95752859 0
4.6663365 3.7600939 -0.51038831 0
4.4859304 3.8231587 1.1977706 0
4.4285035 3.8448384 1.3372588 0
4.3869038 3.837383 1.4887142 0
2.9290617 5.2269831 0.53548777 0
0.060403228 5.9348173 -0.98404896 0
-2.4494076 -5.4059491 -0.98684752 0
2.8404539 5.3028088 -0.12547028 0
-5.3376532 2.6005318 -0.98761213 0
3.7549725 4.3717275 1.7391577 0
3.4265127 4.6937366 1.5704751 0
4.6322832 3.788924 -0.65311873 0
4.6131911 3.7891459 0.77888119 0
2.8216612 5.3088942 0.32173645 0
3.8215814 4.3186898 1.7332749 0
2.9577241 5.1901879 0.75944996 0
2.84991 5.2962403 0.31497407 0
3.8259227 4.3066974 1.7570496 0
3.0941181 5.0471249 1.1089745 0
-2.4541187 5.4109564 -0.98843479 0
4.5478511 3.8050749 1.0595613 0
3.329006 4.7989464 1.4743085 0
4.707037 3.7585738 -0.061052561 0
3.1913831 4.9530292 1.2531495 0
3.1520419 4.9970098 1.1761043 0
2.9450216 5.2004218 -0.75783265 0
3.0820165 5.0852385 0.96654606 0
0.057682276 -5.9428763 -0.98632812 0
2.9481368 5.1755862 0.90398681 0
2.8403628 5.3024478 0.34735203 0
2.9263339 5.2127724 0.75457275 0
4.5460634 3.799113 1.1027865 0
4.7035904 3.7530982 0.32869983 0
2.8933792 5.2520223 -0.60237122 0
3.294981 4.8543978 1.3773036 0
2.819804 5.3058801 0.46809995 0
2.8416901 5.3077145 -0.28607655 0
3.4212856 4.7210031 1.5316424 0
3.2064843 4.9278812 1.3331456 0
4.4729595 3.8302495 1.2975512 0
-5.3019395 -2.6988854 -0.98533571 0
4.5758266 3.7853444 1.0504584 0
5.0414343 -3.1596773 -0.9862268 0
4.3127279 3.8646305 1.6856148 0
2.8394203 5.298708 0.50398052 0
3.3737156 4.7599907 1.5361192 0
2.8936055 5.2528687 0.65912116 0
3.141511 4.9952378 1.2576523 0
4.6725216 3.7660403 0.63864446 0
4.6095715 3.7855654 0.92074132 0
3.2875466 4.8647833 1.3972645 0
4.3604593 3.8442795 1.6238537 0
2.9462354 5.2047153 0.81252801 0
5.0453472 3.1645534 -0.98790205 0
4.7352891 3.7450972 0.067488432 0
4.7145081 3.7704442 0.13338864 0
3.4573243 4.679235 1.6166341 0
2.842072 5.3092294 -0.44814503 0
2.7869558 5.3556871 -0.13021761 0
2.8901196 5.2398281 0.81418836 0
-5.3106751 2.7010539 -0.98708534 0
2.9970784 5.1537771 0.96432257 0
2.7834454 5.3408675 -0.45141309 0
3.0767477 5.0614829 1.1817541 0
3.0448723 5.0964007 1.1140151 0
4.4828238 3.8199041 1.3416605 0
3.2379243 4.9038482 1.4015508 0
4.6753111 3.7687218 -0.66407418 0
3.1860151 4.9381886 1.4048297 0
4.6874743 3.780416 0.49698579 0
3.6277316 4.5020494 1.7574601 0
3.6963747 4.4491067 1.7512202 0
4.631351 3.7873948 -0.85521448 0
3.7085822 4.4360795 1.7586865 0
2.7880931 5.3604894 0.18816066 0
4.627955 3.7818244 0.9105382 0
2.9426625 5.1920767 0.96697497 0
3.2239397 4.924376 1.3852036 0
-2.3867855 -5.4672294 -0.98738837 0
2.7892079 5.3651953 0.028732657 0
2.8939142 5.2540245 -0.76805055 0
4.7107763 3.7645152 -0.45660061 0
3.0922894 5.0415783 1.2631264 0
3.0860302 5.0628366 1.191658 0
2.8408432 5.3043532 -0.61101687 0
4.7406316 3.7500885 -0.22394353 0
4.7084641 3.7608416 0.52285981 0
4.4280567 3.8443565 1.4834931 0
2.8518758 5.3073378 0.53662252 0
4.1193452 4.0031047 1.8976722 0
5.0963578 -3.1077511 -0.98473084 0
2.8477125 5.2838349 0.75748754 0
4.7422643 3.7516139 0.21062255 0
4.7301474 3.7402935 0.49704468 0
2.9926715 5.1389995 1.1180472 0
5.0974193 3.1090357 -0.9851774 0
3.5785024 4.5522904 1.7584503 0
2.7701268 5.3713193 0.31391513 0
0.12814951 5.9701066 -0.98734581 0
4.7384176 3.7480199 -0.37099832 0
3.3310838 4.8122807 1.544621 0
-5.2759957 -2.7994885 -0.9852972 0
2.7858315 5.3509407 0.50464416 0
4.2381277 3.8903739 1.8848007 0
2.8274307 5.3182559 0.61298168 0
4.6063671 3.7823954 1.0635586 0
4.7477908 3.7567768 -0.079126954 0
4.1809635 3.9504454 1.8922412 0
3.281179 4.84864 1.5486631 0
3.5624492 4.5677118 1.7670021 0
2.9527767 5.182653 1.0483146 0
2.7898369 5.3678508 -0.29337895 0
2.7844934 5.3452926 -0.61710918 0
4.5533485 3.8106713 1.2051432 0
-2.3953066 5.4765491 -0.99030387 0
2.7897394 5.3674393 0.34645987 0
4.3826065 3.829602 1.6862047 0
4.19559 3.9361155 1.9048834 0
4.0639558 4.0706625 1.9077263 0
4.7446833 3.7538738 0.35400796 0
4.6790648 3.772331 0.78198004 0
-2.313283 -5.5163898 -0.98445833 0
3.9512556 4.1856389 1.9023976 0
4.5445223 3.7965024 1.2986193 0
2.7326324 5.4100165 -0.13522887 0
3.2904518 4.8374538 1.5901642 0
3.2072921 4.9289703 1.4770522 0
3.0014539 5.1325488 1.188349 0
2.9276624 5.2196927 0.97533119 0
2.7332411 5.4127607 0.025770903 0
2.8434677 5.3147674 0.66160071 0
3.8782539 4.2433553 1.9302397 0
2.8244472 5.3134146 0.75869596 0
3.1406174 4.9926529 1.4131899 0
4.0783281 4.0655732 1.904345 0
3.4489927 4.6692581 1.7590508 0
4.710804 3.7645586 -0.65713012 0
2.8911119 5.2435408 0.97138965 0
3.3664365 4.7910662 1.5853863 0
2.7332621 5.4128566 0.1861279 0
3.0436983 5.0926609 1.2696857 0
3.1513209 4.9939661 1.3931794 0
4.7837324 3.7304699 0.13319921 0
4.4691467 3.8235719 1.4942012 0
2.7327235 5.4104276 -0.29793 0
4.7947922 3.7199705 0.065148115 0
0.12294507 -5.9862819 -0.99189878 0
4.7097263 3.7628472 0.71754086 0
2.8417959 5.3081346 -0.77857435 0
4.0072308 4.1378999 1.917856 0
0.2016207 -5.987946 -0.98601091 0
3.0828028 5.0582156 1.3354902 0
4.6726823 3.7661948 0.9246285 0
2.7329793 5.411581 0.34593034 0
2.7710338 5.3769026 0.53758347 0
3.8307507 4.3115597 1.902719 0
3.9456053 4.1964769 1.9256372 0
3.3370268 4.8091321 1.6195714 0
-5.296114 2.8047893 -0.98934114 0
4.589632 3.795742 1.197892 0
4.7887182 3.7381461 -0.063396752 0
3.7005517 4.4275131 1.9015763 0
4.5444212 3.8015826 1.3485143 0
5.1559563 3.0615432 -0.98550308 0
4.4848018 3.8219762 1.4895453 0
3.0908918 5.0373392 1.4192924 0
4.7405748 3.7500353 0.64065623 0
-5.2501569 -2.9001372 -0.9855696 0
2.6880364 5.4427915 0.31290185 0
4.703783 3.7534049 -0.85734975 0
4.7875953 3.7364171 -0.26046187 0
4.8026047 3.7248952 0.15122676 0
4.8045626 3.7262833 -0.0014733672 0
4.7504597 3.7592704 -0.5243544 0
5.1589727 -3.065089 -0.98675048 0
-2.3266239 5.5314069 -0.98909581 0
4.6067209 3.7827451 1.2086208 0
2.6760163 5.459095 0.18438697 0
2.9455428 5.2022653 1.1255879 0
2.7329423 5.4114141 0.50546658 0
4.6310811 3.7869527 1.1068759 0
3.2394776 4.9079571 1.5594645 0
-2.2436099 -5.5694585 -0.98307908 0
3.5004759 4.647923 1.7802482 0
3.0763521 5.0596991 1.4006734 0
2.7851453 5.3480434 0.82112503 0
2.7898622 5.3679571 0.66364145 0
2.7343097 5.4175787 -0.46381247 0
2.924314 5.2022505 1.1948903 0
3.9346321 4.1698298 2.0438466 0
2.8486791 5.2892914 0.98006535 0
4.8059497 3.730099 0.20893121 0
4.3110614 3.8615077 1.8870282 0
0.19655538 6.0044975 -0.99064898 0
4.745718 3.7548401 -0.67520893 0
3.7568364 4.3766599 1.9515319 0
4.0610847 4.0500917 2.0460343 0
3.8232703 4.3229718 1.944525 0
4.8064785 3.7276421 0.30231953 0
2.8452735 5.3219323 0.82015514 0
5.2069416 -3.0053506 -0.98303092 0
4.8117204 3.7353375 -0.083117902 0
3.6905758 4.4330754 1.9595513 0
2.7322941 5.4084907 -0.62863719 0
4.8037491 3.7281017 -0.37771726 0
2.7879019 5.3596816 -0.78856266 0
3.576865 4.5504403 1.9028244 0
2.9583898 5.1912022 1.1932757 0
4.7978601 3.7227554 0.49770677 0
-5.264801 2.9042206 -0.98852468 0
4.7946396 3.7472618 0.32792938 0
4.7969112 3.721894 -0.52639759 0
2.6770709 5.4641933 0.34523678 0
4.8025694 3.7248702 0.45364463 0
4.7402792 3.749759 0.78450894 0
3.1907101 4.9511685 1.5657916 0
2.6791766 5.4743743 0.02149117 0
-2.2508593 5.577858 -0.98564065 0
0.27406454 -6.0088663 -0.98583519 0
2.8916345 5.2454958 1.1299262 0
2.8301709 5.3227024 0.90398848 0
3.2232122 4.9214897 1.6026902 0
2.841373 5.3064551 0.97733188 0
4.7922058 3.7435148 -0.46074659 0
4.1887627 3.9303308 2.0493314 0
4.3779697 3.8582726 1.7727101 0
-5.2185588 -2.9991546 -0.98496747 0
2.6757245 5.4576831 0.50604701 0
3.4324675 4.7137036 1.7901754 0
2.7715998 5.3803883 0.76180863 0
2.6799502 5.4781151 -0.14204937 0
2.9978905 5.1564994 1.2789459 0
2.7831383 5.3395705 0.97958386 0
5.212966 3.0122304 -0.98548114 0
3.0434587 5.091897 1.4279289 0
3.2082188 4.9302192 1.6216726 0
0.27224731 6.0151229 -0.9875809 0
2.6920667 5.4422083 0.61125481 0
4.6774325 3.7707615 1.0703301 0
4.7134056 3.7686923 0.9134984 0
4.7922516 3.7435853 0.52339399 0
2.6772776 5.4651928 -0.47053939 0
4.5880203 3.7945285 1.3451009 0
2.6895337 5.4529228 0.53867674 0
2.7668455 5.3511171 0.98419976 0
3.0822351 5.0574026 1.4799626 0
2.6999335 5.4558339 0.46339059 0
2.7344127 5.4180427 0.66555047 0
4.8188715 3.7418292 -0.23217309 0
4.786128 3.7341583 -0.66003954 0
4.6222687 3.7724965 1.301693 0
3.3327515 4.8037028 1.7634382 0
3.3609407 4.7716269 1.7984116 0
2.731427 5.404582 -0.79690719 0
2.6197925 5.5157714 -0.14513958 0
2.6803298 5.47995 -0.30695814 0
3.1422338 4.9973297 1.573122 0
3.627964 4.5027218 1.9715519 0
2.6753392 5.4558215 -0.63656664 0
4.8179998 3.7410376 0.35321832 0
2.8263638 5.316525 1.0493658 0
2.7315702 5.4052281 0.82495391 0
2.9526742 5.1824965 1.3375843 0
2.6211486 5.5228367 0.018325686 0
4.5475388 3.8016136 1.4981604 0
2.8386135 5.295507 1.1354825 0
4.8628263 3.7050097 0.13203001 0
4.6667376 3.7604795 1.2139511 0
-5.2342749 3.0037804 -0.98815191 0
2.945847 5.203341 1.2848682 0
3.5603292 4.5612812 1.9806213 0
4.8101025 3.7302125 0.60360229 0
5.2643967 2.9567072 -0.98351133 0
3.0030036 5.1400409 1.4106817 0
2.6215305 5.524827 0.18156695 0
4.7423763 3.751718 0.92961693 0
4.7895632 3.7394464 0.71876168 0
3.1507459 4.9915385 1.6125727 0
2.688169 5.4436879 0.76441681 0
2.6204777 5.5193415 0.34448588 0
3.4560809 4.6777463 1.9057508 0
0.34634006 -6.0303864 -0.98611557 0
4.550766 3.808042 1.4991586 0
4.6122928 3.7882574 1.3573954 0
5.2668715 -2.9594536 -0.98450196 0
3.8317802 4.3125968 2.0488124 0
2.9939446 5.1432686 1.4359245 0
-2.1840034 5.6342959 -0.98556423 0
2.847878 5.2847691 1.2031512 0
4.8099365 3.7337182 0.64275098 0
4.8714705 3.7089558 -0.086425185 0
2.621731 5.5258718 -0.31227642 0
0.34520495 6.034514 -0.98726273 0
4.8080177 3.7319763 -0.6833384 0
3.7018754 4.428925 2.0475922 0
2.8911746 5.2437749 1.2896287 0
2.6194105 5.5137835 0.5068152 0
-2.1859946 -5.6366711 -0.98627961 0
4.8702645 3.716109 -0.065716624 0
4.8710318 3.7085683 -0.23481685 0
4.472105 3.8287523 1.6961508 0
2.6784034 5.4706368 0.66763055 0
4.8063841 3.7275753 0.75398552 0
4.3670502 3.8495462 1.9176078 0
2.6206703 5.5203466 -0.47890198 0
4.8621268 3.7039654 -0.46161711 0
0.42277253 -6.036077 -0.9822998 0
4.7103052 3.7637665 1.1095784 0
-5.1967592 -3.1011384 -0.98664451 0
4.8694563 3.7071791 -0.38452351 0
4.878418 3.7150834 0.059980869 0
4.8688469 3.7139938 0.32770073 0
4.8771572 3.7139709 0.20671368 0
2.6999207 5.4558115 0.75733614 0
3.5736554 4.546813 2.0477452 0
-5.2007833 3.1023858 -0.98746347 0
2.5627365 5.5751486 0.014752269 0
3.0966854 5.0549121 1.5838366 0
2.6084456 5.5457625 0.31131518 0
2.9417906 5.1889925 1.4427035 0
2.7319295 5.406848 0.98623025 0
4.8750696 3.7121298 0.35281241 0
2.6194124 5.5137916 -0.64716733 0
2.6765933 5.4618845 0.82879281 0
3.4964323 4.6350403 1.9941914 0
2.5628898 5.5760131 0.17948651 0
4.7914581 3.7423632 -0.86610675 0
3.2954659 4.8562112 1.8132329 0
2.8285046 5.3199987 1.1950912 0
4.7882576 3.737437 0.91472268 0
4.3946037 3.8513286 1.8953114 0
4.8123856 3.7359416 0.78833055 0
2.9261723 5.2119312 1.4194689 0
2.6072354 5.5366759 0.53992474 0
2.6946476 5.4466782 0.90398955 0
-5.1536608 -3.1964672 -0.98427296 0
4.8775616 3.7269981 -0.26558024 0
3.0773702 5.0642886 1.6231682 0
3.0838866 5.0597672 1.6254716 0
3.3292804 4.7992949 1.9081411 0
2.6202137 5.5179672 0.66946697 0
4.5938807 3.7989421 1.4935696 0
2.6785231 5.4712143 -0.81139469 0
4.8739243 3.7111197 0.49856079 0
2.5631719 5.5776043 -0.31865102 0
5.324728 -2.911067 -0.98539448 0
2.9537308 5.1841059 1.4830303 0
2.5646415 5.5859017 -0.15237886 0
-2.1153574 -5.688549 -0.98512459 0
2.7679048 5.3576379 1.2103286 0
4.875701 3.7126868 -0.53853601 0
4.6107445 3.7867253 1.5064564 0
2.5642066 5.583447 0.34356368 0
4.8657198 3.7093275 -0.66453135 0
3.047893 5.1060252 1.5928698 0
2.6889036 5.4486599 0.99158788 0
0.41589403 6.0625682 -0.98963344 0
4.8753595 3.7237127 0.52390337 0
2.8412337 5.3059039 1.2988782 0
2.5215492 5.6094007 0.31040251 0
2.7901371 5.3691182 1.1449852 0
3.2229941 4.9206243 1.8234217 0
4.7543049 3.7628622 1.0783072 0
4.7042761 3.7541878 1.3060679 0
4.8653593 3.7087891 0.71960831 0
2.5629923 5.5826049 0.46031964 0
2.5633273 5.5784826 0.50774813 0
4.8155937 3.7341061 0.90399432 0
4.5446405 3.7967021 1.6981595 0
5.3345037 2.9216065 -0.98924625 0
2.993988 5.1434135 1.5982227 0
0.49354005 -6.0632925 -0.98473704 0
-5.1722755 3.2025304 -0.98807847 0
4.7814789 3.727001 1.1104832 0
3.0723712 5.0432796 1.7686765 0
4.5793743 3.7880163 1.6400464 0
2.677109 5.4643774 0.99172688 0
3.2225845 4.9495797 1.7703257 0
2.6204011 5.5189438 0.83272743 0
2.892385 5.2483029 1.4528823 0
2.7321143 5.4076815 1.1488843 0
3.4557924 4.6774011 2.0519264 0
4.6816015 3.7747693 1.3666768 0
-2.1275001 5.7034602 -0.98956418 0
2.6953125 5.4478297 1.0504291 0
2.8262496 5.3163395 1.3407373 0
2.5046918 5.6370969 0.010258913 0
4.6312237 3.7871864 1.5041232 0
4.8166161 3.7397816 0.93532968 0
4.9440193 3.6814339 -0.26554602 0
4.9472446 3.6861007 -0.067335367 0
2.7853796 5.3490334 1.3044443 0
2.5046823 5.6370387 -0.15733695 0
4.8042116 3.7260346 1.0539405 0
4.9284554 3.6791728 0.49891329 0
3.4334102 4.7168646 2.0102153 0
2.5620508 5.5808606 0.60856962 0
-2.0437884 -5.7390466 -0.98387563 0
2.6077702 5.5406909 0.76886511 0
4.8613877 3.7028625 -0.8673861 0
4.8705969 3.7081852 0.7905066 0
4.9377337 3.6871231 0.35227334 0
4.8836484 3.7196963 0.64513981 0
5.3810024 -2.8608632 -0.98593056 0
-5.1257753 3.2966464 -0.98529434 0
4.9464445 3.6945868 0.056665778 0
4.8807945 3.7171791 -0.69522691 0
2.6223927 5.5293193 -0.82372296 0
2.5662332 5.5948858 -0.49123037 0
4.9446855 3.6930797 0.20476115 0
4.9460878 3.684427 0.32736886 0
0.49020326 6.0769439 -0.9885025 0
4.9505653 3.6909063 0.130054 0
4.7474842 3.7564905 1.2248101 0
2.5046601 5.6369033 -0.32635957 0
2.5057178 5.6434126 0.17650557 0
4.3677101 3.8500738 2.0657582 0
4.9493465 3.6970737 -0.092684388 0
3.2044883 4.9251914 1.9121246 0
2.942378 5.191071 1.6066289 0
4.9471531 3.6951942 -0.24252605 0
-5.1317954 -3.2987032 -0.98653102 0
2.84952 5.2940388 1.4300547 0
3.1505942 4.9908986 1.8352132 0
3.0046043 5.1477814 1.6360736 0
2.5645657 5.5854731 0.67241681 0
4.943666 3.6922059 -0.39350045 0
2.6190419 5.5118628 0.99605083 0
2.9230082 5.195447 1.6420591 0
4.8091846 3.7330356 1.0815008 0
0.56741476 -6.0781918 -0.98405933 0
2.5608025 5.578548 0.75642145 0
2.9536755 5.1840219 1.6289635 0
2.565371 5.5900197 -0.66220999 0
3.3638263 4.7818341 2.0217326 0
2.5060482 5.6454473 0.34266663 0
2.5231335 5.6227546 0.54123211 0
2.88727 5.2291684 1.6125565 0
2.5045648 5.6363139 0.50857174 0
4.6740599 3.767519 1.5150092 0
4.4750047 3.8338311 1.901772 0
5.3942842 2.8747776 -0.99108481 0
2.4437685 5.6897173 0.006526351 0
-2.0575867 5.756495 -0.98901129 0
4.9507828 3.691221 -0.46784866 0
2.5209594 5.6044283 0.77161121 0
-5.0872331 -3.3931963 -0.98441637 0
0.56468439 6.0900984 -0.98733258 0
2.6065485 5.5315175 0.99776459 0
2.5569663 5.5714402 0.90399075 0
2.5061064 5.6458054 -0.49903244 0
2.8421693 5.3096161 1.4636698 0
4.8726912 3.7197301 0.91749787 0
2.7321055 5.4076414 1.3132339 0
2.6977942 5.4521284 1.1972587 0
4.952106 3.6931355 0.52421582 0
4.806303 3.7275176 1.2041695 0
4.9410172 3.6899364 0.64638555 0
2.689661 5.4537859 1.2205226 0
5.0038004 3.6637821 -0.09515518 0
2.6789992 5.4735165 1.1573176 0
4.7438688 3.7531126 1.3736718 0
4.9386048 3.6878693 -0.7017647 0
2.4440506 5.6916256 0.34203601 0
5.4771204 2.7438502 -0.9816103 0
5.4406328 2.8139725 -0.98801923 0
2.5648851 5.5872765 -0.83619869 0
2.5649872 5.587853 0.83777642 0
4.9469767 3.6857135 -0.66962314 0
-1.979049 -5.7982149 -0.98546386 0
4.9440022 3.6814091 0.72074091 0
4.8804703 3.7168932 0.93929839 0
3.2942517 4.8516688 2.0348322 0
4.6239481 3.7752512 1.703331 0
2.5051785 5.6400924 -0.67128122 0
4.7064581 3.757654 1.5069442 0
4.9539943 3.701056 -0.55041581 0
5.4436407 -2.817034 -0.98916912 0
4.5815973 3.7896905 1.7894194 0
3.0778341 5.0663815 1.8484445 0
2.4460113 5.7048955 0.17380095 0
2.4450402 5.6983232 -0.33452564 0
2.8305657 5.3233433 1.487828 0
-5.1029668 3.398824 -0.98766434 0
5.0103121 3.6692016 0.05382967 0
2.4462433 5.7064643 -0.16466111 0
3.3411365 4.8143506 2.0583611 0
0.63992679 6.0991778 -0.98534203 0
4.7877455 3.7366483 1.3108497 0
2.5621581 5.5718832 1.0020306 0
-1.9848242 5.8057365 -0.98765314 0
2.7873235 5.3572402 1.4713438 0
2.4442184 5.6927619 0.50938392 0
4.8133903 3.7368534 1.231648 0
3.1989923 4.9177842 2.0575776 0
-5.0500636 -3.4901443 -0.98410439 0
0.63865304 -6.1051216 -0.98697078 0
2.8151691 5.2983594 1.6315498 0
5.4889154 -2.7555192 -0.98605609 0
4.9432287 3.6918316 0.79436362 0
4.7974844 3.7212641 1.3539088 0
2.7714834 5.3796721 1.4413576 0
2.6207609 5.5208182 1.1628613 0
4.5461664 3.7992885 1.9033408 0
5.0296044 3.6627028 0.12888455 0
2.50442 5.6354241 0.84099269 0
4.8758326 3.7128024 1.0872307 0
3.2219684 4.9165545 2.0467927 0
2.5078611 5.656611 0.67559505 0
5.0278654 3.6602619 -0.26933151 0
2.4381919 5.7216549 0.30861616 0
2.504837 5.637991 -0.84690297 0
2.4459171 5.704258 -0.50846744 0
4.7359815 3.7457442 1.5230386 0
5.0141249 3.6723752 -0.40147698 0
2.5211575 5.6060972 1.0033052 0
5.0174561 3.6751482 0.35134506 0
4.87184 3.7184603 1.1157181 0
2.9561255 5.1877537 1.77633 0
2.4367437 5.707747 0.5425396 0
2.6778316 5.4678707 1.3224709 0
2.3831673 5.7541113 -0.16937745 0
2.6981552 5.4527535 1.344342 0
-5.0628014 3.4949069 -0.98674786 0
4.9473772 3.6862924 -0.87539291 0
2.7310991 5.4031038 1.4787631 0
-1.9087162 -5.8502374 -0.98524594 0
2.4442251 5.6928067 0.67695856 0
2.5631368 5.5828729 1.0516753 0
2.4442475 5.6929579 -0.68118644 0
2.4293818 5.7219329 0.45600009 0
5.0362482 3.6720288 -0.070800364 0
5.0382557 3.6600182 0.2880702 0
3.146538 4.9737735 2.0568871 0
0.71366036 6.1148167 -0.98544407 0
5.0254297 3.6817846 -0.25062776 0
5.0271525 3.683219 0.2017926 0
2.8493562 5.2931142 1.6581306 0
4.9394007 3.6885514 0.94247615 0
0.713045 -6.1179037 -0.98628736 0
5.0161924 3.6740963 0.50002623 0
3.0895114 5.0678205 1.9201105 0
5.0484896 3.6668427 -0.024986148 0
2.8423123 5.3101826 1.6305404 0
4.9492836 3.6890514 0.91904902 0
-1.9143503 5.8577967 -0.98742259 0
2.3850253 5.768064 0.00045323372 0
5.5409727 2.7009642 -0.98583579 0
5.5410471 -2.7010355 -0.98586333 0
-5.0136471 -3.5873594 -0.98423672 0
5.0373464 3.6735699 0.32660902 0
4.8097806 3.7335768 1.3818102 0
4.8701634 3.7078028 1.2361066 0
2.6886015 5.4466162 1.4498239 0
5.0300517 3.6633308 0.52457142 0
2.3852749 5.7699389 0.17086792 0
2.3844995 5.7641153 0.34092748 0
5.0342894 3.6692793 -0.472601 0
2.7850413 5.3476052 1.6366372 0
2.3845637 5.7645974 -0.34358829 0
5.0543613 3.670759 0.13056731 0
2.559274 5.5757155 1.1991408 0
2.6085505 5.5465498 1.2304168 0
5.0779324 3.6456416 -0.10078007 0
2.5049632 5.6387677 1.0089519 0
5.0234089 3.6801031 -0.55953842 0
3.0062566 5.1557698 1.8651609 0
0.78838527 -6.1252294 -0.98440969 0
2.4333813 5.7298803 0.60518658 0
2.7677479 5.3566742 1.6676564 0
5.0495481 3.6675487 0.44168842 0
-1.8367059 -5.8999252 -0.98465347 0
4.8660765 3.7098596 1.3141408 0
5.0164347 3.6742978 -0.71535146 0
5.0817304 3.6487117 0.20072806 0
5.0088263 3.6679652 0.79740107 0
2.3483601 5.7947307 0.30749774 0
0.86531615 -6.1220794 -0.97998297 0
2.3846421 5.7651877 -0.51853937 0
2.9255071 5.2084651 1.8734469 0
5.0243015 3.6808455 0.64941287 0
2.5655284 5.5909081 1.1721907 0
4.7077203 3.7596595 1.7104559 0
-5.0324841 3.5947118 -0.98816729 0
2.4457748 5.7032943 0.84607422 0
5.0323949 3.6666195 -0.67612207 0
5.5913343 -2.6448359 -0.98528492 0
4.941431 3.6902912 1.0927324 0
0.78651333 6.1353731 -0.98717368 0
2.4302897 5.7237372 0.7548306 0
2.622602 5.5304089 1.3322935 0
2.6981928 5.4528189 1.4918785 0
4.7911463 3.7418835 1.5132303 0
2.4457552 5.7031627 -0.86173356 0
5.0887094 3.6543534 0.0493505 0
2.3854101 5.7709537 0.51059282 0
4.5913105 3.7970064 1.9414451 0
2.4224455 5.708149 0.90399241 0
-4.9735522 -3.6831219 -0.98388898 0
2.3833683 5.755621 0.67977488 0
5.0484276 3.6668017 0.59613299 0
2.4382474 5.722187 0.77726495 0
5.5955772 2.6487997 -0.98684072 0
4.8097086 3.729933 1.5060415 0
5.0337453 3.6685154 0.7228893 0
2.6783414 5.470336 1.4913883 0
2.3217723 5.8253827 -0.0038310885 0
5.0868053 3.6528144 0.35065639 0
2.9556351 5.1870065 1.9239922 0
5.0913954 3.6565251 -0.25616848 0
2.3481357 5.7922311 0.54385829 0
2.3209145 5.8181505 -0.35074478 0
2.3210015 5.8188839 0.34011745 0
5.111618 3.6374438 -0.072213054 0
4.6278028 3.781574 1.9105225 0
5.0404863 3.6615055 0.7503711 0
-1.8478246 5.915298 -0.98903358 0
4.8075142 3.7315192 1.5345562 0
3.0770278 5.0627456 2.0759614 0
2.5623202 5.5727973 1.3382697 0
-4.9843483 3.6875148 -0.98615456 0
5.1112227 3.6369054 -0.27300608 0
2.3224614 5.8311901 -0.17783654 0
2.6183205 5.5081038 1.4972301 0
0.8619523 6.1418934 -0.98536789 0
2.4445412 5.6949458 1.0146313 0
3.0869699 5.0641818 2.0676308 0
2.732945 5.4114261 1.6501856 0
2.4362311 5.7028265 1.0108938 0
2.8286777 5.3202796 1.7824323 0
5.1178932 3.6459906 0.12688255 0
5.6423373 -2.589349 -0.98526609 0
5.0947819 3.6592627 -0.41198236 0
5.0897589 3.6552022 0.50080991 0
2.3858137 5.773984 -0.69783485 0
2.3234065 5.8391576 0.16767371 0
2.3828597 5.751802 -0.87229586 0
2.6912563 5.4408045 1.6384306 0
4.9383898 3.687685 1.2435498 0
-1.7673655 -5.953321 -0.98540497 0
4.9581966 3.7019494 1.120008 0
5.10955 3.6346271 -0.47513962 0
2.5629034 5.5824404 1.3476512 0
-1.7680984 5.9543653 -0.98569942 0
2.5235581 5.6263328 1.238833 0
5.0304394 3.6638744 0.92132437 0
5.117557 3.6455328 0.32618499 0
2.5066712 5.6492834 1.1797462 0
5.0900531 3.6554399 -0.56782311 0
2.3840797 5.7609625 0.85031986 0
4.8833432 3.7194271 1.3922884 0
2.3222446 5.8293629 0.51146662 0
4.7799463 3.7246416 1.7126279 0
5.0389576 3.675832 -0.88556075 0
2.3226576 5.8328447 -0.53008288 0
5.0903282 3.6556623 0.65125132 0
2.2882032 5.8538013 0.45201588 0
2.3211093 5.8197927 0.68270421 0
3.0016465 5.1334796 2.0902615 0
2.3486829 5.7983322 0.78078425 0
0.9358952 6.1569023 -0.98616135 0
5.0098286 3.6687992 1.0988126 0
5.0497437 3.6676793 0.90399873 0
2.3212299 5.8208089 -0.70669842 0
5.1091242 3.6340473 -0.67973268 0
2.60923 5.5516539 1.46455 0
4.9462333 3.6846378 1.317981 0
2.4303968 5.7239499 1.0531609 0
5.1555657 3.6285667 0.19835925 0
2.8505521 5.2998643 1.8910577 0
2.2576547 5.8880677 0.16550756 0
0.93541217 -6.160017 -0.98700583 0
-4.950161 3.7859287 -0.9873538 0
5.0315666 3.6868927 0.95099068 0
2.6896982 5.4540367 1.6840334 0
-4.9509373 -3.7862577 -0.98751771 0
2.6777389 5.467423 1.6617575 0
4.8702536 3.7160923 1.5175142 0
2.2582114 5.8934131 -0.0091309547 0
4.588562 3.7949362 2.092268 0
2.4448321 5.6969151 1.1856999 0
5.1224184 3.6521537 0.5253582 0
5.093339 3.6580963 -0.72853053 0
5.6631889 2.6082773 -0.99281192 0
5.087678 3.6535201 0.80193341 0
4.8151426 3.7337866 1.6585634 0
2.2889674 5.8554349 0.60286355 0
5.1602292 3.6322274 -0.26229787 0
5.1571198 3.6297867 0.34994686 0
2.2586305 5.8974371 -0.18505323 0
5.6999617 -2.5396838 -0.98789871 0
2.2565484 5.8774443 -0.53727657 0
2.3842435 5.7621937 1.0217786 0
2.2580884 5.8922305 0.33896661 0
2.9556675 5.1870561 2.0729265 0
2.25877 5.8957143 0.30586958 0
4.707129 3.7587206 1.9165101 0
2.5058594 5.6442857 1.3501329 0
5.1154504 3.6426637 0.72430098 0
-1.6991143 -6.0085144 -0.98692977 0
2.2572219 5.8839126 0.51228738 0
5.7039785 2.543227 -0.98933387 0
5.1707058 3.6404519 0.044497252 0
2.2585111 5.8962908 -0.36195111 0
-4.8999567 -3.877501 -0.98545682 0
2.521888 5.6122551 1.4723454 0
2.3209708 5.8186255 -0.88798988 0
5.1583581 3.6307588 0.50148058 0
5.033154 3.6676857 1.1218505 0
1.0103663 -6.1688714 -0.98641706 0
5.1947899 3.6123788 0.12588668 0
5.1740818 3.6431022 -0.10981983 0
2.5644851 5.5850172 1.5124369 0
2.829958 5.3223572 1.9316764 0
4.884378 3.72034 1.5479074 0
2.2893717 5.8562994 0.75348842 0
2.2584713 5.8917465 0.54546082 0
-1.7061338 6.0188293 -0.98981023 0
5.158288 3.6307039 -0.57658648 0
2.1910677 5.9410701 -0.18958563 0
2.6952219 5.4476733 1.7882004 0
2.4373522 5.7135906 1.2483096 0
4.950531 3.6980886 1.4007628 0
5.1695738 3.6395628 -0.42096758 0
5.2001772 3.6195004 -0.075584471 0
2.3228426 5.8344035 0.8560257 0
2.621304 5.5236473 1.6735754 0
5.7487268 2.4820368 -0.9876256 0
5.0133371 3.6717196 1.2526777 0
2.4328501 5.7288251 1.2027454 0
5.7494407 -2.4826486 -0.98787749 0
-4.9149218 3.8840957 -0.98863566 0
2.6061654 5.5286388 1.6961355 0
-1.6237245 6.0532651 -0.98582315 0
-1.6238763 -6.0534949 -0.98588669 0
2.3493257 5.8054962 1.0191011 0
2.5739307 5.6028724 1.4984574 0
1.0078617 6.1867027 -0.99124181 0
5.1187587 3.6471694 -0.8909961 0
2.9282367 5.2226858 2.1098573 0
5.0977516 3.6616633 0.95530915 0
4.8090248 3.7294483 1.8102376 0
5.1165619 3.6441772 0.92434382 0
5.0662651 3.6786971 1.0583482 0
2.2579455 5.8908596 -0.72115457 0
2.4243863 5.7120051 1.3512099 0
1.085108 -6.1790328 -0.98647237 0
2.7725012 5.3859382 1.9076333 0
5.1983166 3.6170404 -0.48130798 0
2.1928523 5.9609671 -0.014462173 0
2.2585559 5.8967214 0.68634832 0
2.3845811 5.7647276 1.195009 0
5.2052774 3.6262424 0.32553995 0
5.2074947 3.629173 -0.27930886 0
2.1928518 5.9609613 0.16203272 0
-1.5405338 -6.0855942 -0.98161995 0
2.3217454 5.8251543 1.0284901 0
5.2277184 3.6054969 -0.26816279 0
2.5614495 5.5797467 1.6452165 0
-4.8616252 -3.9742255 -0.98636472 0
5.1562443 3.6290994 0.80529416 0
5.1700702 3.6399529 0.65400696 0
2.1925287 5.9573593 0.33794546 0
5.0506124 3.6682584 1.2119877 0
2.2923474 5.8626609 0.9039948 0
4.9411569 3.6900561 1.5540652 0
5.1651087 3.6360579 -0.73989248 0
-4.864851 3.9757025 -0.98705447 0
4.7818699 3.7276027 1.9202745 0
1.0838127 6.1893215 -0.98925102 0
5.2027302 3.6228755 0.52578628 0
4.1956758 -4.7808824 0.099015951 0
2.447135 5.7125001 1.3614869 0
5.2293377 3.6067307 0.34919596 0
5.8291149 2.3528986 -0.98204398 0
4.8696289 3.7151606 1.7222037 0
5.7988634 -2.4255495 -0.9881233 0
4.9526744 3.693958 1.5229712 0
2.5063348 5.6472116 1.5243464 0
2.1921136 5.9527316 0.51337337 0
4.1660137 -4.799006 0.34631515 0
4.1940756 -4.7771435 0.31696475 0
5.2393718 3.614378 0.041141033 0
5.237483 3.6129386 0.19546449 0
2.2590525 5.899466 0.78568053 0
5.0922313 3.6572006 1.1077385 0
5.2399645 3.61483 -0.11409461 0
2.2572963 5.8846259 -0.9036777 0
4.172164 -4.8087773 -0.13413566 0
5.0339251 3.6687682 1.3239014 0
2.8481681 5.2864079 2.1227551 0
2.1934805 5.9679699 -0.37225777 0
4.1246099 -4.8561368 0.025464416 0
2.1657374 5.9844189 0.30443513 0
5.1111269 3.6367748 1.1243861 0
2.3479345 5.7899861 1.256587 0
1.1599025 -6.1889148 -0.98674083 0
5.0150051 3.6731081 1.4084139 0
2.288738 5.8549442 1.0544662 0
5.2361803 3.6119456 -0.42792416 0
2.2588837 5.8998694 0.86109877 0
4.1772766 -4.8169003 0.025956154 0
4.0762625 -4.9030356 0.024121523 0
5.8094869 2.4343917 -0.99182677 0
4.1152029 -4.8698335 0.12367439 0
2.830214 5.3227725 2.0818133 0
2.1651084 5.974092 0.54678416 0
2.6944604 5.4463544 1.9377699 0
2.1451535 5.9899559 0.44744337 0
2.1931753 5.9645686 -0.55294496 0
2.3835413 5.7569218 1.3683183 0
2.6900694 5.4565496 1.9208264 0
4.128376 -4.8623152 -0.13689268 0
2.5657575 5.5922017 1.6889386 0
4.0749149 -4.9007521 -0.30087459 0
4.2288551 -4.7762594 -0.13452184 0
4.17869 -4.8191452 0.18610489 0
2.1917071 5.9481993 -0.73285592 0
2.2576141 5.8803616 1.0249693 0
2.4367664 5.7079649 1.4859192 0
4.1265678 -4.8593488 -0.29945928 0
4.1327457 -4.8624449 0.096349835 0
2.2568183 5.8800364 1.0343051 0
4.1157465 -4.8704133 0.28068399 0
4.1772027 -4.8167825 -0.29795128 0
5.8458476 -2.3664253 -0.9878093 0
5.2384138 3.6136482 0.50240314 0
4.2299151 -4.7778907 0.18648016 0
5.2070003 3.6285198 -0.69024062 0
4.0798326 -4.9090848 -0.13875133 0
4.126709 -4.8595805 0.34577763 0
-4.819942 -4.0695286 -0.98685467 0
3.9724352 -4.9974427 0.12388444 0
2.1249413 6.0180516 -0.19833857 0
4.0614376 -4.9267826 0.094618201 0
2.5218561 5.6119862 1.7101631 0
4.0260897 -4.94765 -0.30341595 0
1.2358323 -6.1875367 -0.98426616 0
-4.8213124 4.0701799 -0.9871496 0
4.1743827 -4.8123026 -0.46138573 0
2.1253321 6.0232439 -0.019406736 0
2.192724 5.9595361 0.68929219 0
5.0861826 3.6523111 1.2612329 0
5.282156 3.5912912 0.1239748 0
4.1327109 -4.862359 0.31600738 0
5.1653709 3.6362638 0.95985997 0
4.2293887 -4.7770801 0.34604168 0
4.1328392 -4.8696365 0.18512082 0
4.0786486 -4.9070787 0.3454982 0
4.0604782 -4.9243507 0.31547463 0
3.9788547 -4.9984069 0.18333566 0
4.8065462 3.7276902 1.9632912 0
1.1578523 6.2073221 -0.99170351 0
2.1455967 5.9909792 0.59985065 0
3.9796691 -4.9998817 -0.14233464 0
4.232007 -4.7811108 -0.29786754 0
2.4457254 5.70296 1.5349207 0
4.1994209 -4.7896347 0.53467226 0
5.2097635 3.6321728 0.72681391 0
2.5598936 5.5768638 1.7947838 0
4.1760402 -4.8149357 0.50541329 0
2.3228352 5.834342 1.2047272 0
2.1251943 6.0214138 0.33692777 0
4.1279144 -4.8615575 -0.46476829 0
4.1686897 -4.8032579 0.66431117 0
4.1264367 -4.8591337 0.50561309 0
5.241879 3.6162889 -0.5898155 0
4.1716003 -4.8078814 -0.6266979 0
4.033608 -4.9608173 0.18364835 0
4.1191101 -4.874001 0.43676138 0
4.0344181 -4.9622359 -0.14159578 0
5.2379298 3.6132791 0.65596485 0
-1.5645821 6.1232023 -0.99192572 0
2.1259663 6.0316687 0.15862775 0
-1.4755919 -6.1464272 -0.98551953 0
3.9831648 -5.0062122 0.020321012 0
3.9786315 -4.998003 0.3449856 0
5.2920771 3.5956843 -0.048309922 0
4.0359039 -4.9648385 0.021218061 0
2.1246111 6.0136662 0.51433659 0
5.28549 3.5955694 -0.2818684 0
4.2404242 -4.7940683 0.024662733 0
5.2902746 3.6017096 -0.079150438 0
2.4317932 5.7267246 1.5025783 0
5.2893143 3.5939543 0.27173507 0
3.9903855 -4.9945273 0.31477273 0
4.0875816 -4.9222159 0.18397784 0
2.1919878 5.9513292 0.86501551 0
1.2343713 6.2026124 -0.98832476 0
3.8786449 -5.0928907 0.017935634 0
5.0606651 3.6749625 1.3672459 0
5.8909001 2.3058078 -0.98713076 0
3.931499 -5.050251 0.18213189 0
2.5054717 5.6418982 1.6993635 0
4.2912908 -4.7521267 0.025274634 0
3.8780971 -5.0918279 0.1815021 0
4.0817099 -4.9122658 -0.46860111 0
4.0343447 -4.9621077 0.3450557 0
2.7689877 5.364305 2.1397824 0
3.9766757 -5.0022349 0.4368391 0
-4.7693057 -4.1605225 -0.98570228 0
2.1258638 6.0303063 -0.38121736 0
3.9830916 -5.0094848 0.27942491 0
4.1336966 -4.8647571 0.53543782 0
5.2370653 3.6126204 -0.75130129 0
3.9300928 -5.0476151 0.34462869 0
5.298501 3.5997071 0.1111095 0
4.1179008 -4.8727117 0.59287155 0
1.3108642 6.1940184 -0.9842 0
5.2027826 3.6229441 0.9273622 0
3.9342666 -5.0554371 -0.14566988 0
4.2354164 -4.7863598 -0.46352863 0
5.1088505 3.6336744 1.3263524 0
4.1275182 -4.8609076 -0.63174582 0
4.2820892 -4.7661467 0.11885262 0
4.1258717 -4.8582067 0.66557753 0
2.1459589 5.9918151 0.75198472 0
3.9261503 -5.0402279 0.50662506 0
4.234477 -4.784914 0.5055213 0
4.273859 -4.7578568 0.43509328 0
4.9496956 3.689647 1.7277343 0
5.8974562 -2.3109541 -0.98936403 0
3.9811807 -5.0026197 -0.47416389 0
3.9368072 -5.0601974 0.018105149 0
5.2923841 3.6044166 0.32491612 0
4.0631952 -4.9312391 0.53605449 0
5.3127623 3.5904176 0.037265182 0
4.0342493 -4.9619403 -0.47232008 0
4.0847154 -4.9173594 0.50611007 0
5.2865839 3.5969737 -0.48730111 0
4.287508 -4.7678151 0.097718596 0
3.8796315 -5.0948052 0.34430838 0
2.125422 6.024437 -0.56346047 0
4.2846465 -4.7613845 0.31658459 0
3.8807755 -5.0970244 -0.31322962 0
4.0795841 -4.9086642 -0.63550842 0
3.9346361 -5.056129 -0.31145579 0
3.9200306 -5.0674152 0.31400537 0
4.2964993 -4.7598996 0.18534541 0
2.1658628 5.9864759 0.78989828 0
5.3102427 3.5885537 -0.27700371 0
3.9882646 -5.0154486 -0.30984575 0
5.2863669 3.5966947 0.52631283 0
3.8844304 -5.1041155 -0.14812082 0
2.0699868 6.0657544 0.30310702 0
3.9908123 -4.995656 0.53664827 0
5.3153229 3.5923119 -0.11983377 0
5.3086538 3.5873783 0.34829164 0
3.8763127 -5.0883656 0.50696504 0
2.321254 5.8210135 1.3791668 0
3.8325098 -5.1285405 0.43671346 0
3.9158792 -5.0559392 0.5371815 0
4.2008171 -4.7928972 0.75306892 0
4.2329783 -4.7826066 -0.62941587 0
2.1248043 6.0162315 0.69196081 0
4.0569344 -4.9153657 0.75613856 0
5.0207214 3.6778657 1.5682459 0
-1.4868672 6.164629 -0.99046278 0
2.2962096 5.8709173 1.2059231 0
5.3153648 3.5923426 0.19284868 0
1.3098962 -6.2057548 -0.98735547 0
5.9329734 -2.2429912 -0.98574984 0
2.6913037 5.440887 2.0875149 0
5.2977562 3.5992405 0.42970645 0
4.0363903 -4.9656897 0.5064162 0
-4.7820506 4.1668053 -0.98846424 0
3.9321842 -5.0515347 -0.47797608 0
4.1304927 -4.8569632 0.75473952 0
3.8321133 -5.1491213 -0.15014893 0
5.2427497 3.6169524 0.81063044 0
1.3864682 -6.1922221 -0.98219919 0
5.2139778 3.6377437 -0.90238833 0
4.0314484 -4.9570351 -0.63958669 0
2.1931553 5.9643464 -0.92328191 0
4.8694448 3.714886 1.9303536 0
4.1752548 -4.8136878 -0.79756773 0
4.081996 -4.9127502 0.66684616 0
4.3015165 -4.767386 -0.1385259 0
3.8462458 -5.1342897 0.31333435 0
2.1439993 5.9872923 0.90399635 0
3.7782273 -5.1919804 0.17913342 0
4.2342591 -4.7845783 0.66533768 0
5.0400896 3.6774209 1.5300999 0
2.2575572 5.8796024 1.2666414 0
-1.4008296 -6.1918631 -0.98549211 0
3.7240596 -5.2352762 0.012678027 0
3.8314614 -5.1478105 -0.31687737 0
4.2904549 -4.7745724 0.27579904 0
2.4439609 5.6910191 1.7098444 0
4.1191912 -4.8740883 0.74847639 0
4.1267653 -4.8596721 -0.80120027 0
2.4269428 5.7170858 1.6521866 0
3.8359876 -5.1569095 0.014624834 0
4.1259642 -4.8583584 0.82616317 0
3.8349619 -5.1548476 0.17957687 0
3.7697873 -5.1966295 0.31273019 0
2.1920381 5.9518886 1.0423193 0
2.0564635 6.0902328 -0.024844825 0
3.9883728 -5.015645 0.50676608 0
4.0335121 -4.9606485 0.66774142 0
2.2583923 5.8951511 1.2131696 0
2.1251457 6.0207682 -0.74829018 0
-1.4030447 6.1955557 -0.9864862 0
3.9840038 -5.0105152 0.59232616 0
3.8760638 -5.0878825 -0.64902222 0
5.9410605 2.2491548 -0.98847437 0
5.1768637 3.6452858 1.1170473 0
4.2966051 -4.760057 -0.46581143 0
2.0563467 6.088316 -0.20637405 0
3.9818459 -5.0038242 0.66838849 0
3.8288713 -5.1426034 -0.48451167 0
5.0934048 3.6581492 1.420218 0
3.8834243 -5.1021633 -0.48228914 0
3.8465383 -5.1453404 0.2781179 0
3.7258351 -5.2391176 -0.15446866 0
4.3019619 -4.7680511 0.34547555 0
5.055932 3.6718059 1.5219142 0
4.303268 -4.77 -0.30261469 0
2.5570669 5.5716267 1.9447405 0
2.6089549 5.5495868 1.9394927 0
3.8339086 -5.1527305 0.34376681 0
4.194706 -4.7786174 0.97084522 0
4.1789794 -4.8196054 0.82572341 0
3.9843817 -5.0084162 -0.64460945 0
2.3486447 5.7979054 1.4987521 0
4.2308989 -4.7794046 -0.79786086 0
5.1569729 3.6296716 1.2692537 0
2.0700622 6.0673761 0.54832113 0
3.9324827 -5.052094 -0.64775503 0
4.1120729 -4.8664942 0.9040004 0
4.0805311 -4.9102693 -0.80645406 0
2.3856227 5.7725501 1.5489008 0
4.2879362 -4.7687778 0.53495657 0
4.0277834 -4.9506159 0.82874906 0
2.2912433 5.8603001 1.356477 0
3.7283158 -5.2444849 0.17775834 0
3.9902482 -4.994163 0.75873184 0
3.7847252 -5.2055259 -0.15381771 0
-4.7286463 4.2564464 -0.98700249 0
5.2022376 3.6222241 1.1296389 0
3.7860322 -5.2082505 0.0125072 0
3.7827687 -5.201448 -0.32112545 0
1.3851796 6.2111459 -0.98728168 0
-4.7303748 -4.2573295 -0.98737979 0
5.3194313 3.5953512 0.50334227 0
5.3050985 3.6038384 0.58768773 0
2.1652949 5.9771514 1.0328693 0
5.2923689 3.6043966 -0.69662726 0
4.3620052 -4.7392344 0.022726297 0
3.8332949 -5.1514964 0.50760901 0
3.8475413 -5.1380382 0.53813481 0
4.0825748 -4.9137321 0.82836509 0
3.7833562 -5.2026725 0.34337091 0
5.2426853 3.6169033 0.96591449 0
5.0328913 3.6564407 1.674418 0
2.0568223 6.0961251 0.33570766 0
4.2878828 -4.7719817 0.59075177 0
2.4368248 5.7085271 1.726984 0
3.6986554 -5.2683625 0.27789378 0
2.0572901 6.103807 0.15510023 0
3.9169707 -5.0589571 0.76058459 0
3.9354939 -5.0577369 0.66971278 0
4.2348766 -4.7855287 0.82584631 0
5.3260012 3.6002109 -0.44051653 0
3.9795327 -4.9996352 0.83042157 0
6.0086126 2.111701 -0.98112178 0
2.0567374 6.0947309 -0.39065403 0
3.874186 -5.084239 -0.82054079 0
5.3166561 3.5932982 -0.60043383 0
3.780551 -5.1968241 -0.48985881 0
3.8426611 -5.1406975 0.59201992 0
5.3633156 3.5607731 0.32474577 0
4.2790947 -4.7631307 0.74775159 0
3.9824634 -5.0049419 -0.81545436 0
4.1751881 -4.8135824 0.98623276 0
3.8840251 -5.1033292 0.67057586 0
5.314682 3.5918376 0.65850675 0
3.8304634 -5.1458044 -0.65619636 0
3.7303257 -5.2488332 0.34303629 0
3.7814379 -5.1986728 0.50795162 0
4.8128262 3.7321436 2.1194019 0
3.9297833 -5.0470357 -0.81863225 0
4.2994909 -4.7643633 -0.63435721 0
5.9853892 -2.18799 -0.98813176 0
4.3063736 -4.7746348 0.50606263 0
-1.3247442 -6.2350483 -0.98515093 0
3.987602 -5.0145817 0.74812174 0
2.1256902 6.0280004 0.87122393 0
5.2967052 3.6099622 0.72866559 0
4.366394 -4.7455854 0.18390465 0
4.0367241 -4.9662743 -0.81353903 0
1.4610273 -6.2061763 -0.98471701 0
4.3673415 -4.7469563 -0.14099944 0
3.6987698 -5.268508 0.43500245 0
4.3629675 -4.7406263 0.34527218 0
3.9305568 -5.0484853 0.83213329 0
5.0823164 3.6491852 1.5761323 0
4.1273985 -4.8607116 0.9880619 0
4.131722 -4.8599534 0.97527587 0
5.3733778 3.573312 -0.08171159 0
5.3098936 3.5882957 -0.76299286 0
2.056483 6.0905542 -0.57537258 0
4.3751445 -4.743938 0.096961141 0
3.679188 -5.3006325 -0.15898168 0
3.7333274 -5.2553272 -0.32550973 0
2.521915 5.6124816 1.9513898 0
1.5369631 -6.1923981 -0.98008299 0
5.3038044 3.6030281 0.74596691 0
2.1917531 5.9487128 1.2205954 0
3.6938245 -5.262228 0.59198999 0
4.2876191 -4.7680655 0.75369561 0
3.6228452 -5.3421974 -0.16089219 0
2.3824329 5.7485971 1.7228293 0
5.1501703 3.624331 1.4256036 0
5.2861242 3.5963833 -0.90495825 0
5.2346935 3.6108129 1.1209517 0
5.9925079 2.1932559 -0.99050438 0
3.8453999 -5.1318431 0.7629354 0
5.3758907 3.5764439 0.12153792 0
2.422684 5.7086225 1.8022931 0
5.3727808 3.5725682 -0.28630155 0
3.7796278 -5.1948996 0.67243612 0
5.1125774 3.6387508 1.5322669 0
-4.6762023 -4.3463764 -0.98602188 0
4.0286493 -4.9521337 0.99156737 0
3.7308912 -5.2500567 0.50838709 0
3.8353705 -5.1556692 0.67187119 0
2.0572419 6.1030145 0.51581264 0
4.3620844 -4.7393489 0.50610054 0
3.6828308 -5.3088193 0.0083081722 0
2.2580473 5.8918381 1.3914895 0
-4.6775599 4.3470945 -0.98632038 0
3.6255136 -5.3484335 0.0071372986 0
2.6908786 5.4620261 2.1624503 0
5.3882799 3.5664072 0.033162594 0
4.3698339 -4.7505627 -0.30600137 0
4.0627704 -4.9301615 0.97872007 0
3.7254033 -5.2381835 0.67327774 0
5.3676481 3.5661719 -0.49143875 0
4.3759785 -4.7457423 0.31617475 0
2.1506662 6.0026803 1.0562844 0
3.6827085 -5.3085446 0.17568815 0
3.9832051 -5.0096126 0.904001 0
1.4603544 6.2187004 -0.98807764 0
6.0249667 -2.1234405 -0.98651588 0
2.1259744 6.0317764 -0.9398092 0
3.7021492 -5.2904401 0.31153309 0
3.6813855 -5.3055711 -0.32935911 0
2.0703726 6.0740423 0.79421246 0
4.1935873 -4.7760024 1.1904261 0
-1.3332291 6.2496638 -0.98905253 0
4.117548 -4.8723354 1.0594692 0
3.7777557 -5.220799 0.53911388 0
4.29773 -4.7617359 0.82713723 0
5.3691077 3.567991 0.52681565 0
5.2980013 3.5993943 0.90400362 0
3.9907231 -4.9954195 0.98177528 0
3.8304729 -5.1458235 0.83569193 0
4.3092136 -4.778873 0.66725159 0
3.7711325 -5.2007103 0.76510978 0
4.08498 -4.9178071 0.99139476 0
2.0567164 6.0943851 0.69580495 0
5.392643 3.5695391 0.19027936 0
3.6255021 -5.3484068 -0.33203721 0
4.3011084 -4.7667775 -0.80539739 0
4.2825203 -4.7665811 0.90400183 0
3.8491733 -5.1484962 0.74785876 0
3.6793509 -5.3009982 -0.4999876 0
3.8365819 -5.1334171 0.904001 0
3.7296078 -5.2472801 -0.66724992 0
5.2237711 3.602488 1.2762914 0
3.7364287 -5.2620378 -0.49767339 0
5.3029456 3.5831559 0.96934319 0
3.6795301 -5.3014016 0.50883305 0
3.7001314 -5.2840118 0.53974926 0
2.1253796 6.0238738 1.0504553 0
4.37078 -4.7519317 -0.47261781 0
3.5724108 -5.3993444 0.0048269033 0
4.1246243 -4.8561602 1.1502676 0
6.0602908 -2.0561209 -0.98383045 0
3.9834061 -5.0066495 0.99468374 0
2.2931676 5.8644142 1.5084946 0
3.7868433 -5.2099419 -0.66508079 0
5.3867121 3.5652816 -0.44605523 0
3.684932 -5.3135414 0.34233499 0
4.9528189 3.6941674 1.9383335 0
4.2402115 -4.7937417 0.98848152 0
5.0398993 3.6771538 1.7373352 0
2.0045218 6.1426868 0.44136417 0
4.3642912 -4.7425423 -0.63860953 0
3.6280479 -5.3543563 0.34207916 0
1.9860637 6.1629152 0.15220714 0
4.0749478 -4.9008079 1.1522849 0
4.431963 -4.7238193 0.020314693 0
5.4003448 3.5750678 -0.12702376 0
2.5564787 5.5705366 2.0964594 0
3.6311479 -5.3616009 0.17422044 0
4.0241308 -4.9442196 1.1541901 0
3.835 -5.1549244 -0.83269489 0
2.3237948 5.8424311 1.5631251 0
1.985682 6.1547151 -0.39953738 0
5.3256788 3.5999725 0.81554043 0
5.3956366 3.5716879 0.3472259 0
3.6258602 -5.3621793 0.31072533 0
3.933207 -5.0534515 0.99679351 0
5.2045441 3.625273 1.334343 0
3.6768222 -5.2953153 -0.67231596 0
2.0569892 6.0988641 -0.76520979 0
3.5156281 -5.4430246 0.17257524 0
3.8256931 -5.1362138 0.99977875 0
5.2998018 3.6139357 0.93190646 0
1.9864087 6.1703272 -0.031513453 0
3.6999762 -5.27004 0.74784887 0
1.9860169 6.1619086 0.33462739 0
3.5723546 -5.3992081 -0.33620095 0
3.5749424 -5.4055033 0.17323804 0
4.1799459 -4.8211408 1.1501667 0
6.0681272 2.0615776 -0.98638916 0
5.3668633 3.5651939 0.72910595 0
4.2944422 -4.7568302 0.98836565 0
5.4015961 3.5759659 -0.28752315 0
1.9863833 6.1697812 -0.21590173 0
1.9727958 6.1706553 0.30134416 0
3.7825842 -5.2010632 -0.83763838 0
2.2582443 5.888731 1.5119119 0
4.3799243 -4.7542791 0.53538942 0
2.3479784 5.7904754 1.7411733 0
3.8929367 -5.1206207 0.83619356 0
3.6278191 -5.3538213 -0.50539207 0
3.5452487 -5.4235682 0.31008875 0
-4.6272488 -4.438077 -0.98609114 0
2.0564387 6.0898275 0.87620914 0
5.2937031 3.5967026 1.0617633 0
2.1499801 6.0010962 1.2086568 0
4.3586168 -4.7343307 0.82815218 0
4.1313305 -4.8590002 1.196867 0
4.4382362 -4.7326255 -0.14455909 0
4.0586491 -4.9197125 1.200448 0
3.5776954 -5.4122005 -0.1666742 0
4.4340262 -4.7267156 0.34475851 0
3.6291914 -5.357029 0.50937152 0
3.9233122 -5.0764871 0.98638177 0
3.8464179 -5.134788 0.98894763 0
1.5355144 6.2291884 -0.98994851 0
3.6808372 -5.3043389 0.67547047 0
3.5756867 -5.4073138 0.34158015 0
3.985323 -4.981133 1.2042396 0
4.2343254 -4.7846794 1.1499414 0
3.7855487 -5.2072434 0.83879495 0
3.8849654 -5.105154 0.99966419 0
5.2858801 3.5960696 1.1333461 0
1.9859499 6.160471 0.51674747 0
2.124475 6.0118585 1.2296872 0
3.7300797 -5.248301 -0.84309602 0
-1.2574191 -6.2937841 -0.98921943 0
4.2911692 -4.7760434 0.9740144 0
3.9878023 -5.0148077 1.0598879 0
3.6254954 -5.3609557 0.54065228 0
4.3729219 -4.7550311 0.66809702 0
-4.6348009 4.4422121 -0.98776484 0
4.4382286 -4.7326145 -0.30989659 0
1.6115105 -6.2148933 -0.98546445 0
3.9802237 -5.0008869 1.1586111 0
5.3763828 3.5770562 -0.70258856 0
3.5710351 -5.4191899 0.27394366 0
4.1188784 -4.873754 1.2151973 0
2.4200017 5.7032924 1.9535193 0
4.4415569 -4.7372856 0.18199801 0
3.5210433 -5.4567533 -0.16915005 0
2.1660945 5.9902825 1.2794371 0
2.0077233 6.1506987 0.59545267 0
2.1922803 5.9545903 1.4023976 0
4.4331651 -4.7255068 0.50661552 0
5.4031405 3.5770748 0.50433528 0
-1.260407 6.2991047 -0.99062824 0
3.6760325 -5.29354 -0.84815371 0
3.7016969 -5.2889991 0.76839995 0
3.6207509 -5.3450465 0.76996732 0
4.287324 -4.7714186 1.060524 0
3.7716293 -5.2022171 0.99244392 0
4.3772292 -4.7484484 0.75469911 0
4.3679733 -4.7478704 -0.81128943 0
2.1435294 5.986208 1.3602655 0
5.3978972 3.5733109 -0.61287451 0
3.5241647 -5.4646668 0.0011024475 0
1.9861132 6.1639781 -0.58889067 0
2.0037901 6.1408558 0.75005579 0
4.1233792 -4.8541183 1.3144746 0
1.6113054 6.2230811 -0.98765898 0
4.1740484 -4.8117714 1.3126636 0
3.5457973 -5.425509 0.54134631 0
2.0705311 6.0774503 1.041187 0
3.7347651 -5.2584381 0.8409543 0
4.4635348 -4.7206326 0.31592011 0
3.6285424 -5.3555121 -0.68059552 0
-4.568655 -4.5243554 -0.98429966 0
-1.1731322 -6.3223705 -0.98559058 0
3.5220447 -5.4592919 -0.34205174 0
3.7023084 -5.2730021 0.90400159 0
5.0509624 3.6684921 1.8334088 0
3.5727856 -5.4215498 0.43185139 0
3.6792932 -5.3008685 0.84233046 0
2.3216774 5.8245835 1.7409973 0
5.3981743 3.5735099 0.66147745 0
4.468596 -4.7311835 0.09547925 0
5.1105795 3.6360295 1.7392054 0
1.9854522 6.1497774 -0.77606142 0
3.8453605 -5.14393 1.0600057 0
2.2587359 5.8984504 1.5743165 0
3.5234382 -5.4628248 0.34102213 0
3.9798505 -5.0058222 1.2153847 0
3.5784409 -5.4140139 -0.51246905 0
4.4408474 -4.7362905 -0.47795218 0
3.8804359 -5.0963659 1.1645122 0
5.3902264 3.5678043 -0.77715552 0
6.1158714 -2.0028083 -0.98803353 0
3.4642229 -5.5025339 -0.34514147 0
1.6869233 -6.2117496 -0.98426068 0
3.4669561 -5.5097647 0.17023134 0
2.2931271 5.864327 1.6608443 0
2.0573199 6.1042953 -0.9579463 0
4.4961576 -4.703846 0.26669371 0
5.456429 3.5435092 -0.29002041 0
4.5014911 -4.7064633 0.017980099 0
2.6094785 5.5535188 2.1836939 0
3.5208979 -5.4563842 0.51025701 0
3.5696061 -5.4172645 0.58976793 0
3.469039 -5.5055408 0.30906188 0
5.1660857 3.6368248 1.5916252 0
3.6331987 -5.366394 0.67745268 0
5.4624605 3.5508087 0.11971486 0
3.6967156 -5.273129 0.99634242 0
4.4625139 -4.7185049 0.53543866 0
3.4694605 -5.5163898 -0.0013947487 0
3.5615308 -5.4063816 0.74728537 0
5.2954836 3.5978174 1.2197919 0
4.4353075 -4.7285137 0.66883743 0
5.4588151 3.546397 0.32388771 0
4.4992456 -4.7034049 0.34442103 0
5.3719525 3.5715358 0.93291223 0
-1.1793013 6.333734 -0.9885757 0
3.4691057 -5.515451 -0.17357594 0
3.4084959 -5.5532494 -0.17534745 0
2.4374473 5.7145047 1.9726405 0
4.2985201 -4.7629151 1.1526637 0
3.9380198 -5.06247 1.1639941 0
3.9194894 -5.0659199 1.2112 0
3.5760877 -5.4082894 0.67831969 0
5.4697752 3.5449083 -0.1318469 0
3.7871809 -5.2106452 1.0059147 0
3.5229449 -5.4615746 -0.5170148 0
1.9864309 6.1708026 0.69960654 0
3.5826321 -5.4242096 0.51013851 0
3.4676371 -5.5115657 0.34057927 0
4.1977592 -4.7857518 1.4138286 0
5.2008972 3.6204522 1.539674 0
4.5057158 -4.7122173 -0.14738446 0
6.1497293 1.9347191 -0.98548579 0
4.3648729 -4.7433844 0.99186623 0
4.081881 -4.9125562 1.3200665 0
1.6868027 6.2229838 -0.98727107 0
4.5060396 -4.7126584 0.18106329 0
5.4673815 3.5567639 -0.08578223 0
1.9136391 6.2343764 0.14861417 0
5.4664164 3.5425689 0.34651053 0
3.7328713 -5.2543411 1.0079277 0
1.9137129 6.2366643 -0.037062526 0
3.8373859 -5.1343799 1.2155998 0
1.9136044 6.2332969 -0.22334296 0
5.475204 3.5486884 0.027847886 0
4.2886038 -4.7702775 1.1944482 0
5.3977447 3.5732012 0.81925654 0
1.7622119 -6.2055087 -0.98251629 0
2.0571334 6.1012349 1.0593631 0
3.8327236 -5.1503477 1.168726 0
3.8449035 -5.1304059 1.2156115 0
4.1185541 -4.8734088 1.3711851 0
3.5785434 -5.4142632 -0.68863857 0
4.4418821 -4.7377429 -0.6479919 0
3.6296585 -5.3581204 0.84518445 0
3.4257038 -5.5491762 0.2720232 0
4.3754263 -4.7445469 0.97454965 0
6.1297507 2.012181 -0.99252093 0
4.5008984 -4.7083549 0.42616951 0
