# .PCD v0.7 - Point Cloud Data file format
VERSION 0.7
FIELDS x y z intensity
SIZE 4 4 4 4
TYPE F F F F
COUNT 1 1 1 1
WIDTH 1440
HEIGHT 1
VIEWPOINT 0 0 0 1 0 0 0
POINTS 1440
DATA ascii
3.0058341 3.7727115 0.85339046 0
3.0476732 3.7718735 0.69767666 0
3.0830619 3.7688191 0.54266489 0
2.9970052 3.7674446 0.91411734 0
3.0982897 3.7745225 -0.41369653 0
2.8966815 3.7555315 1.2384758 0
3.1387844 3.7552621 -0.29764229 0
3.0969038 3.7716331 0.48032498 0
-4.2416458 2.2550414 -0.98852158 0
-2.4691973 3.8389678 1.794394 0
-2.7438402 3.8446236 1.3219452 0
3.1437111 3.765167 -0.072292745 0
3.1410289 3.7597742 0.261235 0
-4.2026248 -2.3359666 -0.9838444 0
-2.3952408 3.8451431 1.8880568 0
-2.760633 3.8528681 1.2743933 0
3.1441927 3.7661347 0.15052342 0
-2.9060302 3.853245 0.90526187 0
2.8862691 3.7700524 1.2560425 0
-3.0515919 3.8495891 0.1320318 0
3.0964251 3.7706354 0.58965027 0
2.6493652 3.7698386 1.7134624 0
3.0782309 3.7716138 0.68284726 0
3.0496492 3.7761493 0.8079797 0
3.1406152 3.7589428 0.48046088 0
3.1500947 3.7668641 0.33978355 0
2.9971056 3.7676699 1.0251675 0
2.9327269 3.7689226 1.196475 0
3.1458097 3.7693856 0.37073541 0
3.0774305 3.7628117 0.78389204 0
2.7872531 3.7562783 1.5386333 0
2.9521432 3.7747905 1.1350505 0
2.8609059 3.7678902 1.3681386 0
-4.2207441 2.3401902 -0.98813975 0
-3.063982 3.8570817 -0.065811574 0
-2.4244094 -4.1738315 -0.98615694 0
-2.6016445 3.8533916 1.6294188 0
3.0441756 3.7643063 0.91675067 0
3.1458063 3.7693791 -0.41804701 0
3.1526613 3.78316 -0.18937731 0
3.1861553 3.7492936 -0.30135369 0
-2.8893223 3.8428118 1.0963149 0
3.0057499 3.7723963 1.0258951 0
-2.9033394 3.856071 1.010334 0
-2.7440491 3.8449738 1.4273496 0
-3.0524549 3.8501112 -0.46197069 0
-3.0659332 3.8582618 -0.26438403 0
3.0992148 3.7764511 0.69996023 0
2.9456482 3.7596123 1.2445595 0
3.149878 3.7661378 0.51160312 0
2.8820066 3.7652361 1.3734007 0
-3.0638652 3.8570108 0.3276397 0
3.1933289 3.7632122 0.14880931 0
-2.2764874 3.8446038 2.1022055 0
-3.0515614 3.8495708 0.52350914 0
3.1938882 3.7642972 -0.18972647 0
-2.6230693 3.8534918 1.6363001 0
3.1875186 3.7519386 -0.41892701 0
3.1960092 3.7684128 0.036383867 0
3.0778127 3.7701356 0.8548429 0
3.1442952 3.7663407 0.59054935 0
3.196496 3.7693572 -0.076661766 0
-4.1935329 -2.4237423 -0.98654509 0
3.0766549 3.7619843 0.90395725 0
2.6991179 3.7712414 1.7115836 0
-2.3696313 -4.2266088 -0.9833436 0
2.9962225 3.7656853 1.1371944 0
-2.8997593 3.8504434 1.1165321 0
-4.198493 2.4249737 -0.98772502 0
3.0974994 3.7728751 0.81011915 0
3.1961613 3.7687075 0.25951195 0
-3.0568676 3.8489549 0.57882357 0
-4.1550436 -2.504137 -0.98253667 0
3.1941175 3.7647426 0.37042677 0
3.1486273 3.7619441 0.68338966 0
2.719171 3.7677429 1.7165687 0
-2.5972834 3.8455808 1.7336559 0
3.0919771 3.7613626 0.91955447 0
3.1441095 3.7659676 0.70086026 0
2.8721292 3.7540741 1.4899795 0
3.036869 3.7484982 1.1374567 0
3.0479698 3.7725158 1.0301092 0
-3.0536771 3.8508501 -0.66398823 0
3.0736208 3.7587478 1.0238929 0
3.1396403 3.7569826 0.810637 0
3.2220016 3.7607234 0.33951879 0
-3.0576811 3.8501554 0.68732488 0
2.9931307 3.7587366 1.2494335 0
-2.6434789 3.8479779 1.6893988 0
3.1963749 3.7691221 0.48105907 0
3.2404749 3.7553496 0.25905323 0
3.239542 3.7536013 -0.30795944 0
2.932827 3.7693202 1.3717282 0
-2.5126615 3.8408196 1.9051652 0
3.2452414 3.7642815 -0.079535902 0
-2.7756801 3.852699 1.4701715 0
3.234684 3.7444978 0.48098898 0
3.2197285 3.7534811 0.51174867 0
-2.7696657 3.8586895 1.4693637 0
-3.0583568 3.8536799 0.71978247 0
-4.1771479 2.5099611 -0.98781407 0
3.1943421 3.7651782 0.59167981 0
-2.9004679 3.8515575 1.2232089 0
-2.3246689 -4.2870698 -0.98415935 0
-2.7491007 3.8534403 1.534677 0
2.8608007 3.7674472 1.5449421 0
3.0074494 3.7787535 1.2009568 0
2.6935399 3.7645614 1.8278606 0
3.2481108 3.7696586 0.14608371 0
3.1900592 3.7568681 0.70196605 0
3.2494979 3.7722578 0.032915235 0
3.0795555 3.7763002 1.0287604 0
3.0934029 3.7643349 1.032433 0
-3.0469899 3.8468065 -0.86673367 0
3.1501992 3.7672145 0.85636401 0
-3.060565 3.8544137 0.79557288 0
3.2512109 3.7754679 -0.19682497 0
3.2894933 3.7499743 0.032976866 0
3.1424654 3.7626622 0.92324948 0
3.2465005 3.7666407 -0.4297567 0
3.1887879 3.7544014 0.81308055 0
-2.9032373 3.851501 1.2933497 0
3.0410173 3.7574732 1.254425 0
2.7899036 3.7682278 1.7206674 0
-2.6119032 3.846067 1.8271482 0
3.0003304 3.7521231 1.3717904 0
3.0803084 3.7658818 1.1444147 0
3.2825224 3.7593858 0.28466046 0
3.2946575 3.7593265 -0.082580447 0
-2.7437334 3.844444 1.6398263 0
3.2948794 3.7597287 0.14489496 0
3.222671 3.7628558 0.68457091 0
-4.1591902 -2.5959234 -0.9890064 0
3.2928586 3.7560689 0.25771022 0
-2.9011412 3.8526161 1.3302894 0
3.2792802 3.7561202 0.40975857 0
3.0931005 3.7637048 1.1461639 0
-4.1152792 2.6744196 -0.98425329 0
-3.0618815 3.8563578 0.90394294 0
-4.1639786 2.5972588 -0.99015403 0
3.2395949 3.7537005 0.70373368 0
-2.3986406 3.8490818 2.1243281 0
3.1418509 3.7614269 1.0360589 0
3.2578616 3.7879303 0.36955154 0
3.0769472 3.7670743 1.2020917 0
3.2985899 3.7664483 -0.19967818 0
-3.0647383 3.8575392 0.91728878 0
-2.2834744 -4.3508468 -0.98660815 0
3.2178955 3.7476404 0.85645962 0
-2.7524652 3.8476038 1.6605496 0
2.8861573 3.7699263 1.6115704 0
3.2929039 3.7561505 -0.43321872 0
3.2914009 3.7534289 0.48159838 0
3.1903944 3.7575188 0.9259522 0
3.2501757 3.7735279 0.59342659 0
3.2976179 3.7644002 0.33905339 0
-4.1253195 -2.6773748 -0.98666966 0
3.1497374 3.7656658 1.0299101 0
3.2997637 3.768574 -0.31763095 0
3.2826102 3.7594743 0.53344822 0
3.2942593 3.7542126 0.51215935 0
2.9328804 3.769532 1.5493612 0
-3.0585699 3.8514683 1.0122302 0
-2.8955421 3.8438151 1.4365287 0
3.0773261 3.7627003 1.2646646 0
3.1369309 3.7515361 1.1480813 0
-3.2187443 3.8545029 0.12437153 0
-2.2235484 -4.3987064 -0.98275912 0
2.8592606 3.7609441 1.722919 0
3.2421756 3.7585366 0.81657505 0
-3.2268209 3.8592303 -0.078151345 0
3.3465829 3.7576375 -0.086374164 0
3.0937898 3.7651417 1.2623086 0
2.8734269 3.7555406 1.7283101 0
-3.221642 3.856199 0.32528019 0
-2.7435951 3.8442132 1.7472174 0
3.2840109 3.760885 0.65708315 0
3.3063867 3.7805681 0.36926031 0
-3.2256918 3.8585694 -0.28126138 0
3.3461607 3.7568982 0.2563045 0
3.3500137 3.7636461 0.02787447 0
3.2937856 3.7527759 0.68520963 0
3.145184 3.7503984 1.20257 0
-3.2144027 3.8519616 -0.48416442 0
-3.0551705 3.8517532 1.1142397 0
3.2983713 3.7660525 0.5942874 0
3.3506465 3.7647543 0.14212263 0
3.3502731 3.7641003 -0.20419931 0
-4.1031847 -2.7621794 -0.98744035 0
-4.1043453 2.7625391 -0.98772085 0
3.3474998 3.759244 0.36923349 0
-2.7768965 3.8539917 1.7078924 0
-2.892312 3.8387382 1.5434813 0
-2.6419954 3.8463557 1.926105 0
3.2806993 3.7575495 0.7806983 0
3.1956282 3.7676737 1.0418646 0
-3.0616431 3.8560057 1.1208906 0
3.2422271 3.7586329 0.92992175 0
-3.2224827 3.8566909 0.52613676 0
-2.909215 3.8552334 1.4919095 0
3.0767565 3.7663991 1.3784051 0
3.3534422 3.7696502 -0.32391566 0
3.3491354 3.7621078 -0.44198817 0
3.0812793 3.7669172 1.3860509 0
-3.2265468 3.8563955 0.57160413 0
3.3958385 3.7500575 0.14124954 0
-4.069438 2.8433211 -0.98568916 0
3.2925949 3.7555914 0.81921089 0
3.3437705 3.7527127 0.59484279 0
-4.0699468 -2.8434868 -0.98581278 0
-3.2126346 3.8509264 -0.69055009 0
-2.5107803 3.838702 2.142031 0
3.3718505 3.7616932 0.33868361 0
3.0044894 3.7676804 1.5531025 0
3.1909757 3.7586462 1.1551828 0
3.3026524 3.7738056 0.70791173 0
3.3977067 3.7532232 -0.20700002 0
3.2249844 3.7702258 1.0331492 0
3.1450691 3.7678969 1.2690034 0
3.2809093 3.757761 0.90396118 0
3.3542681 3.7710969 0.48240459 0
3.4018354 3.7602191 0.025043845 0
-2.1881819 -4.4680119 -0.98793602 0
3.3973572 3.7526309 -0.32560778 0
3.2960093 3.7595208 0.85954237 0
-3.2260447 3.8556979 0.68262482 0
3.4005663 3.7580688 0.25481987 0
3.4040728 3.7640104 -0.09181881 0
-3.0453186 3.8457956 1.3120496 0
3.3990693 3.755532 0.36883759 0
3.3723063 3.7630117 0.51274061 0
2.9327352 3.7689564 1.7296796 0
-2.7495842 3.8457468 1.8579671 0
3.346065 3.7567306 0.70846891 0
3.2479548 3.7693663 1.0468805 0
2.8784347 3.7611995 1.8500922 0
3.2756529 3.7524667 1.0270572 0
-3.2307973 3.8615577 0.72776031 0
-3.0687017 3.8664274 1.2305398 0
-3.2250948 3.8543789 0.79338288 0
-2.8954887 3.8437314 1.6528177 0
-4.0457301 -2.9276817 -0.98666143 0
-4.0462775 2.9278686 -0.98679495 0
3.2976334 3.7647161 0.93495548 0
-3.0553408 3.8467009 1.3377328 0
-3.2162499 3.8420942 0.90394521 0
3.2915087 3.7458689 1.032804 0
3.1474535 3.7580078 1.380672 0
-2.1319036 -4.5188313 -0.98592317 0
3.3712296 3.759897 0.68686152 0
3.4508603 3.7509181 -0.09385246 0
3.2222033 3.7613657 1.2078009 0
3.0749495 3.7600076 1.5557077 0
3.4069824 3.7689404 -0.45135379 0
3.4429631 3.7485363 0.33848631 0
3.4069338 3.7688587 0.48283243 0
3.19625 3.7688801 1.2754338 0
3.4516068 3.7521429 0.25371027 0
3.2461126 3.765914 1.1625814 0
3.4023581 3.7611051 0.5967648 0
3.4563746 3.7599638 0.021625996 0
-3.2235074 3.857291 -0.90299428 0
3.09045 3.7767 1.5091281 0
3.2951684 3.7602515 1.0497022 0
3.4563663 3.7599502 0.13778329 0
3.3528457 3.7686057 0.82422662 0
-2.9049668 3.852581 1.6908956 0
3.4536872 3.7555556 -0.33287656 0
-3.2245092 3.8578775 0.929317 0
-3.0519395 3.8416786 1.446358 0
3.2375607 3.7498887 1.2760687 0
3.3461275 3.7568402 0.93762863 0
3.0712235 3.7561905 1.6276653 0
-2.078618 -4.5722122 -0.98525441 0
-2.9025798 3.8480756 1.7239294 0
3.4606409 3.7669625 -0.21558309 0
-3.2222939 3.8504882 1.0143967 0
3.3710637 3.7594173 0.86163437 0
3.2832053 3.7600737 1.1507869 0
3.454314 3.7565837 -0.45503825 0
3.4038053 3.763557 0.71152174 0
-4.0250559 -3.0132744 -0.98867762 0
3.500277 3.7412956 0.13714767 0
-4.0280409 3.0143421 -0.98940957 0
3.0061255 3.7738016 1.7358785 0
3.4474707 3.7609971 0.51314497 0
-2.7727575 3.8495929 1.9471831 0
-3.3859053 3.8545945 -0.090010941 0
3.4622564 3.7696126 0.36805952 0
3.4508576 3.7509141 0.59761429 0
-3.388834 3.8562529 0.11660051 0
3.4593544 3.7648518 0.48324311 0
3.5072112 3.7523124 -0.098740399 0
-3.0487399 3.8478646 1.5142667 0
-2.9029589 3.855473 1.7647777 0
-2.639092 3.8431799 2.1659403 0
3.2984161 3.7661335 1.1683872 0
-3.3867536 3.8550749 0.32279229 0
-3.9874449 -3.0928204 -0.98683131 0
-3.3884635 3.8560431 -0.29842722 0
3.3477006 3.7595954 1.0545907 0
3.147433 3.7579391 1.5599167 0
3.5115528 3.7592101 0.01813674 0
3.2959933 3.7594726 1.2110953 0
3.222796 3.7632539 1.3859329 0
-2.0257421 -4.6259141 -0.98501348 0
-3.2169847 3.8534727 1.1314225 0
3.446713 3.7589028 0.68813145 0
3.5107985 3.7580118 -0.2192384 0
3.4070554 3.7690644 0.82761717 0
3.4526725 3.7538908 0.71299577 0
3.5115333 3.7591791 0.25174284 0
3.2835968 3.7604678 1.2745738 0
-3.9977827 3.0966859 -0.98937941 0
3.3703766 3.7574294 1.0372467 0
3.5060034 3.7503934 -0.460922 0
3.5205972 3.7516749 0.33796489 0
-3.9457893 3.1705613 -0.98425376 0
-3.0578079 3.8503435 1.5576169 0
3.5066373 3.7628026 0.39415407 0
-3.3887577 3.8562095 -0.50843251 0
-3.230473 3.8618491 1.1256204 0
3.5136878 3.7626023 -0.34155452 0
3.073643 3.7587714 1.7508712 0
3.5156968 3.7714181 0.26419854 0
3.2959199 3.7616131 1.2862906 0
3.5155244 3.7655199 0.3676306 0
3.5040092 3.7603033 0.52234483 0
3.5591159 3.7452226 -0.10222322 0
3.0775371 3.769161 1.7397532 0
3.4530344 3.7544844 0.82898605 0
3.4074345 3.7697065 0.94426632 0
3.5062029 3.7507102 0.59913266 0
-1.9706452 -4.6773734 -0.98421597 0
-3.9590101 -3.1757214 -0.98753023 0
3.5150816 3.7648168 0.48375487 0
3.2907479 3.7435615 1.3863347 0
-3.2239933 3.8528488 1.2359829 0
3.4471493 3.7601087 0.86391079 0
3.2765319 3.7533522 1.3978021 0
3.5632458 3.7515802 0.13342154 0
-3.4016604 3.8610091 0.56404948 0
3.3515866 3.7664006 1.1744516 0
-3.403532 3.8645759 0.52894425 0
3.5621595 3.7499075 0.25072289 0
3.4010382 3.7588682 1.059674 0
3.5030198 3.7593622 0.64984524 0
3.5669227 3.7572405 0.014677763 0
-2.9031034 3.8514173 1.8935168 0
3.5250311 3.7634056 0.51365399 0
-3.3973494 3.8553696 0.67788446 0
3.4527383 3.753999 0.94582391 0
-3.3918691 3.8579714 -0.72142684 0
3.3694873 3.7548559 1.2141261 0
-3.0568352 3.8489065 1.6680896 0
-3.9219728 -3.2552352 -0.98638403 0
3.4990499 3.7555869 0.77710164 0
3.5708611 3.7633035 -0.22639477 0
3.2217836 3.7600276 1.5654011 0
-3.3973155 3.8610556 0.7353102 0
-3.2179217 3.8540215 1.3362103 0
-1.915833 -4.7290258 -0.98379779 0
3.3473268 3.7589405 1.2924109 0
3.5636754 3.7522416 0.48402691 0
-3.0354037 3.8459527 1.7417278 0
3.5149453 3.7646 0.71666145 0
-3.3980341 3.8562653 0.79095149 0
-3.22365 3.8523724 1.3471689 0
3.4455624 3.7557218 1.0401273 0
3.5257139 3.7652118 0.68987775 0
3.6000702 3.7571056 0.16051459 0
-2.9025283 3.8480227 1.967608 0
3.1489801 3.7631271 1.7435403 0
3.5746422 3.7691245 0.36702168 0
-3.879446 -3.3322883 -0.98413897 0
3.5755696 3.7705522 -0.35079747 0
-3.9379525 3.2617373 -0.99036694 0
-3.8815513 3.3331802 -0.98466682 0
-3.0570927 3.8529155 1.7208593 0
3.5717454 3.7646649 -0.47363389 0
3.2782073 3.7550395 1.5225501 0
3.4053569 3.7661865 1.1806417 0
3.5127556 3.761121 0.83354044 0
3.6000512 3.7570574 0.33737755 0
3.6164684 3.7451141 -0.35109568 0
3.5960977 3.7470343 0.51383424 0
-3.3894782 3.8566177 -0.93612409 0
3.5044787 3.7607496 0.90396583 0
3.4584332 3.7633405 1.0661585 0
3.0858889 3.7718346 1.8778965 0
-2.7707882 3.8475001 2.1907868 0
3.5712962 3.7639737 0.60155606 0
3.6245859 3.7572272 -0.23116028 0
-3.4031839 3.8630016 0.90394878 0
3.6302507 3.7656808 0.0095304251 0
-3.2236967 3.8524373 1.4588904 0
-1.8679743 -4.7880254 -0.98637903 0
3.5129097 3.7613659 0.95183456 0
3.6315889 3.7676778 0.12895298 0
-3.8460202 -3.4130671 -0.98445308 0
3.4990325 3.7555702 1.0308292 0
-3.0613899 3.8556316 1.7811875 0
-3.4042296 3.8649709 0.94325328 0
3.6305895 3.7661862 0.24803567 0
3.5611567 3.748364 0.8354224 0
3.6336889 3.7708113 -0.11211109 0
3.5713913 3.7641199 0.71928656 0
3.6224155 3.7539885 -0.47872347 0
3.4545791 3.7570186 1.1846719 0
3.445328 3.7550738 1.2181637 0
3.5294251 3.7750304 0.86763215 0
3.2960873 3.7597568 1.5705962 0
3.6291163 3.7639878 0.36657286 0
3.6181145 3.74757 0.6021899 0
3.4072676 3.7694242 1.3029041 0
3.6740165 3.7436855 -0.11215281 0
3.5995574 3.7558053 0.69081211 0
-3.404294 3.864454 1.0171862 0
3.3751767 3.7713172 1.3966963 0
3.5211802 3.753217 1.0430593 0
3.6294413 3.7644725 0.48483729 0
3.6751394 3.7492478 0.15942681 0
3.5105138 3.7575595 1.0705345 0
3.2222886 3.761637 1.7489066 0
-3.2195644 3.8466976 1.57022 0
-3.5686555 3.8584733 0.10831022 0
-3.8681736 3.4228294 -0.99004221 0
3.2853239 3.7622075 1.6491759 0
3.4988198 3.755368 1.1578169 0
3.6806951 3.7533495 -0.23667347 0
3.6807024 3.7533603 0.2471137 0
3.6760221 3.751395 0.33697379 0
3.6834567 3.7573457 0.1271472 0
-3.5752215 3.8620682 -0.10480011 0
-3.3918476 3.8579595 1.1503046 0
-3.3995767 3.8582835 1.1301842 0
-3.2312641 3.8618312 1.5461459 0
-3.8165064 3.4956996 -0.98605537 0
3.6242561 3.7567351 0.7212944 0
-3.5727453 3.8607123 0.3199079 0
3.6882439 3.7642727 0.0056669712 0
-3.8182192 -3.496484 -0.98649037 0
3.5074105 3.752629 1.1902337 0
-1.8215277 -4.8490009 -0.98989439 0
3.6775885 3.7488544 0.48508477 0
3.6756568 3.7505066 0.5144093 0
3.6846557 3.7590809 0.36609817 0
3.6849961 3.7595735 -0.36275679 0
-3.5804577 3.8649349 -0.31955475 0
3.6016951 3.761225 0.86878335 0
3.5741668 3.7683928 0.95799923 0
3.4445505 3.7529247 1.3978219 0
-3.0567317 3.8526974 1.9287686 0
-1.7530704 -4.8857889 -0.98493624 0
-3.5709085 3.8597066 -0.53390789 0
3.5198336 3.749655 1.2214522 0
3.3703535 3.7573617 1.575557 0
3.4646418 3.7735255 1.3117547 0
3.718519 3.742533 0.38091159 0
-3.0368981 3.8474524 1.989253 0
3.6872694 3.7628629 -0.49046648 0
3.6719294 3.7406654 0.72247875 0
-3.5768471 3.8629582 0.53157353 0
3.6813796 3.7543399 0.60434866 0
-3.2209234 3.8485856 1.6834953 0
3.2943974 3.7546313 1.7530379 0
-3.7788124 -3.5746841 -0.98587883 0
-3.1786628 3.8503182 1.762121 0
3.629477 3.7645259 0.84169888 0
3.5039058 3.7602046 1.2855783 0
-3.4042292 3.8643694 1.2441454 0
3.2837691 3.7606416 1.7750816 0
3.6767001 3.7530439 0.69218826 0
3.7375515 3.7491043 -0.24234617 0
3.5717115 3.7646129 1.0780981 0
3.7420249 3.7553837 0.0027673244 0
-3.5770817 3.8559806 0.67268491 0
-3.5861883 3.8672101 0.55572712 0
-2.9021206 3.8476017 2.2151051 0
3.7527385 3.7457535 0.15802252 0
3.7438102 3.7578893 0.12407529 0
-3.5659719 3.8570037 -0.75090301 0
3.7453003 3.7599809 -0.12075073 0
3.7388554 3.7509344 0.36567116 0
-3.793364 3.5816007 -0.98959863 0
3.7400024 3.7618208 0.24570417 0
3.6013119 3.7602537 1.04741 0
3.6260798 3.7594564 0.96134603 0
-3.3954749 3.8529181 1.3567736 0
-3.7332249 -3.6497731 -0.98395944 0
3.5132453 3.7618992 1.3159647 0
-3.2133985 3.8513737 1.7516899 0
3.7353618 3.7460308 -0.49417645 0
3.7415848 3.7547655 -0.3693524 0
3.5659719 3.7557769 1.1981297 0
-3.394453 3.8594348 1.3608692 0
-1.7010345 -4.9408164 -0.98684371 0
-3.5796261 3.8644798 0.74374521 0
-3.5787325 3.8580167 0.78831995 0
3.4974363 3.7540522 1.4125946 0
3.7509184 3.7678668 0.24437761 0
3.7579288 3.7578833 0.33631635 0
3.7383163 3.7603071 0.51031303 0
3.7532272 3.7468965 0.51487494 0
3.6236956 3.7558987 1.0822492 0
-3.7504458 3.6582623 -0.988392 0
3.5206208 3.7517374 1.4027345 0
3.7482796 3.7641633 0.48601222 0
3.7413285 3.754406 0.60615611 0
-3.2236595 3.852386 1.7981939 0
3.6879361 3.7638276 0.84566641 0
3.7978282 3.7480893 0.12200034 0
3.6816874 3.7651765 0.87171865 0
3.5622187 3.749999 1.3203478 0
3.7967553 3.746628 0.24387169 0
3.8015881 3.7532101 -0.0013024807 0
-3.3964429 3.8541842 1.4710922 0
3.7403543 3.7621369 0.64164186 0
3.6806979 3.7533536 0.96541405 0
3.7516704 3.7432578 0.69323504 0
3.370223 3.7569849 1.7601349 0
3.7298234 3.7526822 0.77320635 0
3.7971587 3.7471774 0.36512792 0
3.7401023 3.7526848 0.72676551 0
3.2874126 3.7643113 1.9032416 0
-3.5842896 3.8648689 0.90395212 0
-3.5714784 3.8600187 -0.97321701 0
3.6009517 3.7593405 1.2275119 0
-3.7031269 -3.732528 -0.98631907 0
3.4504466 3.7692249 1.5843043 0
3.8066239 3.7600687 -0.12645423 0
3.6217563 3.7530048 1.2046885 0
-1.6491265 -4.9963374 -0.98916316 0
3.6757193 3.7506583 1.0497303 0
-3.5814171 3.8654604 0.95681787 0
3.8021674 3.753999 -0.377406 0
-1.5749846 -5.024972 -0.98242319 0
-3.7117248 3.7369206 -0.98854816 0
3.808908 3.7631798 -0.25269198 0
3.7253883 3.7487001 0.90397024 0
3.6793332 3.751379 1.0876079 0
3.8311996 3.7422745 0.33605456 0
3.796226 3.7459068 0.60748136 0
-3.5838842 3.8643692 1.0197744 0
3.7415929 3.7547772 0.84854102 0
3.8040619 3.7565796 0.48647559 0
3.8038917 3.7563479 -0.50717807 0
-3.5735855 3.8516693 1.1349604 0
3.5116928 3.7676103 1.5430923 0
-3.3968859 3.8608124 1.5739474 0
3.8302736 3.7401931 0.51530564 0
-3.3975906 3.8556857 1.5861506 0
3.5966234 3.7483671 1.4074459 0
-3.6689558 3.8134792 -0.98794115 0
3.842886 3.7685392 0.15503836 0
3.8637156 3.7528374 -0.0058244467 0
3.863009 3.7519031 0.118325 0
3.6240044 3.7563596 1.330888 0
3.7264578 3.7496603 1.0346291 0
-3.6724353 -3.8153203 -0.98885 0
-3.1817365 3.8533161 2.0139771 0
3.8571935 3.7442157 0.36454308 0
-3.0361137 3.8466651 2.2400861 0
-3.5730634 3.8608863 1.1699195 0
-3.7509084 3.8568375 -0.33751267 0
-3.2175031 3.8537762 1.9659388 0
-1.5219812 -5.0792012 -0.98486698 0
-3.7634997 3.8634992 -0.11936432 0
3.4458034 3.7563879 1.7667365 0
3.7453294 3.7600222 0.97215867 0
3.8663087 3.7562647 0.24128842 0
3.7622347 3.767946 0.874668 0
3.68226 3.7556138 1.2130456 0
3.867116 3.7573326 -0.25854218 0
3.8634872 3.7525351 -0.38559514 0
3.5265267 3.7673619 1.589994 0
3.8726006 3.7645822 -0.13327211 0
3.8593826 3.7471097 -0.51407874 0
3.8088431 3.7630916 0.73102784 0
-3.3336973 3.8616793 1.7853763 0
-3.577302 3.8562524 1.2511916 0
-3.7751193 3.8696465 0.098504663 0
-3.7686768 3.8662379 0.31685066 0
3.6816688 3.7651312 1.2331386 0
3.5092845 3.7653201 1.6719873 0
3.7564301 3.7543809 1.0539851 0
-3.3985901 3.8569932 1.702013 0
-3.6320448 -3.8931801 -0.98915863 0
3.7438617 3.7579615 1.09586 0
-3.7601185 3.8617101 -0.5604471 0
3.8071971 3.7608497 0.8538661 0
3.8629956 3.7518857 0.6098237 0
3.8710732 3.7625632 0.48725832 0
-3.7671576 3.8586183 0.54807842 0
3.8399343 3.761905 0.69598103 0
3.7325079 3.7550921 1.1658089 0
3.9228439 3.7468834 -0.0096660256 0
3.9167089 3.7520845 0.15422571 0
3.6825435 3.7560241 1.3396389 0
-3.5764618 -3.9625015 -0.98573351 0
3.9142051 3.7466676 0.33538628 0
-1.4687605 -5.1336017 -0.98759973 0
3.8018403 3.7535534 0.97657394 0
3.9279118 3.7533872 0.11476374 0
3.8347774 3.7503154 0.87579274 0
-3.7775378 3.8709261 0.53472424 0
3.9218245 3.7455757 -0.39252305 0
3.9297285 3.7557189 -0.13766915 0
-3.5711493 3.8598387 1.3853514 0
-3.7704911 3.8624961 0.66668022 0
3.599174 3.7548335 1.593338 0
3.9289479 3.7547169 0.23935354 0
-3.5211072 -4.0314856 -0.9826051 0
-3.5820665 3.8621273 1.3682323 0
3.9313674 3.7578218 -0.26622361 0
3.5220873 3.7556174 1.773633 0
-3.3976603 3.8612511 1.7896948 0
3.8701725 3.7613723 0.73411381 0
3.504457 3.7607288 1.8010249 0
3.9236841 3.7479622 0.48761547 0
-3.3962955 3.8539915 1.8178205 0
-3.7669578 3.8653286 0.75241137 0
3.9226789 3.7466722 -0.52431476 0
3.6803107 3.7618277 1.4159501 0
3.917737 3.7543094 0.51616061 0
3.755939 3.7532332 1.2359509 0
3.9321151 3.7587814 0.36354494 0
-3.770123 3.8620682 0.78539515 0
3.8644347 3.7537878 0.85737062 0
3.7523475 3.7698731 1.2250347 0
3.7388666 3.7608008 1.2976816 0
3.832098 3.7442935 1.0565662 0
3.9822221 3.7397943 -0.013505697 0
3.9258609 3.7507553 0.61178315 0
-3.7758217 3.870018 -0.78802097 0
3.8072095 3.7608664 1.103534 0
-1.4141636 -5.1866698 -0.99011409 0
-3.5781488 3.8572965 1.4845243 0
-3.7524881 3.8576732 0.96967435 0
3.9178934 3.7546475 0.69732213 0
-3.769887 3.8617938 0.90395546 0
3.7437687 3.7578311 1.3494587 0
3.4920263 3.7489073 1.9287658 0
3.9865179 3.7451475 0.23787534 0
3.9743354 3.748651 0.36253953 0
3.9867005 3.7453749 -0.2709977 0
3.9814999 3.7547214 0.22497702 0
-3.3221455 3.8507311 2.036932 0
3.8668871 3.7570293 0.98317206 0
3.993012 3.7532394 0.11124098 0
3.9864926 3.7451155 0.36314332 0
3.9810972 3.7383926 0.48810613 0
-1.3473096 -5.2232761 -0.98741865 0
3.9986415 3.7514756 0.15242517 0
-3.4905272 -4.1150188 -0.98639882 0
3.733948 3.7563853 1.4289677 0
3.9965172 3.7576075 -0.14446551 0
3.9215269 3.7451932 0.86080289 0
-3.1838455 3.8553727 2.2698681 0
-3.7702212 3.8621824 1.0225194 0
3.9802773 3.7536855 0.49786854 0
3.9164786 3.7515862 0.87884653 0
3.8608975 3.7491119 1.1079385 0
3.9998598 3.7540152 0.33463323 0
3.67872 3.7579577 1.6008677 0
-3.5712371 3.8598866 1.6034698 0
3.7564526 3.7544334 1.4203498 0
3.9377441 3.7660053 0.73803568 0
-3.432735 -4.1821351 -0.98314381 0
3.974036 3.7483974 0.63386297 0
-3.4795351 3.8598874 1.8058538 0
3.9909186 3.7506309 -0.53648883 0
-3.5803056 3.8599563 1.6025167 0
3.6014047 3.7604887 1.7825077 0
3.9985929 3.7601938 -0.40616411 0
3.9971848 3.7484381 0.51665878 0
3.8151274 3.7716508 1.2338617 0
-3.3840451 3.8535409 2.004581 0
3.8361497 3.7533996 1.2410567 0
3.9704154 3.7453294 0.76910269 0
3.8021646 3.7539949 1.3577957 0
-3.7693415 3.8611586 1.141149 0
-1.2886715 -5.2711167 -0.98874247 0
3.9240351 3.7484126 0.987602 0
4.052496 3.7444689 -0.14845049 0
3.9966674 3.7473595 0.69873548 0
4.0518227 3.7436545 -0.27873176 0
-3.7643347 3.8639407 1.1907775 0
3.8628397 3.7516794 1.2367473 0
3.9900465 3.7495444 0.73974442 0
4.0581331 3.7512908 -0.020485997 0
4.0575786 3.7506199 0.10785162 0
-1.2174911 -5.3008056 -0.98444366 0
4.0016851 3.7640467 0.61479449 0
-3.9587069 3.8630989 0.090126276 0
-3.5761671 3.8548529 1.7198007 0
4.0526314 3.7446332 -0.41125643 0
3.9202952 3.7598441 1.0627782 0
4.0613756 3.7552149 0.23498893 0
3.9734147 3.7478707 0.90397549 0
-3.3950171 -4.2617311 -0.98563528 0
4.0575228 3.7505522 0.36228681 0
-3.7671633 3.8586252 1.2598343 0
3.7462428 3.7674234 1.5632224 0
3.6738276 3.7460563 1.78617 0
4.0513391 3.7430694 -0.54514098 0
3.9261422 3.7511165 1.1159711 0
4.0554733 3.7480721 0.48905694 0
-3.9622135 3.8648906 0.31386423 0
-3.9627814 3.8651805 -0.36106706 0
3.9962673 3.7465255 0.88142002 0
-3.9580622 3.8514383 0.53960896 0
4.080595 3.7486656 0.33409846 0
3.8613138 3.7496626 1.3663363 0
3.758378 3.7589338 1.6081896 0
4.0858107 3.7591507 0.15005839 0
-3.9791551 3.8735456 -0.13651007 0
4.0757613 3.7389476 0.5171119 0
3.8369541 3.7552068 1.4267464 0
3.731704 3.7543705 1.6939113 0
4.056962 3.7498734 0.61604786 0
3.9997911 3.761687 0.86835229 0
-1.1581974 -5.3477054 -0.9860388 0
4.1164913 3.7396266 -0.02399236 0
-3.9580383 3.8627574 -0.58833694 0
-3.9644327 3.8660243 0.53757918 0
-3.754107 3.8585296 1.4107699 0
-3.4613652 3.8431547 2.0592251 0
3.9176264 3.75407 1.2464838 0
3.9790819 3.7526724 1.039113 0
3.9926944 3.7528436 0.99489796 0
-3.5762095 3.8626091 1.8258624 0
-3.7709379 3.8630161 1.3796039 0
4.1228371 3.7470868 0.10442019 0
-3.3538704 -4.3394389 -0.98751414 0
-3.3179321 3.8467381 2.2941654 0
3.9280372 3.7535486 1.2462564 0
3.9814262 3.7388029 1.1207595 0
-3.9676218 3.8619339 0.66061735 0
4.0595655 3.7530248 0.74382114 0
-3.5817738 3.8617663 1.8405938 0
-3.9511714 3.8592494 -0.81729722 0
4.0798593 3.7471859 0.70064116 0
4.1282177 3.7534115 0.23281062 0
4.1269689 3.7519433 -0.28935134 0
4.1261597 3.7509918 0.36151123 0
4.1331472 3.7592063 -0.15844649 0
-3.2955413 -4.4056683 -0.98491144 0
-1.0985765 -5.3944378 -0.98783743 0
4.002255 3.7590077 1.0669727 0
4.1237555 3.7481656 0.48982394 0
-3.9703164 3.8648922 0.78226101 0
4.1289949 3.7543254 -0.42429835 0
4.1608567 3.7404492 0.14915597 0
4.0596509 3.7531278 0.87217855 0
-3.9716787 3.8697262 0.76203704 0
3.9820821 3.7552145 1.1745803 0
3.7324936 3.7550795 1.8279328 0
4.1249285 3.7495451 -0.55913961 0
-3.6292 3.8574469 1.8270757 0
4.051105 3.7427859 0.99950457 0
3.8368192 3.7549045 1.6145804 0
3.9837184 3.7416587 1.2520773 0
3.7570391 3.7558048 1.7972035 0
4.1558285 3.7306936 0.51761484 0
4.12708 3.752074 0.61849725 0
-3.9688444 3.863276 0.90395916 0
4.1647911 3.7480834 0.33344364 0
3.9328513 3.7597263 1.3801491 0
-3.9537935 3.8605888 0.98541832 0
4.0822182 3.7519286 0.88514555 0
-3.7796392 3.8731377 1.501049 0
4.1883316 3.7421017 0.10100651 0
3.9744494 3.7487473 1.3095503 0
-3.2486758 -4.479629 -0.98579025 0
-1.0352328 -5.4355545 -0.98812032 0
4.1918812 3.7461555 -0.16295993 0
4.1941767 3.7487774 -0.031075478 0
3.9237647 3.7673504 1.4358664 0
3.9999022 3.7541034 1.2520404 0
4.1852036 3.7385294 -0.43001658 0
4.1281776 3.7533643 0.74770069 0
4.1890984 3.7429774 0.36089933 0
4.1945653 3.7492208 0.2307049 0
-3.7610297 3.8621922 1.636168 0
4.1974306 3.7524927 -0.29838139 0
-3.9752264 3.8702829 1.0258276 0
3.9864268 3.7450335 1.3859658 0
-3.7753382 3.8681345 1.6209762 0
-0.96914101 -5.4721789 -0.98728168 0
4.0821924 3.7518771 1.0704944 0
3.7341378 3.7565556 1.9632499 0
4.2317581 3.7414279 0.061572909 0
4.1914101 3.7456176 -0.56998241 0
-3.5780396 3.863611 2.0513089 0
4.0647063 3.7592459 1.134063 0
4.2272758 3.7378457 0.34494841 0
4.1682706 3.7548344 0.70309198 0
4.1907721 3.7448888 0.62039316 0
-3.2027268 -4.5544147 -0.98724103 0
3.9771082 3.7510002 1.4457538 0
4.1331773 3.7592416 0.87855422 0
4.2012053 3.7568035 0.49082136 0
3.8344612 3.7496049 1.8039787 0
3.9164281 3.751477 1.6214514 0
-3.9751301 3.8701773 1.1478214 0
4.2457705 3.7391598 0.33292496 0
4.2439098 3.7511389 0.20155966 0
-0.9032166 -5.5089436 -0.9867878 0
3.9988246 3.7518566 1.4393578 0
-3.9655805 3.8666105 1.212853 0
-3.9615474 3.8552651 1.2686722 0
4.1650653 3.748615 0.88816142 0
4.2528901 3.7525012 0.14635634 0
4.2606306 3.7429829 -0.16981632 0
4.1309295 3.7565992 1.0093043 0
-3.1443906 -4.6201468 -0.98543859 0
-3.7734647 3.8659554 1.7419951 0
3.9673374 3.7427213 1.5808086 0
4.2395792 3.7476776 0.48413658 0
4.266531 3.7495296 -0.037044942 0
4.0653062 3.7599721 1.2672501 0
4.1979084 3.7530386 0.75166535 0
4.0809999 3.7494791 1.2570205 0
4.2658319 3.7487545 0.22824264 0
-4.1683273 3.8642626 -0.15093809 0
4.2666831 3.7496984 -0.30691594 0
4.2653456 3.7482147 0.35994697 0
-0.83513522 -5.5417914 -0.98538554 0
4.2505012 3.7480247 0.51865029 0
4.2631931 3.7458262 -0.44323462 0
-5.5280342 -0.9500193 -0.98772156 0
-3.4808135 3.8610647 2.3286786 0
-4.1803231 3.8701758 0.079579234 0
4.229907 3.7399483 0.76452303 0
4.2785363 3.7628503 0.094407797 0
4.2441788 3.7513533 0.62406361 0
4.0571089 3.750052 1.398968 0
4.1326504 3.7586222 1.1424556 0
4.2672439 3.7503207 0.4915024 0
-4.1779509 3.8690066 0.31046629 0
4.1637449 3.7460535 1.0743804 0
-3.0929823 -4.6909776 -0.98591113 0
-3.6372275 3.8646295 2.0926204 0
-4.1756167 3.8678558 -0.38457125 0
-3.7622123 3.862818 1.8636985 0
-0.76390791 -5.568563 -0.98243952 0
-3.7683434 3.8599982 1.8628709 0
4.2641668 3.7469063 0.62302697 0
-5.5258818 -1.0540679 -0.98744798 0
-3.9698582 3.8643894 1.3920133 0
4.2682753 3.7514653 -0.58483303 0
-5.5269828 1.0540836 -0.98766196 0
3.9140196 3.7462661 1.8119693 0
4.2081633 3.7647493 0.88508201 0
-4.1742883 3.8672009 0.54086232 0
4.1246605 3.7492301 1.2741539 0
4.0764914 3.7404158 1.4439864 0
-5.5165777 -1.1578927 -0.98607314 0
4.2568369 3.7598965 0.70548296 0
4.1989231 3.7541974 1.0160527 0
4.3323774 3.7386367 0.14500737 0
-3.7952342 3.8650677 1.8522606 0
4.0008841 3.7561491 1.6307344 0
4.2367029 3.7453792 0.90398133 0
-3.9690175 3.8683665 1.4416895 0
3.9757197 3.7498236 1.7193477 0
4.3355999 3.7446778 0.0922122 0
-5.5258598 1.1581584 -0.98787808 0
4.3356733 3.7447572 -0.17804408 0
4.2486906 3.744632 0.89125121 0
-4.1823745 3.8687027 0.65354908 0
-0.69898939 -5.6067181 -0.98326969 0
4.3349428 3.7432821 0.33211911 0
4.3394589 3.7488384 0.22563553 0
4.3425093 3.7521274 -0.043575585 0
-3.0442042 -4.7640014 -0.98746324 0
-4.1894026 3.8746519 -0.62193394 0
4.2738075 3.7576032 0.75637412 0
4.1953802 3.7501516 1.1491764 0
-3.9697218 3.8642397 1.5150011 0
4.3398981 3.7493122 -0.31646401 0
-4.1779709 3.8641384 0.77897155 0
4.2642965 3.74705 0.88803506 0
4.23382 3.7430754 1.043556 0
4.3532391 -3.6205838 -0.98457372 0
4.3405142 3.7499759 0.35903895 0
4.1242027 3.7486916 1.4102392 0
-5.5224056 -1.2621863 -0.98793054 0
-5.5236096 1.262238 -0.98816478 0
-4.1850171 3.8724899 0.77209496 0
4.3384418 3.7477424 0.49230778 0
4.3408775 3.7503679 -0.45611089 0
4.3577471 3.6284788 -0.98700964 0
4.1718607 3.7618005 1.2652631 0
-5.5086107 1.3656507 -0.98625946 0
-2.9843106 -4.8281794 -0.98602474 0
4.3403873 3.7531431 0.51947737 0
-4.1813874 3.8707004 -0.85829139 0
4.337285 3.7464945 -0.59632778 0
-5.5124106 -1.3658684 -0.98699939 0
4.3278341 3.736306 0.75818861 0
4.415596 -3.5780365 -0.98310292 0
4.2499819 3.747051 1.079407 0
3.9944658 3.74277 1.8203053 0
4.3402448 3.7496858 0.62582493 0
4.2654796 3.748363 1.0223632 0
-4.1841087 3.8705001 0.90396357 0
4.1952543 3.7500074 1.2849388 0
-0.637604 -5.6520815 -0.98653889 0
-5.4954696 1.4689364 -0.98500252 0
4.337121 3.7472274 0.70690691 0
4.4196486 3.5849035 -0.98523939 0
4.3960495 3.728997 0.35864127 0
-3.9692087 3.8636765 1.638572 0
-5.4992781 -1.4692094 -0.98574483 0
4.2364178 3.7451518 1.1834373 0
4.4047918 3.7381556 0.0884794 0
4.0808506 3.7491796 1.6373925 0
4.4066091 3.7400591 -0.047889948 0
3.9832785 3.756228 1.8591325 0
-3.7620974 3.862757 2.0946283 0
4.1631784 3.7449539 1.4523857 0
-3.9682603 3.8679798 1.6724272 0
4.4181414 3.7342465 -0.23661232 0
4.407938 3.7414515 -0.32441461 0
-2.9302473 -4.8970714 -0.9866066 0
-5.4911289 1.5728154 -0.98574936 0
4.4151783 3.7490363 0.2229085 0
-5.4915304 -1.57285 -0.98582768 0
4.4162793 3.7309859 -0.42804694 0
-4.1925383 3.8761976 1.0046995 0
-4.188345 3.8748913 1.0293036 0
4.4250498 3.7463453 -0.047441602 0
4.483748 -3.5452673 -0.98496664 0
4.4187145 3.7527416 -0.18797845 0
4.4839334 3.5455711 -0.985062 0
4.4086809 3.7422299 0.49307787 0
4.4276743 3.750942 0.14199948 0
4.3389826 3.7505987 0.89547896 0
4.2496767 3.7464793 1.2688386 0
-0.5740869 -5.6939116 -0.9889946 0
4.3428993 3.7525475 0.89504588 0
-3.6378474 3.8651845 2.3605764 0
4.4262609 3.7484663 0.33125973 0
4.1993999 3.7547421 1.4246321 0
4.2763 3.7603688 1.161108 0
3.9719737 3.74665 1.9957962 0
-0.49856758 -5.710907 -0.98434865 0
4.261941 3.744437 1.2942028 0
4.4214706 3.7556286 -0.46974629 0
-4.1725693 3.8663535 1.235554 0
4.4133148 3.7470846 -0.6104039 0
-5.4873986 -1.6768878 -0.98690677 0
-3.7991881 3.8685052 2.1212554 0
4.5457926 3.5023925 -0.98395526 0
-5.4884572 1.6769941 -0.9871136 0
-3.9769707 3.8721979 1.7649393 0
-4.1727705 3.8587475 1.2789583 0
4.3391953 3.7485542 1.0302644 0
4.0759768 3.7393811 1.8290765 0
-2.878706 -4.9682746 -0.98826694 0
4.5481949 -3.5062087 -0.98516345 0
-4.1921778 3.8788638 1.1550367 0
4.4291606 3.7535446 0.52024221 0
4.4243717 3.7451584 -0.62524939 0
-0.42638564 -5.7340961 -0.98187423 0
4.4097376 3.7433372 0.76354718 0
4.2588415 3.7630718 1.3255532 0
4.3314152 3.7401667 1.1654391 0
-5.443234 -1.8809009 -0.98290873 0
4.2461329 3.7398384 1.4589949 0
4.4271855 3.7616158 0.62940276 0
4.4185705 3.7349985 -0.81982613 0
4.4867926 3.7429144 0.083189607 0
-5.478878 -1.7806021 -0.98741996 0
4.1672797 3.7529118 1.6471758 0
-5.4792824 1.7806487 -0.98749912 0
4.4279747 3.7514684 0.70943213 0
4.4874325 3.7435656 -0.19450563 0
4.3448725 3.7612646 1.0864997 0
4.5062532 3.7316549 -0.049896955 0
4.4857645 3.7418671 -0.33499628 0
-3.9600973 3.8638093 1.9043388 0
4.4928055 3.7490358 -0.056044221 0
4.2621431 3.7446611 1.4337785 0
4.4902897 3.7464743 0.22026658 0
-5.4538856 1.8822806 -0.98499644 0
-2.819891 -5.0332704 -0.98800933 0
-3.967289 3.8728917 1.8786469 0
4.4875803 3.7437162 0.35734534 0
-3.9719095 3.866641 1.8892283 0
4.5058918 3.7310426 0.33082485 0
4.4837742 3.7398417 0.49395978 0
4.4141459 3.7479551 0.90063012 0
4.5088797 3.7361062 -0.24240357 0
4.6165419 3.4730866 -0.9875524 0
4.4220109 3.7410233 0.8983053 0
4.4881144 3.7442601 -0.4785639 0
-2.7483087 -5.0864887 -0.9840312 0
4.6186619 -3.476351 -0.98859537 0
4.3286657 3.7372019 1.303365 0
-0.36083937 -5.7718687 -0.98398173 0
4.5143261 3.7453349 0.13997364 0
4.5197592 3.7431152 0.029447079 0
4.3357105 3.7446735 1.2750888 0
4.4829559 3.7390084 0.63058484 0
4.5202532 3.7434874 0.1765883 0
4.5090561 3.7364047 -0.43616694 0
4.2632332 3.7665808 1.4673154 0
-4.4075904 3.8735399 0.30682385 0
-5.4428453 1.9856308 -0.98559344 0
-4.1893311 3.8759134 1.4068193 0
-4.4150081 3.8770652 -0.17085189 0
-5.4443192 -1.9858429 -0.98588276 0
4.5208178 3.7439127 0.32295167 0
-4.4190898 3.8790054 0.0681144 0
4.2391796 3.7473588 1.6057 0
4.4131622 3.7469244 1.0381045 0
4.4909706 3.7471678 -0.62489474 0
4.6774726 -3.4284127 -0.98655224 0
4.4807301 3.7367423 0.76745343 0
-4.3998733 3.8698719 0.54442692 0
-4.1825089 3.8712535 1.4721165 0
-2.6860809 -5.1479182 -0.98321486 0
-4.3983307 3.8642879 0.64661074 0
4.2449131 3.7375534 1.6523604 0
-0.29198503 -5.8023772 -0.98423922 0
-4.4182415 3.878602 -0.41196072 0
4.1627192 3.7440631 1.8406963 0
4.5261517 3.7479303 0.46829581 0
4.5123882 3.7420504 -0.63331676 0
4.5184031 3.7522423 0.52100468 0
4.7331719 3.3763287 -0.98341143 0
4.516571 3.7407141 0.61434722 0
4.4236836 3.743953 1.0893846 0
4.5083675 3.7352378 0.71081185 0
-4.1813545 3.8676453 1.532218 0
-5.4313259 -2.0890152 -0.98638821 0
-0.21641588 -5.8163276 -0.97999787 0
-4.4060216 3.8727942 -0.65268731 0
4.7366915 -3.3814213 -0.98507023 0
4.481308 3.7373309 0.9054296 0
4.2271633 3.7377558 1.7455692 0
4.6911421 3.4488108 -0.99313164 0
4.5890779 3.7180502 0.13918471 0
4.4135151 3.7472939 1.1773844 0
4.5670319 3.7434797 -0.20339495 0
-5.441154 2.0905755 -0.9883225 0
4.5082884 3.7351034 -0.83024657 0
4.5653682 3.7418337 0.35641015 0
4.5702376 3.7466514 0.21730256 0
-4.4041328 3.8699667 0.77517009 0
4.5730762 3.7494597 -0.063038111 0
4.5734606 3.7498395 0.077408314 0
4.5683279 3.7447617 -0.34672302 0
4.3412275 3.7507453 1.4492812 0
4.792882 -3.330426 -0.9825331 0
-3.7932701 3.8633606 2.3914866 0
4.3386126 3.7499282 1.4692955 0
4.5630298 3.7395205 0.49493229 0
-4.4083033 3.8738785 0.78265953 0
4.5228539 3.7454462 0.75906289 0
4.5065298 3.7331512 0.90398717 0
-5.4180202 2.1922305 -0.9871242 0
4.4814577 3.7374833 1.0445552 0
4.5688872 3.7453153 -0.49189919 0
-5.4188514 -2.1923745 -0.98728824 0
-2.6341686 -5.2192917 -0.98599529 0
4.6022778 3.7397029 -0.054822326 0
4.5130491 3.74317 0.90246677 0
-4.4051256 3.8709381 0.90396798 0
-3.957305 3.8644598 2.1483679 0
-4.4054823 3.8725379 -0.89765513 0
4.423151 3.7430198 1.2816417 0
4.4118509 3.7455506 1.3179297 0
-4.1839418 3.8703272 1.6599038 0
4.6006479 3.7370293 0.32988453 0
4.5669947 3.7434425 0.6338582 0
-5.3903947 -2.292882 -0.98532176 0
4.8061433 3.3490403 -0.988657 0
4.6053824 3.7447965 -0.24941379 0
-3.9713273 3.8695467 2.1452103 0
4.5999045 3.73581 0.52149045 0
4.5735931 3.7499712 -0.64105368 0
-0.15567088 -5.8674479 -0.98676801 0
4.8593426 -3.2938497 -0.98502827 0
-5.3613448 2.3929949 -0.98351681 0
-4.185678 3.8728158 1.7106214 0
4.5965214 3.7302601 -0.63976383 0
-4.4054813 3.8712864 1.03281 0
4.2318735 3.7415199 1.8891582 0
-2.5722423 -5.2811289 -0.98587227 0
-5.4066782 2.2959471 -0.98854244 0
4.5678749 3.7443135 0.77330422 0
4.4838362 3.7399044 1.1858613 0
-4.17486 3.8609135 1.7858391 0
4.6110334 3.7540662 -0.44687426 0
4.5214672 3.7444022 1.0488725 0
-4.4150295 3.8770757 1.022254 0
-2.4952426 -5.3274035 -0.98103654 0
4.8664436 3.3035209 -0.98824322 0
4.2519484 3.750737 1.8533854 0
-4.1265035 3.8651292 1.9014685 0
-0.081012011 -5.8830757 -0.9836117 0
4.6404343 3.7351916 -0.35545856 0
4.9149704 -3.2424862 -0.98290038 0
4.3379574 3.7487423 1.6648798 0
4.6473536 3.7418439 0.21458507 0
4.4185095 3.7348912 1.4743512 0
-5.3814783 -2.3970842 -0.9875102 0
4.6451387 3.7397146 0.35543919 0
4.6531353 3.7474027 -0.069899261 0
4.5188513 3.7530024 1.0962124 0
4.6515198 3.7458491 -0.21323711 0
4.6047735 3.743798 0.71379554 0
4.5687132 3.7451429 0.91368437 0
4.6570368 3.7511532 0.072093248 0
4.5133047 3.7382538 1.1934381 0
-4.4070945 3.8728652 1.1618972 0
4.4202318 3.7543306 1.464488 0
4.6431298 3.7377832 -0.50295621 0
4.5999508 3.7358859 -0.84128726 0
4.9250484 3.2558086 -0.98737645 0
4.6478767 3.7423468 0.49602699 0
-5.3572326 -2.4982953 -0.98695207 0
-0.011386633 -5.9119716 -0.9845469 0
-5.3611884 2.4991579 -0.98773909 0
4.5103922 3.7386692 1.2879832 0
4.6451464 3.739722 -0.65286231 0
4.6046748 3.7436354 0.90662515 0
4.9808574 3.204634 -0.98560727 0
4.2326183 3.7421148 2.0331764 0
-4.4103203 3.8748372 1.2622838 0
4.696826 3.7423513 -0.059375525 0
4.6517763 3.7460961 0.63713634 0
4.5730276 3.7494116 1.0561306 0
-4.1797199 3.8659513 1.9159141 0
4.4979124 3.7542348 1.3331919 0
4.9844418 -3.2092335 -0.98716974 0
4.697278 3.7430694 -0.25517559 0
-2.446167 -5.4025054 -0.98575568 0
4.7004271 3.7480719 0.13477397 0
4.647048 3.74155 0.77809441 0
4.6987104 3.7453449 0.32885969 0
-4.4146647 3.8802743 1.2919531 0
4.6948843 3.7392666 -0.45187545 0
0.059007168 -5.9389524 -0.98521841 0
-5.3394599 -2.6009531 -0.98797274 0
-5.3396654 2.601001 -0.98801374 0
-4.3978119 3.8637803 1.4197354 0
-4.1824317 3.8712153 1.950983 0
4.7224646 3.7331161 -0.22000581 0
4.3359938 3.7451861 1.8628228 0
5.0392346 -3.1569364 -0.98528516 0
4.5264387 3.7481463 1.3397069 0
4.6412086 3.7359364 0.91926777 0
0.13543332 -5.9474697 -0.98097396 0
4.60145 3.7383454 1.0998859 0
4.4910741 3.747273 1.4763341 0
4.7320356 3.7420578 0.067878008 0
4.6997318 3.7469671 0.52257371 0
4.7255836 3.7360301 0.35446417 0
4.57335 3.7497303 1.1994963 0
4.7334003 3.7433329 -0.076708913 0
-5.3074255 -2.7002473 -0.98643446 0
4.4266572 3.7491605 1.6749911 0
-2.3810678 -5.4609761 -0.98543227 0
4.6960874 3.7411773 -0.65175998 0
-4.6343122 3.8701463 -0.18798375 0
5.0480475 3.167918 -0.98905802 0
4.6932764 3.7367113 0.71592236 0
4.7363782 3.746115 0.21104467 0
4.5100641 3.7381127 1.4838281 0
-3.9599986 3.8667347 2.4259996 0
-4.3942795 3.8672132 1.502028 0
4.5592937 3.7358239 1.3401835 0
-5.3166428 2.7025352 -0.98828053 0
4.7273788 3.7377074 -0.51706207 0
-4.6388369 3.8722181 0.30317569 0
5.0986185 -3.1104867 -0.98568165 0
-4.1234412 3.8626173 2.1775763 0
4.7405186 3.7499826 -0.37155718 0
4.7345834 3.7444379 0.49715066 0
-5.2799644 2.8005342 -0.98609495 0
-4.6532912 3.8788362 0.056994915 0
4.6456776 3.7402322 1.0633535 0
4.6928225 3.7359903 -0.85259914 0
-4.640048 3.8727727 -0.4363392 0
-4.4007215 3.8666279 1.5502081 0
4.5266113 3.7482762 1.4857042 0
5.1070814 3.1207287 -0.98924172 0
-5.291429 -2.803555 -0.98839951 0
4.6942825 3.7383101 0.91035771 0
-5.2431831 -2.8981924 -0.98416221 0
4.7343855 3.7442532 -0.67105353 0
4.7787313 3.7227709 -0.45682871 0
-4.6391878 3.871068 0.63826704 0
-2.322506 -5.5267715 -0.98766446 0
-2.2384577 -5.5634894 -0.98125863 0
0.19977069 -5.9939909 -0.98770475 0
5.1568556 3.0625999 -0.98587489 0
4.791007 3.7416694 0.13249922 0
4.7427559 3.752073 0.64081264 0
5.1594887 -3.0656955 -0.98696387 0
4.7800536 3.724807 0.5230031 0
-4.6531448 3.8787692 0.54849899 0
4.6092176 3.7510874 1.2977216 0
4.6442838 3.7388926 1.2078965 0
4.562418 3.738915 1.4882412 0
4.7322588 3.7422664 0.78354859 0
4.8068533 3.7309194 0.063722968 0
4.7921534 3.7434342 -0.26148921 0
4.8055611 3.7297466 0.20895863 0
4.4220824 3.7411487 1.8731744 0
4.8104353 3.7304485 0.15010476 0
4.8072152 3.7312479 -0.2296797 0
4.8123474 3.7318039 -0.0028145909 0
4.7923279 3.7437027 0.32800353 0
-4.3985658 3.8645182 1.6805863 0
4.7982121 3.7527606 -0.064921498 0
4.8038173 3.7281632 -0.37773508 0
-5.2648673 2.9042392 -0.98853803 0
4.522604 3.7452583 1.631736 0
-4.3005543 3.8648612 1.9277465 0
5.2092276 3.0079606 -0.98396051 0
0.27400208 -6.0090814 -0.98589528 0
5.2101107 -3.0089695 -0.98431981 0
-4.6552072 3.8797135 -0.68891752 0
4.7293701 3.7395678 0.92743158 0
-4.1765165 3.8682992 2.1942 0
4.5141859 3.7450969 1.6843255 0
4.7844281 3.7315414 -0.65943301 0
4.8110895 3.7309122 0.45291448 0
4.8148193 3.7381506 0.3532933 0
4.7822876 3.7282455 0.71806169 0
-4.650547 3.8815649 0.77083218 0
4.8230376 3.745611 -0.084994614 0
4.6973028 3.743109 1.1065812 0
-5.2271876 -3.0016942 -0.98671591 0
0.34959114 -6.0185637 -0.98283017 0
4.5985951 3.7336624 1.4919381 0
-4.6400108 3.871829 0.90397286 0
-5.2309651 3.0028062 -0.98748136 0
-2.1781673 -5.6273351 -0.98346698 0
-4.6601934 3.8819966 0.79480278 0
-5.1840725 -3.0972061 -0.98406279 0
4.8152032 3.7384992 -0.53210121 0
4.7265062 3.7368922 1.0722818 0
-4.6446524 3.8748808 -0.93997896 0
4.8330507 3.7464859 0.29927886 0
4.6500878 3.7444727 1.3565845 0
4.8104048 3.7341435 0.64278412 0
5.2700677 -2.9629998 -0.98578119 0
-4.6369376 3.8713484 1.0396361 0
4.8205376 3.7376122 0.60300672 0
4.8264513 3.7487099 0.49838078 0
4.7867765 3.7351563 -0.86412275 0
4.5213194 3.7442904 1.77881 0
4.8759222 3.7245524 -0.066605866 0
-5.2014828 3.1026027 -0.98760581 0
4.6920137 3.7347057 1.3024218 0
-2.1086149 -5.6802692 -0.98265946 0
-4.4232812 3.8809977 1.7528858 0
4.82061 3.743407 -0.6878953 0
-4.4079328 3.8736858 1.8143308 0
5.2814341 2.975611 -0.99033022 0
-4.6486454 3.8798075 1.0370543 0
4.7887506 3.7381961 0.91480184 0
4.72475 3.7352514 1.2187626 0
-5.1580138 -3.197885 -0.98516285 0
0.41740811 -6.0567374 -0.98801923 0
4.824811 3.7406425 0.75346029 0
-4.1162767 3.8567402 2.4564717 0
4.8852987 3.7385442 0.1299144 0
4.8829303 3.7350094 0.32725918 0
0.49499357 -6.0573459 -0.98309672 0
4.8778896 3.7274883 -0.46610188 0
4.6505852 3.7449505 1.5062838 0
4.8091354 3.7329907 0.93408906 0
5.3327427 2.9197078 -0.98855233 0
4.8151121 3.7337651 0.90399432 0
4.7799501 3.7246478 1.1101384 0
4.8259382 3.7482438 0.78993201 0
4.9005151 3.7345726 0.057403088 0
5.3342323 -2.9213138 -0.9891392 0
4.5146027 3.7458026 1.8866997 0
-5.1719689 3.2024305 -0.98801577 0
4.8890743 3.7441785 -0.26811957 0
-4.6476479 3.8788855 1.1702163 0
4.9005642 3.734616 -0.2410537 0
4.8971815 3.7316325 0.35229778 0
-4.3984642 3.8644185 1.9447498 0
4.9064994 3.739851 0.20466328 0
5.380537 -2.8603756 -0.98575008 0
-2.0455923 -5.7413278 -0.98454702 0
4.6060686 3.7459219 1.6954007 0
4.886179 3.7398579 0.52424264 0
4.9117413 3.7444744 -0.093018234 0
4.8812408 3.7324889 -0.66995084 0
5.3864441 2.866564 -0.98804235 0
-4.6431546 3.8741951 1.2881587 0
4.7296228 3.739804 1.3691711 0
0.5674665 -6.0779657 -0.98399723 0
-5.1355872 -3.2999983 -0.98730981 0
4.908802 3.7418816 -0.39472121 0
4.6936979 3.7373817 1.5022881 0
4.9018273 3.7357302 -0.54657865 0
4.9053507 3.7388377 0.49929225 0
4.5294724 3.7504315 1.9287171 0
4.88307 3.7352183 0.72127569 0
5.4310932 2.8042605 -0.98437154 0
-5.0855727 -3.3926024 -0.98407352 0
-5.1448112 3.3031495 -0.98920453 0
-4.6494417 3.8805437 1.3038704 0
4.8253164 3.7410014 1.0545437 0
-4.3075156 3.8704069 2.2117562 0
5.436758 -2.8100271 -0.98653746 0
4.8227901 3.7453861 1.0844111 0
-4.4113088 3.8753071 1.9989567 0
4.9022226 3.736079 -0.70288289 0
4.8979979 3.7323523 0.79370308 0
0.64019215 -6.0979395 -0.98500264 0
4.8842039 3.7369101 -0.87684846 0
4.8809066 3.7319901 0.91878903 0
-1.9843795 -5.8051577 -0.98748469 0
4.973794 3.724519 0.12791276 0
5.4862318 -2.7528636 -0.98504424 0
-5.1091704 3.4010429 -0.98894513 0
-4.6479206 3.879138 1.4376531 0
4.921483 3.7530668 0.64778376 0
4.7943692 3.7468455 1.3127756 0
4.8196282 3.7425163 1.2332859 0
4.9809175 3.7348273 -0.072517276 0
5.4930229 2.7595825 -0.98760414 0
-5.0612302 -3.4943197 -0.98642182 0
4.7381144 3.7477369 1.5238209 0
-4.480545 3.8642671 1.9551959 0
4.5250702 3.7471154 2.077292 0
4.9793983 3.7326286 0.32634616 0
4.8333616 3.7467062 1.2057159 0
-5.0653868 3.4958737 -0.98728442 0
4.9880514 3.7302384 -0.25105643 0
4.6063018 3.7463043 1.8994544 0
4.9017582 3.7356689 0.94278359 0
-1.9110501 -5.8533688 -0.98614764 0
0.71313 -6.1174769 -0.98617089 0
4.9849739 3.7406971 -0.27439117 0
4.9954872 3.7366104 -0.1001451 0
4.9989953 3.7396162 0.050611258 0
4.879837 3.7303941 1.1174822 0
4.6971564 3.7428763 1.7058775 0
-4.6476502 3.8762534 1.539001 0
-5.0153708 -3.5880322 -0.98459637 0
5.543539 2.7034314 -0.98678958 0
4.9991093 3.7397139 0.20100498 0
0.78962505 -6.1185107 -0.98257911 0
5.5443306 -2.7041922 -0.98708367 0
-4.643014 3.8746035 1.5713828 0
5.5804276 -2.6346469 -0.98128569 0
4.8211975 3.7380805 1.3559427 0
4.9847698 3.740401 -0.47731698 0
4.9906716 3.7324836 0.50034344 0
4.9722767 3.7223241 0.72334743 0
-4.9042177 3.8793788 0.04498744 0
4.9754581 3.726927 -0.67936099 0
4.8171597 3.7402751 1.3841109 0
4.9982882 3.7390103 -0.40748262 0
4.986948 3.7435539 0.5252856 0
-4.9059534 3.8801436 -0.21002114 0
5.0036259 3.7435837 0.35075867 0
4.7882094 3.7373626 1.5121822 0
4.9883461 3.7304907 0.649652 0
-5.0339875 3.5952985 -0.98848093 0
4.9058132 3.7392457 1.0935621 0
-4.9103971 3.8821018 0.29878104 0
5.595171 2.6484206 -0.98669183 0
-4.902914 3.8788044 -0.46608484 0
-1.8443141 -5.9104443 -0.98765075 0
-1.7582841 -5.9403787 -0.98175478 0
0.86306095 -6.1353631 -0.98359311 0
5.0027809 3.7428601 -0.56524849 0
-4.8943787 3.8765335 0.62925589 0
-4.4001293 3.8699934 2.2483292 0
4.9938288 3.735189 -0.72125113 0
-4.8916144 3.8738251 -0.72269118 0
4.8192234 3.7366805 1.5071311 0
4.9898434 3.7317739 0.79973423 0
-4.9100127 3.8819325 0.55261159 0
-4.8910837 3.8736589 0.76679313 0
4.9764481 3.7283595 0.92322946 0
4.979599 3.7329195 -0.88847804 0
5.6433764 -2.5902922 -0.98564208 0
-4.9949503 3.6918287 -0.98837948 0
4.8843861 3.7371814 1.31935 0
5.6462417 2.5928931 -0.98667896 0
-4.9976668 -3.692934 -0.98894954 0
4.9064407 3.7397993 1.2455091 0
-4.6529608 3.8837953 1.7083743 0
0.93702745 -6.1496015 -0.98418152 0
4.6944952 3.7386477 1.9101551 0
4.8254232 3.747777 1.5410373 0
4.9887142 3.7308061 0.95044971 0
-4.9023538 3.8785572 0.80630577 0
-4.8900623 3.8727682 0.90397823 0
-4.3047204 3.86818 2.4976671 0
-4.642539 3.8739133 1.7909272 0
5.6912155 2.53197 -0.98477399 0
5.6919718 -2.5326366 -0.985044 0
5.0816221 3.735718 0.12418628 0
-4.9503198 -3.7859962 -0.98738742 0
-4.9505534 3.7860951 -0.98743665 0
4.7885938 3.7379544 1.7162929 0
5.0850515 3.7405317 -0.078158975 0
5.0722098 3.7225063 0.52583969 0
5.0904474 3.7359023 -0.10899717 0
5.0829268 3.7375486 -0.28098309 0
4.8159113 3.7343316 1.6586735 0
5.0899158 3.7354598 -0.26391643 0
5.0940723 3.7389197 0.044295311 0
5.0841198 3.7392242 0.32520187 0
5.0925455 3.7376485 0.19733369 0
5.080009 3.7272139 0.50147545 0
5.7354774 -2.4706841 -0.98295045 0
-1.6999969 -6.0098114 -0.98729193 0
5.0912323 3.7365553 0.34966958 0
5.0733476 3.7216692 0.65275717 0
4.9075394 3.7407682 1.3997369 0
-4.9017458 -3.8782895 -0.98583686 0
5.0840664 3.7391489 -0.48618835 0
5.0931134 3.7381213 -0.42145354 0
-4.9061656 3.8802371 -0.98677564 0
5.7439537 2.4779468 -0.98594129 0
-4.4856582 3.8682225 2.2437961 0
-4.6521959 3.8830888 1.8445001 0
-4.8985147 3.8801413 1.0413933 0
4.9875412 3.7444117 1.1263454 0
4.8857498 3.7392175 1.5229251 0
-1.6202939 -6.0480657 -0.98438501 0
1.0087758 -6.1801944 -0.98948085 0
