# .PCD v0.7 - Point Cloud Data file format
VERSION 0.7
FIELDS x y z intensity
SIZE 4 4 4 4
TYPE F F F F
COUNT 1 1 1 1
WIDTH 1430
HEIGHT 1
VIEWPOINT 0 0 0 1 0 0 0
POINTS 1430
DATA ascii
10.540524 -2.2820845 1.5181625 0
-9.8282089 4.3051019 1.8675966 0
-3.3148489 -9.9729729 2.8588095 0
-3.2667289 -10.178861 2.0889096 0
-3.2161393 -10.405976 -0.13389194 0
-3.3488503 -9.8635941 3.1851726 0
10.342297 3.2815685 -0.98540676 0
-3.2128816 -10.399766 0.6119566 0
-3.2809219 -10.127979 2.3523018 0
-3.20116 -10.377417 0.98360169 0
-3.2054968 -10.385685 -0.88253713 0
-9.9940748 -2.4703815 3.5970168 0
10.298682 -2.3492434 2.7127168 0
10.34691 -2.3372791 2.5520241 0
10.235161 3.6487975 -0.98555148 0
10.277639 3.5284138 -0.98633289 0
3.5204723 -10.208076 1.583199 0
10.322809 3.4086275 -0.9878391 0
9.9095345 4.3961744 1.2796316 0
-3.2025962 -10.38376 1.0737715 0
3.5597265 -10.034742 2.423085 0
-10.459401 -2.3386226 2.1057425 0
10.203432 3.772646 -0.98684812 0
10.160394 3.8928165 -0.98655045 0
10.114434 4.011889 -0.98604798 0
10.017701 4.247963 -0.9850812 0
3.5967031 -9.910511 2.877475 0
-9.3310318 4.3136306 3.7112026 0
10.07062 4.131712 -0.98619449 0
9.9716492 4.3668756 -0.98542368 0
9.7102509 4.3928237 2.4293847 0
3.6396651 -9.7544012 3.3385882 0
10.583043 -2.283293 1.5813971 0
9.6665583 4.400651 2.6329448 0
3.5411708 -10.118459 2.2017424 0
9.8969193 4.3879161 1.6222854 0
-9.6863365 4.3141818 2.7416511 0
-3.2581229 -10.163008 2.4633992 0
-3.2067952 -10.388162 1.3581133 0
10.039779 4.3951674 -0.045092463 0
-10.440038 -2.3511629 2.368083 0
10.564189 -2.2856679 1.8386993 0
-3.3121824 -9.9528551 3.1923323 0
-9.8547163 4.3172698 2.1138501 0
3.5207295 -10.209416 1.9190178 0
-3.2029619 -10.3846 1.5076599 0
10.046249 4.3978543 -0.36084592 0
10.049227 4.3990908 0.26871812 0
10.563955 -2.2763112 1.9132581 0
-10.467636 -2.3405466 2.3501494 0
10.306207 -2.350888 2.9782271 0
10.047374 4.3983212 0.58264673 0
-3.2764497 -10.118118 2.788054 0
3.5657322 -10.049772 2.6831183 0
10.053999 4.4010725 -0.67919552 0
9.7089128 4.3922453 2.7508168 0
10.548493 -2.2832913 2.1567447 0
-3.1542959 -10.545162 0.14274812 0
-3.2065997 -10.387788 1.7342286 0
-9.8507299 4.3154402 2.3580921 0
9.903223 4.3920431 1.9704142 0
10.361783 -2.3429615 2.8978107 0
10.057572 4.4025564 0.89750206 0
-3.3451452 -9.8557272 3.6260567 0
3.5187993 -10.19936 2.256412 0
9.6584597 4.3951817 2.984844 0
10.794927 -2.2146668 -0.41321087 0
-3.1581321 -10.560122 0.3962785 0
-10.249834 -2.3942852 3.3001842 0
-3.1561866 -10.552536 0.65051937 0
-3.2009888 -10.380078 1.9435534 0
3.5417666 -10.122128 2.6061041 0
10.810183 -2.220001 -0.077674508 0
10.0538 4.4009895 1.212961 0
10.814596 -2.221544 0.25796318 0
-3.2584043 -10.163526 2.8460398 0
-10.478113 -2.3429945 2.5969353 0
10.807783 -2.2191617 0.59331071 0
-3.156291 -10.552943 0.90412104 0
10.576728 -2.2809832 2.2539775 0
3.5628545 -10.04257 2.9413955 0
3.4360015 -10.504723 0.25632524 0
-10.43242 -2.350287 2.8080361 0
-3.1357722 -10.585543 0.61422241 0
-3.1428032 -10.599427 0.23690581 0
-9.8452072 4.3129048 2.6034553 0
-9.6793928 4.3121376 3.174716 0
10.81094 -2.2202656 -0.75373888 0
10.798495 -2.2159145 0.92842555 0
3.4355605 -10.502232 0.59503055 0
-3.1421108 -10.59806 -0.52044421 0
10.040293 4.395381 1.5287731 0
-3.1542473 -10.544973 1.157541 0
3.4381924 -10.519444 0.22332656 0
-3.1489959 -10.611656 -0.14186156 0
3.4390702 -10.522044 -0.083759308 0
-3.2043586 -10.383515 2.1128564 0
3.4362855 -10.506539 0.62784564 0
3.4380832 -10.516474 -0.42428786 0
3.4351988 -10.500191 -0.76517129 0
10.16602 4.3934612 -0.09704715 0
11.021409 -0.49398255 -0.98327875 0
9.9032631 4.3920689 2.3214889 0
11.035327 -0.16477014 -0.98401308 0
10.941591 1.4789542 -0.98412597 0
11.010885 -0.82345378 -0.98465765 0
10.982318 -1.1518631 -0.98461974 0
10.173924 4.3984761 0.25142908 0
10.89542 -1.8052791 -0.98428297 0
10.791689 -2.2135348 1.2643108 0
10.562366 -2.285392 2.4849253 0
10.170696 4.3964276 -0.44744968 0
10.866383 -2.1981404 0.26497447 0
11.034745 0.49455684 -0.98547256 0
10.841204 2.1304178 -0.98465753 0
10.949818 -1.4800222 -0.98548937 0
11.018666 0.82401282 -0.98593974 0
10.168221 4.3948579 0.59985292 0
-10.465351 -2.3400128 2.8416233 0
10.843647 -2.1308789 -0.98506618 0
-3.1439781 -10.601748 -0.90265846 0
10.874665 -2.1992733 -0.057306588 0
10.872807 -2.199019 -0.38045889 0
3.4374623 -10.512968 0.93467617 0
-3.1436238 -10.601048 0.99263823 0
11.057169 0.1650835 -0.98760331 0
-3.1559339 -10.55155 1.4115529 0
10.706316 2.775914 -0.98565221 0
10.912768 1.8080395 -0.98716998 0
3.5203552 -10.207466 2.6019676 0
10.787076 2.4559875 -0.98661458 0
10.621978 3.0947735 -0.98563242 0
10.525165 3.4100339 -0.98503375 0
10.170364 4.3962173 -0.79965973 0
3.4247777 -10.567153 0.11696827 0
10.420485 3.7226667 -0.98462713 0
10.163033 4.3915658 0.94826162 0
10.876699 -2.1995518 0.58660722 0
11.009504 1.1546023 -0.98911047 0
3.4382572 -10.519882 1.0333371 0
10.040856 4.3956146 1.8486924 0
10.873239 -2.1990783 -0.70574427 0
-3.2778831 -10.12128 3.2323017 0
-9.8442421 4.3124619 2.8513646 0
-3.129848 -10.66787 0.20579183 0
3.4229355 -10.562128 0.64224696 0
3.4289737 -10.578595 0.37926257 0
3.4362714 -10.506246 1.2747788 0
10.576781 -2.2810028 2.5971837 0
3.5398488 -10.11032 3.0126348 0
10.322399 4.037909 -0.98693991 0
10.871914 -2.1988971 0.90856099 0
-3.127758 -10.662888 0.64551377 0
-3.1403241 -10.594532 1.3714981 0
10.208431 4.3478374 -0.98805785 0
10.799785 -2.2163656 1.6036878 0
-3.2094111 -10.399379 2.3869717 0
3.4242718 -10.565772 0.90413129 0
-3.1576152 -10.558107 1.6664314 0
-10.929064 -2.2239199 0.20338678 0
3.4374824 -10.514639 1.4396157 0
-3.2078996 -10.390266 2.4977763 0
-10.912624 -2.2222674 -0.68713772 0
-10.93139 -2.2241538 -0.24190456 0
9.9059677 4.3938389 2.6781006 0
10.176468 4.4000893 1.2994475 0
-10.296377 4.3072639 0.20752776 0
10.557991 -2.2847292 2.8144827 0
-3.2637534 -10.17338 3.2377882 0
-10.922606 -2.2232709 0.64789987 0
-3.1284127 -10.664449 1.0857666 0
-9.744936 4.3101339 3.3427849 0
3.4359608 -10.504492 1.6171074 0
10.88327 -2.2004507 1.2327828 0
-10.304964 4.3096581 -0.22981626 0
-3.1543713 -10.545459 1.9206057 0
3.5166888 -10.188365 2.9462984 0
3.4270189 -10.573264 1.1662922 0
10.043424 4.3966808 2.1726346 0
-10.301126 4.3085876 0.64395821 0
10.791327 -2.2134087 1.9438119 0
10.861563 -2.1974807 1.5556972 0
-10.444165 -2.3516378 3.2579632 0
-10.305598 4.309835 -0.66866529 0
-3.1421041 -10.598046 1.7535491 0
3.4225621 -10.56111 1.4281342 0
-10.264828 -2.3984663 3.7660418 0
10.169587 4.3957243 1.6509466 0
-9.6859465 4.3140669 3.6180811 0
-10.931203 -2.2241349 1.0932946 0
10.572814 -2.2795517 2.9448256 0
10.999103 -2.1602099 0.089287281 0
-3.1271014 -10.661323 1.5273075 0
-10.301083 4.3085756 1.0810049 0
3.4380963 -10.518793 1.8491793 0
10.324696 4.3952646 0.09029603 0
11.010169 -2.1622982 -0.18476009 0
-3.2003784 -10.378679 2.8283181 0
10.991179 -2.1587152 -0.73244226 0
11.011119 -2.1624773 0.36082721 0
11.009999 -2.162266 -0.45919013 0
10.029891 4.3910613 2.4971757 0
10.324463 4.3951697 -0.45617831 0
-3.1569829 -10.555641 2.1780343 0
10.334113 4.3991065 -0.18331146 0
11.005046 -2.1613314 0.63277578 0
3.4376192 -10.513854 1.9640474 0
3.4250796 -10.567975 1.6913588 0
10.323395 4.3947339 0.63328457 0
11.030672 -2.1486502 -0.087400794 0
10.335898 4.3998346 0.36150503 0
-10.913887 -2.2223942 1.5386486 0
10.316094 4.3917561 0.90414202 0
11.033954 -2.1497452 -0.43116444 0
-3.2078505 -10.390173 2.8867095 0
10.331491 4.3980365 -0.73257875 0
10.873755 -2.1991489 1.8852751 0
3.5408721 -10.116619 3.4298463 0
11.009523 -2.1621761 0.90414298 0
11.047853 -2.1543822 0.25448918 0
-3.0822263 -10.82809 -0.15045911 0
-3.2784791 -10.122593 3.6834722 0
9.9140415 4.3991256 3.0424576 0
10.805434 -2.2183406 2.2917366 0
10.175896 4.3997264 2.007375 0
11.035708 -2.1503308 -0.77707982 0
-3.1476054 -10.608911 2.1404715 0
-3.0877814 -10.839462 0.23358202 0
-10.306376 4.3100519 1.5201359 0
11.050375 -2.1552241 0.59695709 0
-3.0838161 -10.831345 -0.53644717 0
10.378926 4.3919396 -0.38761067 0
11.034245 -2.1498423 0.9389981 0
11.010143 -2.1622932 1.175631 0
10.388351 4.3956962 0.26325738 0
3.4270806 -10.573433 1.9556437 0
-3.1280279 -10.663531 1.9720273 0
3.4371052 -10.512087 2.2608259 0
-3.0881977 -10.840314 0.61783433 0
10.400155 4.4004011 -0.06269002 0
10.334555 4.3992867 1.175281 0
-3.1597257 -10.566337 2.4374335 0
10.997692 -2.1599438 1.4468234 0
-3.0847473 -10.833251 -0.92487049 0
10.395889 4.3987007 0.58828413 0
-3.0832453 -10.830176 1.0019808 0
10.866167 -2.1981108 2.2155027 0
10.394916 4.398313 -0.71784127 0
10.322198 4.3942456 1.4460919 0
3.4396782 -10.525476 2.3159604 0
3.4197702 -10.553496 2.2181883 0
11.036667 -2.1506505 1.2828145 0
-9.7455788 4.3104286 3.8115034 0
-10.431912 -2.3502285 3.7095633 0
10.394548 4.3981662 0.91377354 0
10.044327 4.3970561 2.834075 0
10.437662 4.3928342 0.24757636 0
-11.117769 -2.1717379 0.142735 0
10.441958 4.3954744 -0.10936964 0
10.431977 4.3893404 0.60370708 0
-3.0781775 -10.819802 1.3867233 0
-10.935866 -2.2246037 1.9903622 0
-11.122286 -2.1726573 0.39677429 0
10.179709 4.4021459 2.3677187 0
-3.1432781 -10.600366 2.5283239 0
-3.2003045 -10.37851 3.2792802 0
-10.311357 4.3114409 1.9623034 0
10.810748 -2.2201984 2.643317 0
-3.204175 -10.383165 3.2798653 0
3.350595 -10.845127 -0.099676788 0
-11.12323 -2.1728497 0.65056252 0
11.010774 -2.1624122 1.7198322 0
3.3504388 -10.844166 0.25073361 0
10.454487 4.403173 -0.46882266 0
3.3499608 -10.841222 -0.45100904 0
-3.1608105 -10.570568 2.6979547 0
10.398738 4.3998361 1.2408764 0
10.331411 4.3980041 1.7184992 0
-11.114744 -2.1711221 0.90412068 0
11.03695 -2.1507449 1.6286404 0
-10.605361 -2.3036833 3.3739314 0
-3.0482841 -10.948007 0.20181036 0
10.448463 4.3994718 -0.82883549 0
3.4358745 -10.504004 2.6657543 0
-3.1282258 -10.664003 2.4204469 0
3.3519213 -10.853293 0.60082769 0
3.3500578 -10.841821 -0.80477762 0
10.873591 -2.1991265 2.5532033 0
-11.115127 -2.1711998 1.1574872 0
10.456276 4.4042726 0.96165025 0
3.4383554 -10.520547 2.6795554 0
3.4270759 -10.57342 2.487144 0
11.00732 -2.1617606 1.9927812 0
-3.0808182 -10.825208 1.7751713 0
3.3512869 -10.849387 0.95130289 0
10.394336 4.3980813 1.5691643 0
-3.0539603 -10.962102 0.64985478 0
-10.913392 -2.2223446 2.4404395 0
10.331525 4.3980508 1.9913411 0
-3.1562977 -10.552969 2.9564359 0
-3.0446806 -10.939059 1.0974092 0
11.211368 -2.1075525 0.25920558 0
10.170171 4.3960948 2.7296546 0
-11.114388 -2.1710496 1.4110932 0
11.208469 -2.107198 -0.4085511 0
11.220643 -2.1086864 -0.074678898 0
11.206361 -2.1069403 0.59210622 0
10.453252 4.4024143 1.3200958 0
-10.303344 4.3092065 2.4065051 0
3.350462 -10.844309 1.3026824 0
11.047051 -2.1541152 1.9791048 0
11.209353 -2.107306 -0.74522555 0
-3.1427836 -10.599388 2.9227626 0
-10.59519 4.3092685 0.13323593 0
10.318213 4.3926201 2.2636824 0
3.3273191 -10.943897 0.21625865 0
11.208243 -2.1071703 0.9254241 0
10.816367 -2.222163 3.0010958 0
3.4248128 -10.567248 2.7542875 0
11.008197 -2.161926 2.2672706 0
-10.596842 4.3099699 0.39057958 0
10.398527 4.3997521 1.9014125 0
3.3266387 -10.938787 0.63505125 0
10.860429 -2.1973257 2.8913536 0
-11.119809 -2.172153 1.6656551 0
-10.592739 4.3082275 0.64759469 0
-3.0143294 -11.053226 -0.15955865 0
10.447176 4.3986807 1.6800499 0
-3.0169115 -11.05871 0.23066652 0
-3.0468183 -10.944367 1.5475411 0
3.4376745 -10.514167 3.028307 0
-3.084363 -10.832464 2.1677132 0
3.3507543 -10.846108 1.6567109 0
3.3255358 -10.930505 1.0538266 0
11.210207 -2.1074107 1.2601042 0
-10.599558 4.3111238 0.90412486 0
-3.129437 -10.66689 2.8743997 0
-3.1992092 -10.376 3.7368755 0
-10.582576 4.3039103 1.1603975 0
11.283851 -2.0820849 -0.45011985 0
3.4367242 -10.509507 3.100059 0
11.293522 -2.0851588 0.25078595 0
-3.0212016 -11.06782 0.62090921 0
11.298223 -2.086653 -0.099727273 0
-11.119307 -2.1720507 1.9207411 0
-3.0235262 -11.072756 -0.55320948 0
11.287788 -2.0833366 0.60050893 0
11.048288 -2.1545279 2.3323989 0
10.386126 4.3948092 2.2342012 0
-10.90728 -2.22173 2.8971329 0
-3.017477 -11.059911 -0.94639134 0
3.4220634 -10.55975 3.0229101 0
10.173288 4.3980727 3.1006947 0
11.013802 -2.1629834 2.5439768 0
11.27945 -2.0806866 0.9500947 0
11.201567 -2.1063542 1.5956624 0
10.328438 4.3967915 2.5404134 0
-10.602266 -2.3028679 3.8466053 0
10.443625 4.3964987 2.0430732 0
11.300279 -2.087306 -0.80557191 0
3.3255358 -10.930504 1.4742839 0
-3.0223899 -11.070343 1.01195 0
-10.59122 4.3075824 1.4173865 0
-10.30294 4.309094 2.8565993 0
-3.1382451 -10.590425 3.3211374 0
3.3522716 -10.855451 2.0151262 0
11.016948 -2.1440711 2.6826851 0
-3.0492554 -10.950419 2.0009308 0
-11.125313 -2.1732736 2.1776915 0
-10.581755 4.3035612 1.673995 0
-3.082819 -10.829304 2.5629349 0
11.192966 -2.1053026 1.933506 0
11.294822 -2.0855718 1.302527 0
-3.0227823 -11.071177 1.4044566 0
10.384309 4.3940849 2.5732305 0
10.325042 4.3954058 2.8170586 0
11.018545 -2.1638784 2.8226223 0
-10.186861 4.3072596 3.4355817 0
-2.9810619 -11.195087 0.10141468 0
10.722033 4.3920822 -0.12183809 0
-11.1192 -2.172029 2.4345918 0
11.279203 -2.0806084 1.6542566 0
-3.1238732 -10.653625 3.3307333 0
10.45405 4.402905 2.4130301 0
-10.594046 4.3087821 1.9331691 0
10.73151 4.3977213 0.24314308 0
3.3289497 -10.956141 1.9004939 0
-2.9826422 -11.202077 0.63678312 0
3.352706 -10.858123 2.3768802 0
-3.0209842 -11.067358 1.7988021 0
-2.9860644 -11.217215 0.36841631 0
3.2768719 -11.142834 0.082404494 0
3.4378891 -10.517392 3.5317378 0
-2.9800444 -11.190586 0.90413761 0
10.73374 4.3990479 0.60830212 0
11.197039 -2.1058006 2.2769814 0
10.742047 4.4039903 -0.49038839 0
3.2782986 -11.147099 0.35660362 0
3.2750454 -11.137373 0.63076127 0
10.763111 4.3963032 -0.08033216 0
-3.0495753 -10.951213 2.4577851 0
10.724786 4.3937206 0.97340584 0
10.734645 4.3995862 -0.85891199 0
-2.9679813 -11.249635 0.19742692 0
-11.446331 -2.0854945 0.19462109 0
11.006116 -2.1615334 3.1003423 0
10.771071 4.3993449 0.25701094 0
11.273305 -2.0787337 2.0094812 0
10.767858 4.3981166 -0.41950607 0
-10.919106 -2.2229187 3.3637991 0
-11.430644 -2.0841441 -0.73114097 0
-2.9643345 -11.240193 0.65379632 0
-2.9808979 -11.194363 1.1713088 0
-3.0835962 -10.830894 2.9645321 0
3.2758801 -11.139868 0.90414536 0
-11.12236 -2.1726725 2.6944437 0
-10.30291 4.3090854 3.3129053 0
-10.597756 4.3103585 2.1930056 0
-11.458792 -2.0865674 -0.26875579 0
10.333691 4.3989339 3.0981092 0
10.77346 4.4002571 0.59443367 0
11.040598 -2.151962 3.0518723 0
-11.454507 -2.0861983 0.65692198 0
3.2566507 -11.190866 -0.4799872 0
-3.0149412 -11.054525 2.1946697 0
3.2745862 -11.136 1.177496 0
3.2583528 -11.202386 0.24480093 0
3.2587032 -11.204757 -0.1175639 0
10.780279 4.402863 -0.76212358 0
10.405229 4.4024229 2.9241912 0
3.3272479 -10.94336 2.3260503 0
3.2572212 -11.194729 0.60646379 0
10.451613 4.4014072 2.7854192 0
-2.9821982 -11.200114 1.4390445 0
-11.439216 -2.084882 1.1191258 0
10.779794 4.4026775 0.93266797 0
3.3523498 -10.855931 2.742631 0
-10.58622 4.3054581 2.4521198 0
11.194469 -2.1054864 2.6238949 0
-2.9687495 -11.251624 1.1111879 0
-2.954586 -11.308451 0.22716582 0
-2.9559159 -11.311383 -0.17055559 0
3.2732024 -11.131863 1.4509401 0
10.765242 4.3971171 1.2706609 0
-11.109022 -2.1699572 2.9532709 0
-2.9519191 -11.30257 0.62412143 0
-2.9533033 -11.305622 -0.56912559 0
3.2595448 -11.210453 -0.84780312 0
10.759689 4.4144874 1.3435843 0
-10.96918 -2.2056811 3.4496984 0
-2.9817023 -11.197921 1.7070673 0
-2.9473853 -11.292574 1.0208731 0
3.2598968 -11.212834 0.96939182 0
10.733575 4.3989496 1.7101588 0
11.548924 -2.0125017 0.24690318 0
-10.180091 4.304276 3.9170327 0
11.552581 -2.0070162 0.25348914 0
11.555163 -2.0143867 -0.11146826 0
-2.955565 -11.310609 -0.97114432 0
11.298064 -2.0866024 2.3744755 0
-2.9652858 -11.242656 1.5692008 0
3.2569385 -11.192814 1.3315592 0
11.55977 -2.0077906 -0.091731668 0
-11.443168 -2.0852222 1.5836406 0
-3.0516033 -10.956249 2.9206705 0
10.768589 4.398396 1.6119869 0
11.556467 -2.0147805 0.60463428 0
11.562849 -2.0167089 -0.47174203 0
3.2783973 -11.147394 1.7262261 0
11.567726 -2.0086479 -0.43879175 0
-2.9803576 -11.191973 1.9754999 0
-3.1298003 -10.667757 3.8014326 0
11.552706 -2.0070295 -0.78570211 0
-10.591689 4.3077812 2.7153876 0
-3.0860214 -10.835859 3.3737884 0
11.558059 -2.0152614 -0.83318615 0
11.575853 -2.0095239 0.59831941 0
10.443922 4.3966808 3.1620078 0
3.327188 -10.942912 2.757853 0
-2.9509482 -11.300429 1.4200268 0
-3.0245624 -11.074956 2.6010911 0
3.2565451 -11.190153 1.6966834 0
11.565992 -2.0176585 0.96346104 0
3.3523784 -10.856108 3.1148138 0
-10.916637 -2.2226708 3.8350387 0
11.204533 -2.1067169 2.9796753 0
11.574843 -2.0094149 0.9439261 0
3.276922 -11.142983 2.0012102 0
-10.300065 4.3082919 3.7758436 0
10.740186 4.4028835 2.0837908 0
-10.98173 4.3028498 -0.26395541 0
11.286644 -2.0829728 2.7375209 0
10.77228 4.3998065 1.956562 0
11.560156 -2.0078323 1.2895255 0
11.555631 -2.0145278 1.3224821 0
-2.9818153 -11.19842 2.2463036 0
-2.9661226 -11.244823 2.030813 0
-10.992516 4.3056917 0.19580698 0
-10.592947 4.3083158 2.9800942 0
-2.9500828 -11.298522 1.8209147 0
-10.986201 4.304028 -0.72600353 0
-11.459188 -2.0866013 2.0527675 0
-10.995761 4.3065467 0.65565157 0
3.2756944 -11.139313 2.2772665 0
11.54253 -2.0105698 1.6825943 0
-10.972169 4.3003306 1.1148372 0
3.2076864 -11.393186 0.20873845 0
3.2578077 -11.198697 2.0665574 0
-3.0166612 -11.058178 3.0051608 0
3.2075896 -11.392368 0.64264715 0
-3.0467405 -10.944175 3.3860059 0
11.568458 -2.0087268 1.6390474 0
-10.970922 -2.2061136 3.9358807 0
10.774084 4.4004955 2.3048549 0
10.739359 4.402391 2.4604359 0
-2.9834499 -11.205651 2.5190077 0
3.3269904 -10.941428 3.1952848 0
-2.8543401 -11.485731 -0.98573756 0
11.032112 4.3980742 -0.13602179 0
-2.9483929 -11.294796 2.224792 0
3.2740457 -11.134384 2.5544629 0
3.207984 -11.395695 1.0772462 0
11.032283 4.3981719 -0.5120461 0
11.28792 -2.0833783 3.1091938 0
-2.9657621 -11.24389 2.4960375 0
11.036928 4.4008465 0.61288536 0
11.04976 4.4082346 0.2382561 0
-2.8798151 -11.544107 -0.18007785 0
11.551856 -2.0133874 2.0485582 0
-10.985921 4.3039541 1.5773783 0
-2.8793769 -11.549648 0.19307506 0
-2.703598 -11.551686 -0.98590147 0
3.2567902 -11.191811 2.4381204 0
11.568142 -2.008693 1.9907923 0
-2.8838668 -11.553391 0.22376132 0
-11.453412 -2.0861042 2.5235975 0
11.032739 4.3984346 0.98745966 0
11.042419 4.4040084 -0.89180088 0
10.759696 4.3949986 2.6540425 0
3.2065043 -11.383222 1.5122814 0
-2.9834571 -11.205682 2.792635 0
-2.8865647 -11.559574 -0.58705163 0
-2.8862009 -11.558741 0.6277405 0
-2.5551138 -11.623438 -0.98711836 0
-2.8897953 -11.57782 0.65884912 0
11.792724 -1.9480578 0.037160873 0
10.743945 4.4051204 2.8436165 0
11.036124 4.4003839 1.3638339 0
-2.8866048 -11.559666 1.0323675 0
-2.8805757 -11.552891 1.1243231 0
-2.3985658 -11.675192 -0.9859767 0
3.27842 -11.147462 2.8363585 0
11.541588 -2.0102851 2.4152985 0
11.789966 -1.9476188 -0.54471171 0
11.797886 -1.9488791 0.32644069 0
11.789679 -1.9475732 0.61565197 0
11.804349 -1.9499075 -0.2544049 0
-3.0208163 -11.067002 3.4220753 0
11.57393 -2.0093164 2.3476205 0
-2.980278 -11.191621 3.0656443 0
11.787338 -1.9472009 0.90416372 0
11.813889 -1.9359305 -0.49081647 0
-2.9546294 -11.308547 2.6366048 0
11.793781 -1.9482261 -0.83851254 0
11.811931 -1.9353695 0.60852075 0
11.824662 -1.939018 0.24264801 0
-2.2443595 -11.732608 -0.98587644 0
-11.001073 4.3079462 2.0439281 0
11.832409 -1.9412379 -0.12432474 0
3.2071567 -11.388721 1.9513254 0
-2.965703 -11.243736 2.9665289 0
11.166389 4.3966646 -0.10013556 0
3.2582397 -11.20162 2.8181689 0
-2.8867779 -11.560062 1.4384983 0
-3.0478883 -10.947024 3.8622999 0
3.3271518 -10.942639 3.6404505 0
3.157896 -11.571672 -0.51177847 0
10.75989 4.395072 3.0120039 0
11.818607 -1.9372828 -0.86117303 0
3.1576324 -11.569692 0.61270356 0
3.1594038 -11.582994 0.23846209 0
11.037643 4.4012589 1.7425241 0
11.791362 -1.9478409 1.1927159 0
-11.841469 -1.9805824 0.36552811 0
-11.847136 -1.9815676 0.095089674 0
11.817487 -1.9369617 0.97491109 0
3.1607165 -11.592852 -0.13699156 0
-11.83647 -1.9797132 0.63509786 0
-2.8823805 -11.557771 1.5924249 0
-2.0921965 -11.795833 -0.98682153 0
-11.453743 -2.0861325 3.0004492 0
11.17505 4.3998322 0.60099697 0
11.188397 4.4047146 0.25015485 0
3.2775552 -11.144876 3.1179533 0
11.167739 4.3971581 -0.80644035 0
11.189834 4.4052401 -0.45430511 0
3.159055 -11.580374 -0.89106703 0
11.558673 -2.0076725 2.7048492 0
-1.9348512 -11.844502 -0.98615873 0
10.735076 4.3998427 3.2292056 0
-10.675927 4.3118219 3.5396481 0
11.544402 -2.0111353 2.7894526 0
3.1594009 -11.582971 0.98786902 0
11.800754 -1.9493355 1.4820244 0
-11.857248 -1.9833258 0.90414059 0
-2.8882852 -11.563517 1.847558 0
-10.984324 4.3035331 2.51037 0
11.189334 4.4050574 0.95281601 0
11.830873 -1.9407976 1.3437619 0
11.033255 4.3987317 2.1235189 0
-11.848986 -1.9818891 1.1734786 0
3.2072182 -11.389238 2.3937442 0
-2.9515333 -11.30172 3.0498915 0
-1.7808328 -11.903116 -0.98707271 0
-2.8795714 -11.550175 2.0621271 0
11.180852 4.4019547 1.3048682 0
11.796832 -1.9487115 1.7714615 0
3.1604867 -11.591126 1.3648953 0
-1.4569204 -11.968583 -0.9831202 0
3.2582517 -11.201701 3.2024584 0
11.946703 -1.9019728 -0.11135405 0
-11.376938 -2.1082363 3.5359621 0
11.947836 -1.9020786 0.24680758 0
-11.850312 -1.9821199 1.443172 0
11.823379 -1.9386501 1.7131822 0
-1.6249845 -11.956594 -0.98760712 0
3.1569228 -11.564363 1.7404838 0
11.286427 4.3992634 0.32030129 0
11.292993 4.4017243 0.02708602 0
-2.884119 -11.553969 2.2581587 0
11.966984 -1.9038651 -0.4726311 0
11.178091 4.4009447 1.6591935 0
11.298982 4.4039693 -0.26735473 0
11.565568 -2.0084155 3.0727739 0
11.968843 -1.9040384 0.60496068 0
-2.9684696 -11.2509 3.4452505 0
11.799191 -1.9490867 2.0622516 0
11.956694 -1.902905 -0.83377934 0
-11.851066 -1.9822509 1.7134733 0
11.297158 4.403286 -0.56240106 0
11.297736 4.4035029 0.61211181 0
-11.443678 -2.0852661 3.4814329 0
11.954659 -1.9027152 0.96317267 0
11.289292 4.4003377 -0.85805953 0
11.288106 4.3998933 0.90416789 0
-1.306447 -12.040721 -0.98661757 0
11.047904 4.4071665 2.5126665 0
11.820519 -1.9378309 2.0860009 0
11.563241 -2.0168271 3.1743813 0
-12.013602 -1.9362049 0.18495464 0
11.345811 4.3971786 0.23385429 0
-11.843444 -1.9809257 1.9838982 0
11.169591 4.3978357 2.0153966 0
-12.015367 -1.9363315 -0.29721582 0
3.2080121 -11.395931 2.8423297 0
11.954761 -1.9027246 1.3229568 0
-10.992859 4.3057818 2.9858665 0
-11.998725 -1.9351385 -0.77966368 0
-2.8824344 -11.557916 2.5378962 0
11.790357 -1.9476811 2.3530955 0
-12.008211 -1.9358184 0.66635084 0
-1.149188 -12.090104 -0.98748887 0
-10.663988 4.3067636 4.0363216 0
11.363695 4.4071379 -0.15137768 0
-2.9534497 -11.305945 3.4726205 0
11.357184 4.4035125 0.61777282 0
3.1600561 -11.587892 2.1254482 0
11.310469 4.4082751 1.196542 0
11.363302 4.406919 -0.5376243 0
-11.827778 -1.978202 2.2541862 0
-2.8852282 -11.556512 2.6751587 0
-0.98914576 -12.129098 -0.98732913 0
11.354958 4.4022722 -0.92508924 0
-0.82560897 -12.152838 -0.98553753 0
-11.345654 -2.1009443 4.0269113 0
11.77485 -1.9452137 2.6441593 0
11.306499 4.4067879 1.4890351 0
-12.017667 -1.9364963 1.1487365 0
11.961399 -1.903344 1.6857595 0
11.363915 4.4072604 1.0027907 0
-11.450796 4.3045211 0.077971578 0
11.039017 4.4020491 2.9020512 0
11.827859 -1.939934 2.4648197 0
-11.444036 4.3018761 0.62932181 0
-0.6643703 -12.185468 -0.98516202 0
11.34516 4.3968163 1.3872075 0
-2.852951 -11.907744 0.21828687 0
-11.460261 4.3082247 0.35338783 0
11.180986 4.4020038 2.3790436 0
12.107306 -1.860146 -0.13706088 0
11.29271 4.401619 1.7812324 0
-2.8549266 -11.912455 -0.19731289 0
12.094797 -1.8567543 0.61290824 0
12.109021 -1.860611 0.2382344 0
-11.441433 4.3008575 0.90414703 0
3.1589983 -11.579948 2.510191 0
-2.8542452 -11.91083 -0.61419296 0
-2.8548193 -11.912199 0.63319731 0
-11.843342 -1.980908 2.5296636 0
12.119667 -1.8634975 -0.51488394 0
-2.9655762 -11.243407 3.9280853 0
3.1435621 -11.865487 0.037092447 0
-0.50508761 -12.227634 -0.9862709 0
-12.0188 -1.9365776 1.6328244 0
3.2076526 -11.3929 3.2952604 0
-2.853014 -11.907895 1.0484536 0
-11.451405 4.304759 1.179157 0
-2.883419 -11.560579 3.0184851 0
12.109722 -1.860801 0.98859191 0
-11.443851 -2.0852811 3.9722776 0
3.1476533 -11.878996 0.32598138 0
12.118705 -1.8632367 -0.894225 0
11.9725 -1.9043798 2.0528641 0
3.1453314 -11.871328 0.61541557 0
11.295345 4.4026065 2.0753345 0
11.349699 4.399344 1.7757502 0
-10.992525 4.3056941 3.4663658 0
3.1436217 -11.865684 0.90416396 0
11.792325 -1.9479944 2.9418919 0
-0.34548831 -12.269695 -0.98764884 0
-2.888258 -11.563455 3.0991621 0
11.02515 4.3940654 3.2955041 0
11.829707 -1.9404638 2.8480349 0
-11.453455 4.3055611 1.4545681 0
12.106273 -1.8598657 1.3650696 0
-11.839401 -1.9802228 2.8044333 0
-0.18192053 -12.290502 -0.98666108 0
-11.995685 -1.9349205 2.1169739 0
11.190092 4.4053345 2.747952 0
-2.8549318 -11.912467 1.4657483 0
3.1456571 -11.872404 1.1929393 0
11.950202 -1.9022994 2.4183149 0
3.1582224 -11.574122 2.9001219 0
-0.019130707 -12.315042 -0.98643076 0
11.298453 4.4037714 2.370909 0
11.343991 4.3961654 2.1661458 0
-11.455588 4.306396 1.7306862 0
3.1427591 -11.862835 1.4815619 0
12.096242 -1.857146 1.7427673 0
0.14363539 -12.339606 -0.98649335 0
-2.853673 -12.049043 0.18503034 0
0.30890882 -12.344643 -0.98442745 0
11.797435 -1.9488074 3.2403803 0
-11.443984 4.3018556 2.0064344 0
-11.843884 -1.9810023 3.0827384 0
-2.8531952 -12.047692 0.66634452 0
-2.8588762 -11.921871 1.886591 0
3.1453235 -11.871303 1.7716641 0
11.294928 4.4024501 2.6672556 0
3.2076397 -11.39279 3.7561259 0
11.186059 4.4038596 3.119791 0
-2.8846998 -11.555302 3.5261779 0
11.618046 4.4024525 -0.12252587 0
11.837549 -1.9427109 3.239285 0
11.621264 4.4035773 0.243047 0
-2.887867 -11.572605 3.5081468 0
11.964777 -1.9036591 2.7957358 0
0.46971607 -12.385731 -0.98711145 0
11.618008 4.4024391 0.6082927 0
11.623843 4.404479 -0.49003625 0
-2.8552294 -12.053445 1.1485405 0
12.116689 -1.8626902 2.1279902 0
3.1582916 -11.574641 3.2976923 0
-11.451287 4.3047132 2.285177 0
-12.018835 -1.9365802 2.6110144 0
0.63419795 -12.395738 -0.9862417 0
11.360011 4.4050865 2.5652595 0
-10.995024 4.3063526 3.9554358 0
11.624166 4.404592 -0.85951722 0
3.1482666 -11.881021 2.0632474 0
-2.8542666 -11.910882 2.3082709 0
11.630058 4.4066525 0.97459269 0
0.79805982 -12.411206 -0.98633599 0
11.295732 4.4027514 2.9661331 0
11.682274 4.3996415 0.22868228 0
-11.784515 -1.9997663 3.6222448 0
-2.8555698 -12.054408 1.6324873 0
11.620034 4.4031477 1.341083 0
11.695178 4.4065871 -0.16660196 0
-11.451463 4.3047814 2.5647311 0
12.107786 -1.8602762 2.5130749 0
12.374631 -1.7886091 0.239555 0
-11.164835 4.3023491 3.643054 0
12.370271 -1.7882652 -0.50691742 0
11.950027 -1.902283 3.172431 0
0.9615097 -12.433544 -0.98756444 0
-11.747821 4.2989655 0.18306327 0
3.1473358 -11.877947 2.3550124 0
12.383996 -1.7893479 -0.13368148 0
1.1269331 -12.425113 -0.98529637 0
11.700665 4.4095407 -0.56362408 0
11.700125 4.4092498 0.62307155 0
12.376771 -1.7887779 0.61188245 0
-11.757117 4.3012729 -0.30330414 0
11.684037 4.4005909 1.0173388 0
11.693787 4.4058385 -0.96179175 0
12.368266 -1.788107 0.98425448 0
1.291321 -12.430399 -0.98500621 0
11.356436 4.4030952 2.9659395 0
12.41002 -1.7789586 -0.15131813 0
-11.753016 4.3002548 -0.79091752 0
12.413015 -1.7797251 0.23346293 0
11.621308 4.4035931 1.7105455 0
12.386144 -1.7895173 -0.88512206 0
11.289446 4.4003949 3.2659202 0
-11.77016 4.3045106 0.66873848 0
12.409041 -1.7787082 0.61786544 0
-11.444222 4.301949 2.844821 0
-2.8508329 -12.041014 2.1176019 0
12.41779 -1.7809465 -0.53826606 0
3.1434119 -11.864991 2.6467686 0
-2.8570275 -11.917463 2.7375083 0
-12.012176 -1.9361026 3.1063704 0
1.4556119 -12.438196 -0.98531365 0
12.359946 -1.7874508 1.3574114 0
-2.8817077 -11.555951 3.9984775 0
-2.8494062 -12.234617 0.32338166 0
11.688848 4.4031801 1.4138498 0
-11.757077 4.3012633 1.1547019 0
-2.8517179 -12.246405 0.031362057 0
12.409554 -1.7788396 1.0026929 0
1.6201181 -12.435773 -0.98465478 0
12.422881 -1.782249 -0.92780781 0
12.104881 -1.8594885 2.9042094 0
-2.8541174 -12.258638 -0.26221228 0
-2.8532667 -12.254303 0.61346447 0
-11.425856 4.2947621 3.1244483 0
11.625911 4.4052019 2.0838428 0
-2.8520827 -12.248264 0.90416634 0
12.407464 -1.7783046 1.3887334 0
11.681279 4.399106 1.8114476 0
1.7845956 -12.458869 -0.98741853 0
12.378193 -1.7888901 1.7355428 0
-11.757864 4.3014584 1.6427546 0
11.348041 4.3984208 3.3713665 0
3.1465397 -11.875319 2.9438081 0
1.9491346 -12.447506 -0.98624015 0
-2.8534708 -12.255342 1.1948936 0
2.1131895 -12.428602 -0.98442435 0
-11.783317 -1.999505 4.1353312 0
-2.8515091 -12.042925 2.6084692 0
-2.8528218 -11.907436 3.1689568 0
11.614833 4.401329 2.4584062 0
-2.8520045 -12.247866 1.4855812 0
-11.168209 4.3037219 4.1607866 0
12.371974 -1.7883996 2.1143274 0
12.426543 -1.7831857 1.7796717 0
11.686728 4.4020391 2.2142081 0
-2.851522 -12.359437 0.21100402 0
-2.8519793 -12.360571 -0.21897584 0
12.111534 -1.8612924 3.304143 0
2.278657 -12.448421 -0.9876554 0
-2.8497066 -12.354928 0.64031112 0
3.1440005 -11.866934 3.2399507 0
-12.019592 -1.9366343 3.6112862 0
-2.8532343 -12.254135 1.7775252 0
-2.8546801 -12.367278 -0.65114343 0
-11.768303 4.30405 2.135076 0
2.442903 -12.435241 -0.98712122 0
12.39894 -1.7761238 2.1677265 0
2.6056211 -12.402972 -0.98452556 0
11.934527 4.3487248 -0.98464084 0
-12.62308 -1.7734179 0.17452097 0
11.676442 4.3965025 2.6184099 0
-2.8589673 -12.377924 1.0713561 0
11.623653 4.4044127 2.8421307 0
2.7711675 -12.408635 -0.98688948 0
12.381906 -1.7891829 2.5000365 0
2.9334981 -12.377772 -0.98504019 0
-12.631806 -1.7739182 -0.32890797 0
-12.610752 -1.7727114 -0.83218479 0
12.013664 4.2045078 -0.98523772 0
-2.8562431 -12.269477 2.0715833 0
-2.8540964 -12.050241 3.1060534 0
-2.8503122 -12.356432 1.5015204 0
-12.63012 -1.7738215 0.67700207 0
-2.8571529 -11.917762 3.612566 0
-11.746937 4.2987456 2.627202 0
3.097939 -12.368069 -0.98609126 0
-12.667036 -1.7647078 0.040859938 0
12.410678 -1.7791269 2.5659904 0
-12.671146 -1.7653015 0.32895398 0
12.682244 -1.7049408 0.28731203 0
12.098478 4.0628467 -0.98688769 0
12.686997 -1.7055578 -0.02229768 0
-12.665636 -1.7645056 0.61684334 0
12.684406 -1.7052214 -0.33244896 0
-2.8538208 -12.257127 2.3643527 0
12.679386 -1.7045696 0.59598398 0
-12.653999 -1.7628248 0.90416205 0
-12.634168 -1.7740535 1.1804318 0
12.161461 3.9105384 -0.98584425 0
12.034346 4.4006238 -0.18216777 0
12.037378 4.4022007 0.22318232 0
12.69496 -1.7065915 -0.64537811 0
11.608434 4.3990917 3.2259264 0
12.715191 -1.6903205 -0.1657216 0
12.682311 -1.7049494 0.90418804 0
12.714568 -1.6901708 0.2287308 0
12.680326 -1.7046918 -0.95694244 0
-11.996959 -1.9350119 4.1168604 0
-2.8522706 -12.361295 1.9361866 0
12.378546 -1.788918 2.8886402 0
12.041217 4.4041967 0.62829304 0
12.713576 -1.6899321 -0.56146395 0
12.240185 3.7655318 -0.98722088 0
12.290185 3.6077259 -0.98502541 0
12.677759 -1.7043585 1.2123542 0
12.054265 4.4109807 -0.59102845 0
12.724062 -1.6924553 0.62283957 0
-12.674483 -1.7657835 1.1916902 0
11.687851 4.4026432 3.0330033 0
-2.852272 -12.24923 2.6587706 0
-12.656735 -1.7632198 1.478694 0
12.721718 -1.6918912 -0.96074748 0
12.051112 4.4093418 1.0345581 0
12.721918 -1.6919394 1.0174842 0
-12.6399 -1.774382 1.6861391 0
12.087791 4.4013524 -0.52835947 0
12.366156 3.4612224 -0.98659706 0
12.40741 -1.7782907 2.9669738 0
12.101938 4.4060726 0.235093 0
12.681691 -1.7048689 1.5210397 0
12.109413 4.408567 -0.14699882 0
12.096709 4.4043279 0.6162107 0
12.418602 3.3049119 -0.9853282 0
-12.200953 -1.8821397 3.710731 0
-2.8502612 -12.356305 2.3732815 0
12.71356 -1.6899281 1.4128623 0
-11.755994 4.3009939 3.1293488 0
-2.8558483 -12.055194 3.6104059 0
-12.667004 -1.7647032 1.7674661 0
12.103011 4.4064307 -0.91522944 0
12.483065 3.1534731 -0.98594081 0
12.052185 4.4098992 1.4422231 0
-2.8520045 -12.247866 2.9558406 0
12.369387 -1.7881954 3.2817645 0
12.108253 4.4081793 0.99833465 0
3.1476486 -12.534125 0.18906116 0
12.535527 2.9974568 -0.98526525 0
12.809086 -1.6636856 0.61925328 0
12.687296 -1.7055966 1.830699 0
12.826962 -1.6648386 0.23183393 0
-12.626917 -1.7736378 2.1930461 0
12.832751 -1.6652119 -0.15667492 0
12.829694 -1.6650147 -0.5462389 0
3.1485944 -12.543205 0.66249812 0
12.594945 2.8440037 -0.98578918 0
12.04452 4.4059138 1.8512626 0
-12.673484 -1.7656392 2.0573068 0
12.641036 2.6859398 -0.98487043 0
12.721732 -1.6918948 1.812149 0
12.111303 4.4091973 1.381928 0
12.395605 -1.7752707 3.3718767 0
12.683805 2.5270097 -0.9838202 0
12.83445 -1.6653215 -0.93893719 0
11.704714 4.4117198 3.4569082 0
12.835826 -1.6654102 1.0082364 0
-2.8537436 -12.666142 0.17484903 0
3.1490579 -12.547656 1.1369066 0
-2.8522506 -12.24912 3.2556314 0
12.81085 -1.6637994 1.3959868 0
-12.658531 -1.7634794 2.346184 0
12.703693 -1.7077254 2.1426482 0
-2.8530312 -12.664032 0.676512 0
12.103245 4.4065084 1.7666597 0
-2.8547373 -12.36742 2.8182356 0
12.748137 2.3748147 -0.98583269 0
12.778839 2.2124593 -0.9838202 0
12.043339 4.4053001 2.2643762 0
-2.8489561 -12.651962 1.1780801 0
12.723329 -1.6922791 2.2143931 0
12.977023 -0.57819539 -0.98490095 0
12.955887 -0.96320021 -0.98503828 0
12.682405 -1.7049617 2.4522851 0
12.92268 1.3473643 -0.98502994 0
3.1483717 -12.54107 1.6123972 0
12.923201 -1.3474168 -0.98510361 0
12.994585 -0.19287795 -0.98581457 0
12.962976 0.96370965 -0.98603725 0
12.985898 0.57857752 -0.98614919 0
12.679163 2.869524 -0.98484766 0
12.827962 2.1127844 -0.98567903 0
-11.718813 4.3044686 3.7620449 0
13.003621 0.19300759 -0.98708463 0
12.593997 3.2456067 -0.98521745 0
-12.635099 -1.7741069 2.7067645 0
12.891211 1.7320704 -0.98682761 0
12.766084 2.493603 -0.98627889 0
12.843474 2.059756 -0.98642874 0
-2.8522992 -12.045159 4.1190662 0
12.382876 3.9872336 -0.98469949 0
-12.65487 -1.7629505 2.6375368 0
12.09201 4.4027605 2.1535788 0
-11.774031 4.3054714 3.6411519 0
12.878846 1.8989034 -0.98559642 0
12.825037 -1.6647143 1.7891788 0
12.269531 4.3558841 -0.98563766 0
12.507025 3.6216705 -0.98689568 0
-12.215266 -1.8850467 4.2422714 0
12.916617 1.7387934 -0.98536134 0
-2.8495388 -12.653687 1.68187 0
12.954565 -1.5787444 -0.98543811 0
12.031859 4.3993311 2.6797349 0
12.955935 1.5790534 -0.98561049 0
-2.8483663 -12.351601 3.2634106 0
12.97808 -1.4156039 -0.9839915 0
3.1478577 -12.536133 2.0905414 0
12.984078 1.416867 -0.98474431 0
12.691721 -1.706171 2.7669487 0
12.728656 -1.6935608 2.6219728 0
-12.656581 -1.7631975 2.9315224 0
12.089632 4.4019666 2.5457845 0
13.01958 -1.2562916 -0.98509181 0
13.022993 1.2569592 -0.98551881 0
12.84135 -1.6657665 2.1870918 0
13.05828 1.0961781 -0.98612475 0
13.05961 -1.0964186 -0.98629081 0
-12.623976 -1.7734692 3.2230139 0
13.081079 0.93314511 -0.98546171 0
13.081468 -0.93320984 -0.98551011 0
-2.849328 -12.653065 2.188571 0
-2.8499556 -12.84402 -0.24250674 0
13.060021 -1.6025305 -0.18227756 0
-2.845284 -12.831923 0.64802814 0
13.05985 -1.6024921 0.22320855 0
-2.8509722 -12.846653 0.20309615 0
13.103515 0.77017945 -0.98504508 0
13.054233 -1.6012249 -0.58872831 0
13.053715 -1.6011081 0.62808156 0
-12.445787 4.3012948 0.012910247 0
12.688836 -1.7057965 3.0820951 0
12.411406 4.40447 0.27091479 0
3.1464102 -12.776658 0.63358223 0
-2.8498397 -12.84372 -0.68976486 0
-12.449217 4.3025241 0.3103652 0
12.416673 4.4067721 -0.20015812 0
-12.444372 4.300787 0.60754991 0
3.1481125 -12.53858 2.5736315 0
12.421189 4.409039 0.21716189 0
13.138508 -0.44316429 -0.9838593 0
12.410822 4.4038358 -0.61852419 0
13.133766 -0.60834724 -0.98588729 0
12.427265 4.4099011 -0.047757685 0
12.413095 4.4049764 0.63407993 0
3.149725 -12.804599 -0.19992876 0
3.1497395 -12.804721 0.21732438 0
13.137983 0.60892421 -0.98641002 0
13.130876 -0.77432257 -0.9884429 0
-12.438426 4.298655 0.90417361 0
3.1486511 -12.795547 -0.61791658 0
12.72719 -1.6932082 3.0338955 0
12.428897 4.41046 -0.36684704 0
12.832283 -1.6651816 2.5856357 0
-11.711856 4.3017535 4.2959118 0
13.058434 -1.6021729 1.0335922 0
12.088509 4.4015923 2.9434805 0
-12.673709 -1.7656717 3.230783 0
-11.764339 4.3030658 4.1549277 0
12.426064 4.4094896 0.58736753 0
13.159386 -0.28016192 -0.98411942 0
12.411213 4.4044042 0.90419817 0
13.158808 0.44564623 -0.98637044 0
13.163763 0.28063351 -0.98466003 0
12.052558 4.4100933 3.1082344 0
12.43194 4.4115024 -0.68758094 0
-2.8546715 -12.856231 1.0945926 0
12.402756 4.4015079 1.2204556 0
3.1490312 -12.79875 1.0510201 0
-12.446625 4.3015947 1.2008538 0
13.187123 0.0473001 -0.98377526 0
12.423335 4.4101157 1.0519485 0
-2.854444 -12.366692 3.7235498 0
13.189996 0.11797267 -0.98586726 0
13.05283 -1.6009085 1.4400024 0
13.192022 -0.11816186 -0.98611724 0
12.681692 -1.704869 3.3987179 0
13.206073 0.21071053 -0.98466146 0
-2.8487778 -12.651434 2.6994214 0
13.21226 -0.045317292 -0.98687124 0
-2.851531 -12.848099 1.5415754 0
13.212713 -0.21028227 -0.98547852 0
-12.446033 4.301383 1.4978266 0
12.809021 -1.6636814 2.9857039 0
13.216235 -0.37480211 -0.98475432 0
3.148679 -12.795782 1.4693372 0
13.214551 0.5393731 -0.98368025 0
-12.422362 4.2928953 1.7936997 0
12.432623 4.4147773 1.4720583 0
13.235313 0.37384564 -0.98709977 0
3.1473179 -12.530951 3.0602989 0
12.429228 4.4105735 1.5383613 0
13.224847 0.70347011 -0.98436725 0
13.232975 -0.53871357 -0.98594403 0
13.057341 -1.6019261 1.8497744 0
12.404636 4.4021516 1.854485 0
13.229383 -0.86780214 -0.98463547 0
-12.63217 -1.7739389 3.7500033 0
13.233449 0.867773 -0.98513472 0
12.040767 4.4039621 3.5355301 0
13.245674 -0.7030229 -0.98692513 0
12.733142 -1.6946404 3.4544525 0
13.227976 1.0321878 -0.98446274 0
13.230053 -1.0322027 -0.98471773 0
12.417769 4.4073229 1.892154 0
12.106798 4.4076943 3.3530407 0
-2.8537803 -12.853923 1.9925241 0
13.229294 1.1966254 -0.98491347 0
-12.609281 4.295485 0.16845763 0
13.234995 -1.1967478 -0.98561358 0
3.1508918 -12.814434 1.8926821 0
13.226638 1.3610595 -0.98516536 0
13.227592 -1.3610938 -0.98528266 0
-12.449751 4.3027158 2.0944319 0
-12.623846 4.2988801 -0.34743845 0
13.219263 1.5253496 -0.98512661 0
13.20277 1.6890764 -0.98425508 0
13.05735 -1.6019282 2.2626686 0
12.413353 4.4051371 2.1737165 0
-12.673447 -1.76386 3.8125439 0
-12.626004 4.2993827 0.68324208 0
-12.616052 4.2970634 -0.86426401 0
13.237563 -1.5262672 -0.98737645 0
12.617413 4.4059091 0.22653842 0
-2.8505192 -12.656591 3.217226 0
12.82083 -1.664443 3.4000511 0
12.620063 4.4067516 -0.17241621 0
13.203943 1.8540267 -0.98584688 0
12.410855 4.4038525 2.3161092 0
13.183386 2.0173559 -0.98505211 0
13.158054 2.1800184 -0.98395503 0
-12.437834 4.2984428 2.3929496 0
12.617725 4.4060087 -0.5725705 0
12.6182 4.4061594 0.6248759 0
-12.61586 4.2970185 1.1984086 0
-2.8511109 -12.847012 2.4456322 0
13.141877 2.3435762 -0.98427618 0
3.1501632 -12.808293 2.3170362 0
12.405684 4.4025102 2.492744 0
12.616413 4.4055915 -0.97513759 0
13.13677 2.5087581 -0.98625958 0
3.1486511 -12.543753 3.5578208 0
12.630192 4.4099708 1.0243731 0
13.112765 2.6715803 -0.98619401 0
13.079024 2.832804 -0.98520601 0
13.052373 2.9951098 -0.9853878 0
13.063327 -1.6032763 2.6813455 0
13.023283 3.1570163 -0.98555517 0
12.397903 4.3973522 2.7429237 0
-12.44296 4.300281 2.6950512 0
12.864965 3.7953525 -0.98383725 0
12.996788 3.3195431 -0.98633897 0
12.956171 3.4791067 -0.98564029 0
-12.629387 4.3001714 1.7168617 0
12.63068 4.4101257 1.4251597 0
-12.631999 -1.7739291 4.2838917 0
12.921478 3.6399629 -0.98597515 0
12.829103 3.9558597 -0.98460054 0
12.411806 4.4046073 2.8151836 0
3.1497154 -12.80452 2.7461395 0
12.741376 4.2727718 -0.98496532 0
12.793893 4.1167731 -0.98574293 0
-2.8520989 -12.84957 2.9052331 0
-12.433245 4.2967973 2.9967992 0
12.624484 4.4081569 1.8275774 0
-2.85356 -12.665598 3.7434282 0
-12.676064 -1.7643528 4.3572369 0
-12.625054 4.2991614 2.2372141 0
13.064109 -1.6034527 3.1049466 0
12.413623 4.4052291 3.1392956 0
3.1474333 -12.532057 4.0577369 0
12.412407 4.4046311 3.1816449 0
12.617489 4.4059334 2.232872 0
12.814862 4.4096451 0.21099365 0
12.803525 4.4041567 0.64018631 0
3.1488349 -12.797097 3.1799927 0
12.8262 4.415133 -0.2196027 0
12.816762 4.4105649 -0.65064025 0
-12.443851 4.3006005 3.304451 0
-2.8512306 -12.847322 3.3701191 0
12.809674 4.4071336 1.0700405 0
-12.303242 4.3021798 3.887898 0
12.40789 4.4032664 3.4644833 0
3.1506469 -13.247517 0.26470208 0
3.1513023 -13.249929 -0.056089938 0
13.056015 -1.6016271 3.533052 0
-2.8481426 -13.320255 0.16403592 0
-12.630228 4.3003674 2.7632818 0
3.1450431 -13.2269 0.90420139 0
12.619967 4.4067211 2.6440916 0
3.150841 -13.248231 0.58460784 0
12.81222 4.4083657 1.5015986 0
-2.8452392 -12.640953 4.2693372 0
-2.8510456 -13.329277 0.68752944 0
-2.846427 -13.360555 0.19473314 0
3.1486206 -13.240063 1.2235992 0
12.416807 4.4068398 3.6256113 0
-2.8501568 -13.370639 -0.2683273 0
-2.8446407 -13.355725 -0.73150635 0
3.149931 -12.806336 3.6248674 0
-2.8491449 -13.323371 1.2115021 0
12.804894 4.4048195 1.9346533 0
-2.8521128 -13.375928 0.65695286 0
12.609783 4.4034843 3.0580473 0
3.1513982 -13.250282 1.5438371 0
-2.8482442 -13.365469 1.1194382 0
-2.8518682 -12.848972 3.8435125 0
-2.8510175 -13.32919 1.7380395 0
3.1507242 -13.247801 1.8643436 0
-12.634195 4.3012919 3.2953339 0
12.80723 4.4059501 2.3725667 0
-12.287931 4.2964554 4.4396009 0
-2.848525 -13.366228 1.5838859 0
3.1503391 -13.246385 2.1858788 0
-2.846796 -13.316071 2.2657895 0
12.622968 4.4076748 3.4845495 0
-2.8488641 -13.367145 2.0512574 0
12.812386 4.4084463 2.8161428 0
3.1518455 -13.251927 2.5095901 0
-12.624028 4.2989225 3.8315935 0
13.794186 -1.5874453 0.21074057 0
13.798632 -1.5883813 -0.21994078 0
13.795907 -1.5878077 0.64069009 0
-2.8505659 -13.371745 2.5233448 0
-2.8483424 -13.320877 2.8001006 0
13.801144 -1.5889103 -0.65234649 0
3.1515779 -13.250943 2.8343856 0
13.19394 4.4095035 0.2169075 0
13.199154 4.4110785 -0.2014724 0
13.189873 4.4082742 0.63441825 0
13.790332 -1.5866337 1.0708961 0
13.202543 4.4121027 -0.62160075 0
12.819345 4.4118152 3.2666473 0
13.233045 4.4104853 0.20439458 0
13.235578 4.4116673 -0.23890251 0
13.226131 4.4072599 0.64687216 0
13.225855 4.4071307 -0.68283749 0
13.201818 4.4118834 1.0530181 0
13.803815 -1.5894728 1.5039852 0
3.1535904 -13.258348 3.1626959 0
13.199245 4.4111061 1.4726992 0
-2.8500295 -13.370295 2.9997737 0
13.24411 4.415648 1.0907958 0
-2.8477721 -13.319104 3.339366 0
13.798295 -1.5883105 1.9383094 0
13.22954 4.4088502 1.5345931 0
13.191801 4.4088573 1.8941395 0
-12.626259 4.2994423 4.3792462 0
12.813312 4.4088941 3.7211504 0
3.1514883 -13.250613 3.4909315 0
13.790169 -1.5865993 2.3755567 0
13.233812 4.4108434 1.9825373 0
13.185061 4.4068203 2.3187802 0
-2.8481817 -13.365299 3.4817333 0
13.780551 -1.5845742 2.8167882 0
-2.8451009 -13.310802 3.8842878 0
13.235788 4.4117656 2.4342685 0
13.200163 4.4113832 2.7520852 0
-12.933109 4.2995272 4.0242586 0
-2.8465257 -13.928833 -0.29577261 0
-2.8485866 -13.934661 0.18529665 0
-2.8485837 -13.366385 3.9728899 0
-2.8480711 -13.933204 0.6660763 0
13.228501 4.4083657 2.8891907 0
-13.558327 -1.7042596 4.0111294 0
-2.8525605 -13.945898 -0.78029776 0
-13.596132 4.2947903 0.15165651 0
-2.8452911 -13.925342 1.1469784 0
-13.60183 4.2941914 -0.063395739 0
-13.599535 4.2955322 -0.39728159 0
-13.603947 4.2948823 0.25961685 0
13.797489 -1.5881407 3.2696247 0
13.191937 4.4088984 3.1867962 0
-13.599566 4.2934518 0.58219254 0
-13.605266 4.2967815 0.69990659 0
-2.8395133 -13.909004 1.628274 0
-13.597374 4.2950606 -0.94797802 0
-13.603311 4.2946749 0.90420508 0
-2.8410854 -14.030349 0.15224671 0
-13.604056 4.2949185 1.2263279 0
-2.846271 -13.314439 4.440815 0
-13.606836 4.2971244 1.249073 0
13.225616 4.4070191 3.3508868 0
-2.8449087 -14.042843 0.69938135 0
13.666176 4.4061379 0.19755197 0
-13.621053 4.300468 1.5496337 0
-12.918612 4.2943416 4.5981169 0
13.673994 4.4096503 -0.25974977 0
-2.8462486 -13.928049 2.1159134 0
13.671624 4.408586 0.65395224 0
-13.596705 4.2925181 1.8714323 0
-2.8447981 -14.042481 1.2473919 0
13.200703 4.4115467 3.6327248 0
-13.609988 4.2978115 1.8005075 0
13.677798 4.4113598 -0.71894312 0
13.80717 -1.5901792 3.729054 0
-13.553782 -1.7034714 4.5857697 0
-13.59175 4.2909002 2.1949921 0
13.693007 4.4181914 1.112242 0
13.743822 4.4100857 0.2118609 0
13.750503 4.4121614 -0.13575387 0
13.748206 4.4114475 -0.48395061 0
-2.8465862 -13.929005 2.6061306 0
13.753912 4.4132209 0.55798936 0
-2.8494387 -14.057644 1.7988062 0
-13.601468 4.2959538 2.3540807 0
13.228258 4.4082522 3.8214989 0
13.678823 4.4118195 1.5704412 0
13.754183 4.4133048 -0.83456433 0
13.755242 4.4136338 0.90423465 0
-14.395765 -1.1810501 -0.98643661 0
-14.41737 0.95004284 -0.98818219 0
-14.425089 -0.9500429 -0.98885751 0
-13.607908 4.296176 2.5223155 0
14.403699 -1.5847321 -0.23863059 0
13.74844 4.4115205 1.2503469 0
-14.412498 1.1812897 -0.98790073 0
14.397145 -1.5844035 0.64684904 0
-14.397425 -1.4121996 -0.98701596 0
14.418567 -1.5854776 0.20417655 0
-14.407419 1.4124858 -0.98789084 0
13.812155 4.4085798 -0.67267883 0
-2.8434043 -14.037926 2.3502316 0
-14.38941 -1.6431706 -0.98703825 0
14.416515 -1.5853747 -0.68444502 0
13.833009 4.414556 0.20618117 0
-14.395096 1.643415 -0.98753607 0
13.821085 4.411139 0.64500213 0
13.837422 4.4158211 -0.2336325 0
13.689978 4.416831 2.0337703 0
13.756035 4.4138803 1.5972056 0
14.407703 -1.5849328 1.0902405 0
-13.594789 4.2918925 2.8478889 0
-2.8448071 -13.923974 3.1006374 0
-14.391954 1.8748014 -0.98827529 0
13.820705 4.4110303 1.084121 0
-13.597789 4.2951512 2.9125948 0
13.747554 4.4112449 1.944011 0
-14.38352 2.1060987 -0.98884153 0
14.409685 -1.5850322 1.5352464 0
13.673571 4.4094601 2.4971619 0
-14.329285 2.5657327 -0.98756301 0
-14.371208 2.3372951 -0.98935831 0
13.839105 4.4163032 1.5265315 0
-14.304892 2.7956429 -0.98759615 0
-2.8426099 -14.03533 2.9077961 0
-13.604943 4.295208 3.1789813 0
13.746565 4.4109378 2.2922664 0
14.410615 -1.585079 1.9829898 0
-14.283581 3.026011 -0.9881916 0
13.822513 4.4115481 1.9685249 0
-2.8427782 -14.372683 0.22548556 0
-2.8438501 -14.379121 -0.11526132 0
-2.8421412 -14.368855 0.56512964 0
-14.25939 3.2562087 -0.98882461 0
-2.8437033 -14.37824 -0.45673108 0
-2.8475575 -13.93175 3.6046648 0
-14.216728 3.4837317 -0.98811448 0
13.742161 4.4095697 2.6415732 0
-13.597459 4.2950792 3.4777231 0
-13.600514 4.2937617 3.5102267 0
-2.8448954 -14.3854 0.9042263 0
13.696333 4.4196858 2.9727912 0
-14.187056 3.7133203 -0.98884487 0
14.410626 -1.5850794 2.4345083 0
-14.13731 3.9394212 -0.98808229 0
-2.8452196 -14.387344 1.2437594 0
13.838946 4.4162574 2.4185557 0
-14.096416 4.1671143 -0.98839629 0
-2.8423605 -14.370172 1.5828495 0
13.753462 4.4130807 2.9948833 0
-2.8498516 -14.058993 3.4767098 0
14.396829 -1.5843877 2.8883629 0
14.686695 -1.5824785 0.19549036 0
13.673084 4.4092417 3.4450316 0
14.689814 -1.5830886 -0.26565713 0
-2.8454075 -14.388474 1.9243813 0
14.695892 -1.5842779 0.65607321 0
13.82784 4.4130745 2.8692243 0
-2.8470359 -13.930276 4.1148367 0
14.701783 -1.5854306 -0.72950697 0
-2.8430076 -14.534343 0.17543495 0
14.68727 -1.5825911 1.1169212 0
14.148381 4.4107337 0.18981719 0
13.748037 4.4113955 3.3481874 0
14.150941 4.41184 -0.28267002 0
-13.601669 4.2959976 4.0516248 0
-2.8419771 -14.531291 -0.82840228 0
-2.8449864 -14.385945 2.2659202 0
-2.8514175 -14.559252 -0.32708353 0
-2.8494158 -14.553323 0.67631459 0
14.15977 4.4156551 0.66179931 0
14.16564 4.4181919 -0.75824177 0
14.146522 4.4099302 1.1338177 0
14.396053 -1.5843488 3.3504596 0
-2.8462377 -14.543911 1.1776347 0
14.700726 -1.5852237 1.5808125 0
3.1574917 -14.528644 -0.28977406 0
3.1577435 -14.531058 0.18736005 0
-13.61646 4.2972326 4.1730108 0
3.1569066 -14.523026 -0.76820612 0
3.15749 -14.528626 0.66399717 0
-2.8452797 -14.044055 4.0458202 0
3.1554332 -14.508875 1.1401324 0
13.828719 4.4133267 3.3281188 0
-2.8447442 -14.38449 2.6089551 0
13.673663 4.409502 3.9301529 0
13.751679 4.4125271 3.7057295 0
-2.8458161 -14.542662 1.6808519 0
14.691051 -1.5833309 2.0456138 0
14.159554 4.4155622 1.6090617 0
3.1565847 -14.519934 1.6193342 0
-2.8448486 -14.385118 2.9540908 0
-2.8410897 -14.528662 2.1854086 0
14.161527 4.4164147 2.0867338 0
14.697912 -1.5846732 2.5163951 0
14.414073 -1.5852523 3.8250556 0
3.155993 -14.51425 2.1001849 0
13.828382 4.4132299 3.794198 0
-13.6155 4.2990131 4.6377974 0
-2.8422217 -14.369338 3.2987881 0
-2.8391404 -14.522889 2.6946497 0
-13.61049 4.2951932 4.7731962 0
14.163408 4.4172277 2.5686548 0
3.1551948 -14.506586 2.584461 0
14.686031 -1.5823486 2.9891922 0
-2.8497062 -14.058518 4.63132 0
-2.8436775 -14.378082 3.6500702 0
-2.8427167 -14.839827 0.13869798 0
-2.842432 -14.838847 0.71268415 0
