# .PCD v0.7 - Point Cloud Data file format
VERSION 0.7
FIELDS x y z intensity
SIZE 4 4 4 4
TYPE F F F F
COUNT 1 1 1 1
WIDTH 1439
HEIGHT 1
VIEWPOINT 0 0 0 1 0 0 0
POINTS 1439
DATA ascii
0.80723917 3.7227869 0.68174028 0
1.0689058 3.7094181 0.27682769 0
-0.52477956 3.7353218 0.86674476 0
-0.27281499 3.7376587 0.97060061 0
-0.029118299 3.7219608 1.0652542 0
0.88366735 3.7088954 0.67398441 0
0.29056156 3.7200167 1.0337005 0
1.0706517 3.7022755 0.37624454 0
-0.20838928 3.7375393 0.99110484 0
0.078696251 3.7252901 1.0547671 0
1.1104854 3.7099898 -0.022785425 0
-0.80885768 3.7414327 -0.58777416 0
0.67263722 3.719342 0.8448174 0
-0.88704085 3.7342241 0.51947296 0
0.63000965 3.7146075 0.89774585 0
-0.31613588 3.7309282 0.99082482 0
0.13176608 3.7261288 1.0496645 0
-0.33148932 3.7339888 0.97563219 0
0.0059601068 3.7208142 1.0785415 0
-0.14087439 3.7187989 1.0767057 0
-0.66658044 3.7422695 0.7483983 0
0.91146338 3.7129333 0.62734091 0
1.1554048 3.693784 0.1802001 0
0.7651552 3.7161617 0.78595471 0
0.71704757 3.7251813 0.7890054 0
0.34073782 3.7200212 1.0292327 0
1.0245769 3.7183738 0.37577546 0
-0.9586587 3.7405164 -0.32933825 0
-0.086630344 3.7236218 1.0716147 0
-0.58789182 3.7305808 0.87123215 0
1.1113307 3.7063038 -0.22715908 0
-0.74514413 3.7331116 0.72947395 0
1.0185153 3.7241566 0.34313703 0
1.1543618 3.6986508 -0.12071353 0
-0.4488492 3.7221844 0.98547029 0
0.39065337 3.7190816 1.0247481 0
0.93954647 3.7176373 0.57673955 0
-0.2950604 3.7211363 1.051477 0
0.74438274 3.7117512 0.84280992 0
1.1095213 3.7141948 -0.12555075 0
0.67636025 3.7129891 0.89481354 0
0.8981725 3.7118809 0.67839491 0
-0.85429335 3.743304 0.55237675 0
1.1134889 3.6968927 0.37650824 0
-1.0312121 3.7345691 -0.196899 0
-0.10164332 3.7251015 1.0782015 0
0.67429769 3.7122886 0.90392077 0
-1.0354652 3.7388375 -0.057698011 0
-0.53040385 3.7362852 0.90391672 0
0.11545324 3.725601 1.0794561 0
-0.21959877 3.7298081 1.0488105 0
0.31124151 3.7297471 1.0266051 0
0.72358286 3.7075105 0.8913573 0
0.80992365 3.7148356 0.78400517 0
0.17988753 3.7342641 1.0463994 0
-0.81191325 3.7447746 0.62416112 0
1.1081643 3.7201121 0.076745033 0
1.0887265 3.7109816 0.34354377 0
-0.8767817 3.7346253 -0.59881401 0
1.1557131 3.6923456 -0.32579178 0
-1.0374124 3.7407916 0.081019163 0
-0.54849219 3.7415192 0.88251352 0
-0.42323446 3.7308953 0.99077034 0
-0.6380589 3.7425425 0.81668448 0
0.90914333 3.7066064 0.72001517 0
-3.514245 1.3269074 -0.98669493 0
-0.73428345 3.7389953 0.75208509 0
0.9835906 3.7130349 0.57587957 0
0.23166549 3.7346761 1.0416043 0
0.48845375 3.7169938 1.0162809 0
-0.39658046 3.7371666 0.98225343 0
0.53317606 3.7108848 1.0169611 0
1.1519507 3.7099018 -0.021349669 0
0.22518015 3.724869 1.0802624 0
0.38473594 3.7278292 1.0238004 0
1.1098282 3.7128561 0.2771467 0
-0.20388627 3.7251494 1.0846848 0
0.76938975 3.7041876 0.88839459 0
1.0658927 3.721745 -0.3388508 0
-0.20901632 3.7278385 1.0779343 0
-1.0360444 3.7394185 0.2193296 0
-0.89187264 3.7506633 0.49282444 0
1.110527 3.7098088 -0.33298188 0
-3.5174851 -1.3271396 -0.9875654 0
0.5368396 3.7148356 1.012074 0
-0.95710349 3.7389104 -0.47055328 0
0.43613088 3.7260377 1.0221438 0
1.1972908 3.6890948 0.27932501 0
1.1533515 3.7033648 0.27812624 0
1.0690941 3.708648 0.47526991 0
-0.96760321 3.7497537 0.35767424 0
-0.62918568 3.7354567 0.88518274 0
-0.37694502 3.725086 1.0560071 0
0.45746434 3.7262847 1.0211887 0
0.98638558 3.7028711 0.67548501 0
1.0719875 3.6968107 0.57389212 0
1.0188831 3.7217848 0.50822091 0
-0.53019977 3.7267981 0.99069273 0
0.33602798 3.7242119 1.0812268 0
1.1502184 3.7179859 0.078117967 0
-1.0343134 3.7376816 -0.3392505 0
-0.88163733 3.7397857 0.62645447 0
0.79534209 3.7234013 0.81252551 0
0.56171954 3.7223234 0.99371588 0
0.81364346 3.7133367 0.84171832 0
-0.80476379 3.7438214 0.7056036 0
-3.497344 -1.4011719 -0.9837451 0
-0.32298875 3.7225831 1.0978496 0
-0.85452175 3.7454185 0.64044714 0
0.85252154 3.7187998 0.78282976 0
1.0260028 3.712882 0.57529783 0
0.89900589 3.7091579 0.77999091 0
-0.63770676 3.7355323 0.90391684 0
1.1935794 3.7077093 0.080432057 0
0.95095646 3.7176421 0.67382073 0
1.1507654 3.7154331 -0.22724539 0
1.0893983 3.7061994 0.50777185 0
-0.74538612 3.7361698 0.81667137 0
1.1560308 3.6908631 0.47462809 0
1.1931876 3.7096748 -0.019991577 0
1.1933891 3.7086644 -0.12108314 0
-0.96243954 3.7369523 0.55173743 0
0.79045165 3.7087798 0.90392172 0
0.94423294 3.7015021 0.77750301 0
1.0219854 3.7017806 0.67240334 0
1.1570417 3.7076399 0.34375894 0
-1.101398 3.7244337 -0.34670955 0
-0.96400356 3.7460363 0.49363542 0
1.1526681 3.7065544 0.37649179 0
1.1938226 3.7064898 -0.22321004 0
0.67807829 3.7085404 1.0005016 0
1.1106797 3.7091424 0.47511101 0
0.44787824 3.7222669 1.0822883 0
1.1959722 3.695708 0.37683022 0
1.0329962 3.7113464 0.62440515 0
0.22380126 3.717262 1.1681333 0
0.93666196 3.7275686 0.67874777 0
-0.88734031 3.7347572 0.7072798 0
0.0065313578 3.725476 1.1664195 0
1.2352777 3.7035177 -0.017777145 0
0.62791789 3.7198017 1.0061154 0
0.23839784 3.722275 1.1539605 0
-0.27317119 3.7381513 1.0945578 0
-0.38716078 3.7248981 1.1057341 0
1.2360005 3.6995997 0.18107986 0
-1.0428474 3.7462459 0.35679746 0
0.079191923 3.7244637 1.1726291 0
-0.95510936 3.736851 -0.61373723 0
0.57815313 3.7279596 1.0112603 0
-0.52846456 3.7398469 0.99554455 0
-1.1189508 3.7415524 0.075901031 0
-3.5097299 1.4022382 -0.98707616 0
0.13166511 3.7263026 1.1668377 0
-1.1198962 3.7424743 -0.065382004 0
-0.42322731 3.7318981 1.0777652 0
0.80874634 3.7183228 0.88847423 0
-0.31571722 3.7425916 1.0783715 0
0.85554695 3.7093971 0.88481081 0
0.72299063 3.7091117 0.99751866 0
0.98675275 3.7015359 0.77608681 0
0.60042024 3.7260358 1.0167472 0
-0.20918703 3.7251956 1.164994 0
0.49125445 3.7108188 1.1255755 0
1.2786466 3.6874852 -0.21534067 0
1.2344496 3.7080042 0.081342459 0
1.1913124 3.7190802 0.1786691 0
0.39028168 3.7198427 1.1373932 0
0.3178587 3.7081249 1.1972487 0
0.2872231 3.7263818 1.1494899 0
-0.31654167 3.7196128 1.164227 0
0.022389293 3.7282321 1.1801982 0
1.0259072 3.7132504 0.6754694 0
-0.85464191 3.746531 0.72837722 0
1.2350967 3.7044981 -0.22096211 0
0.18210042 3.7303236 1.16187 0
-0.81627965 3.7495501 0.75757384 0
0.33802211 3.7253842 1.1439121 0
-0.10094643 3.7325537 1.1661043 0
0.91268492 3.7162647 0.8117795 0
-0.087248802 3.7245593 1.1931212 0
-1.1198049 3.7423851 0.2160995 0
1.1111072 3.7072787 0.57395339 0
-0.059190273 3.7176216 1.2181914 0
-0.59224582 3.7357738 1.001482 0
-0.74519634 3.7337711 0.90391695 0
0.56073189 3.7186899 1.0834336 0
0.33520603 3.7203174 1.1698432 0
-0.73637629 3.7413509 0.88414681 0
0.88162231 3.7199771 0.84116769 0
-0.96050143 3.7424195 0.62940812 0
1.2350872 3.7045498 0.27890289 0
-0.96297312 3.7408426 0.63984251 0
1.2333002 3.7142332 -0.12068379 0
-0.67723966 3.7546196 0.88058901 0
0.11697006 3.735594 1.1681709 0
0.67857862 3.7264237 0.99455976 0
-0.71938229 3.7455995 0.88958681 0
-1.040966 3.7443581 -0.48501825 0
-0.63768363 3.7350729 0.99097538 0
-1.1237853 3.7462671 -0.20862556 0
1.1543114 3.6988859 0.57303369 0
-0.88179016 3.739948 0.76085567 0
-0.035906553 3.7325766 1.1882164 0
-0.46602106 3.7417929 1.062458 0
-0.13713551 3.7194698 1.2229936 0
1.2248701 3.7056048 0.3439337 0
1.1915748 3.7177639 -0.33051527 0
0.24046004 3.7210524 1.2028737 0
-1.19261 3.7325227 -0.07097137 0
-0.51332927 3.7212608 1.1203933 0
-0.14764929 3.7287543 1.2016888 0
1.2346549 3.7068923 -0.32547837 0
1.3183247 3.6909447 -0.11345381 0
-3.4962344 1.4767227 -0.98532975 0
1.0893766 3.7063539 0.67212415 0
1.2751569 3.7080407 -0.017380834 0
0.76567483 3.7146924 0.99571645 0
0.58415008 3.7136629 1.1175985 0
1.1939635 3.7057827 0.47474897 0
0.53466213 3.7198255 1.1234014 0
0.43438494 3.7297454 1.1350508 0
1.27508 3.7084935 -0.11816859 0
-1.0455823 3.7489908 0.49467003 0
-0.45780492 3.7335093 1.1154952 0
1.0675364 3.7150209 0.67472947 0
1.2754426 3.706357 0.18109965 0
0.1633327 3.7299535 1.2080374 0
0.95170176 3.7132518 0.8395189 0
0.89659095 3.7170491 0.88402033 0
1.1559273 3.7164924 0.50779665 0
1.035535 3.7177 0.71742797 0
0.38737607 3.7187393 1.195713 0
-1.1222568 3.7447765 0.35583019 0
0.087346554 3.7327859 1.2123928 0
-3.5015979 -1.4772619 -0.98677409 0
-0.54735422 3.7391899 1.0664892 0
0.85774624 3.7025621 0.98775673 0
1.293577 3.6916764 0.34429979 0
1.0267292 3.7100847 0.77583313 0
0.79263914 3.7153201 0.99512029 0
-0.42326593 3.7265244 1.1645498 0
-1.1995711 3.73912 0.070963621 0
-0.85453701 3.7455587 0.81621766 0
0.0061247349 3.7221577 1.2540524 0
-0.53048205 3.7399123 1.0781746 0
1.3167558 3.7010612 -0.015233338 0
0.74201739 3.722789 1.0124722 0
1.2255783 3.6992457 0.5073545 0
0.1149385 3.7222087 1.2554379 0
-0.20945096 3.7330797 1.2106221 0
0.62944841 3.716001 1.1141217 0
0.39713979 3.7058039 1.2475157 0
1.3181494 3.6920741 0.2802763 0
0.66846764 3.7375243 1.0161941 0
-0.62663579 3.7304208 1.0698607 0
-0.97958994 3.7405012 0.70993853 0
0.0093445778 3.7387583 1.2174847 0
1.2765167 3.7000315 0.37701118 0
-0.66596746 3.7415595 1.0097461 0
0.19082844 3.714781 1.2753339 0
-0.95544767 3.7372003 0.76513135 0
0.44902849 3.7270355 1.1720581 0
-0.80512929 3.7444947 0.8930335 0
0.67667496 3.7121744 1.1092992 0
1.1563612 3.7076933 0.62132585 0
1.0214827 3.7050226 0.83782947 0
1.2329142 3.7163248 0.37659836 0
0.91327345 3.7178695 0.90392303 0
1.2746334 3.7111237 0.27892518 0
1.2752645 3.7074063 -0.32371593 0
-0.53005767 3.7201979 1.1641607 0
-0.63739777 3.7293859 1.077863 0
0.80830717 3.7196236 0.99391544 0
0.031066179 3.7142251 1.2969673 0
0.98535132 3.7066321 0.87851417 0
0.93951619 3.7177417 0.88218248 0
-0.81263757 3.7455666 0.89080024 0
0.60600948 3.7031696 1.1843858 0
0.45869172 3.7218211 1.19311 0
0.22475243 3.7225096 1.2571502 0
1.1092469 3.7153909 0.6739198 0
0.67726147 3.7220745 1.0850849 0
-0.22058082 3.7321489 1.229876 0
0.44460678 3.7080388 1.2425544 0
1.1937568 3.7068198 0.57302213 0
1.234547 3.7074769 0.47464442 0
0.083128572 3.7179008 1.2905469 0
1.0328292 3.7109287 0.81089616 0
-0.96378183 3.7467408 0.72774947 0
0.72293484 3.7092628 1.1048942 0
1.2722117 3.7253883 0.080049396 0
-1.0412922 3.7446854 -0.63141751 0
-0.27062201 3.7346268 1.2191074 0
0.23948514 3.7202721 1.2703197 0
1.3160217 3.7057946 -0.21812981 0
-0.38436437 3.721256 1.232326 0
0.81240356 3.7195556 1.0103328 0
1.2941529 3.6857336 0.50699592 0
-1.2047508 3.7440288 -0.21762443 0
1.3149912 3.7124388 0.082460999 0
-1.206043 3.7452533 0.2127372 0
-0.70855927 3.7249644 1.0738735 0
-1.0745754 3.7516327 0.54881179 0
-0.20879841 3.7312095 1.2530246 0
-0.74580908 3.7415202 0.99128795 0
1.0272157 3.6968803 0.90392363 0
0.56143856 3.7212899 1.1736226 0
-0.29979992 3.7319968 1.2347898 0
1.1568342 3.7092879 0.67180991 0
-1.0637963 3.7299821 0.71170676 0
-0.33092928 3.7332375 1.2270892 0
0.33967388 3.7221224 1.2582884 0
-1.0465386 3.7499506 0.63284945 0
0.67207181 3.7049389 1.1746604 0
1.1513646 3.7126372 0.67288673 0
-0.58992958 3.7330112 1.1316388 0
0.13105774 3.727349 1.2862 0
1.1952168 3.699497 0.67098379 0
0.9439069 3.7026248 0.98286688 0
1.1113738 3.7061162 0.77289188 0
1.3168896 3.7001979 0.37712133 0
-0.10027814 3.7396991 1.2546141 0
-0.083909035 3.7194974 1.3147559 0
-3.4914699 -1.5520391 -0.98622274 0
1.0664506 3.7194626 0.77575779 0
-0.31620383 3.7290323 1.2523181 0
1.3142678 3.7171044 0.18071616 0
-0.73688889 3.7419281 1.01719 0
-1.2027562 3.7421384 -0.36329788 0
0.81336844 3.7046325 1.0969245 0
-1.1282539 3.7506254 -0.5003621 0
-0.85473585 3.7474015 0.90391767 0
0.52885854 3.7275126 1.1911111 0
0.89674878 3.7165332 0.9880774 0
0.28562236 3.7294338 1.266665 0
1.3568078 3.7023628 -0.21596956 0
0.44641113 3.7161849 1.260849 0
-1.1296985 3.7520342 0.49575114 0
0.79213941 3.7138259 1.0863442 0
-1.0712397 3.731595 0.72769594 0
-1.1124353 3.735198 -0.64318144 0
1.3151643 3.7113228 -0.3230378 0
-1.0318089 3.735168 0.76968622 0
1.3557299 3.7100375 0.083483934 0
1.3555346 3.7114284 -0.015959918 0
-0.38023114 3.732332 1.2400172 0
1.2341329 3.7097208 0.5727725 0
-1.0740845 3.7486827 0.63813484 0
1.1573454 3.709965 0.71558058 0
1.3570275 3.700799 0.2801218 0
-0.033338547 3.7285604 1.309411 0
0.76488137 3.7169359 1.1032658 0
0.68176758 3.6989872 1.215308 0
1.3581145 3.6930599 0.37734973 0
0.33764839 3.7318897 1.2600396 0
-3.4989119 1.5528951 -0.98822987 0
1.0701884 3.7041712 0.87475967 0
1.3554095 3.7123187 -0.11651027 0
0.91262615 3.7161045 0.99606264 0
1.3557293 3.7100413 0.18185771 0
1.2767665 3.6985593 0.57180679 0
0.48580956 3.7228241 1.2415187 0
-0.95008159 3.7316585 0.90112233 0
-0.96391821 3.747736 0.81585801 0
-1.2854407 3.7393098 -0.079869509 0
0.67406678 3.7131078 1.1834331 0
1.3971723 3.7002022 -0.013326764 0
1.3569275 3.7015111 -0.31880111 0
1.1514385 3.6963308 0.81014943 0
0.53490579 3.7192671 1.2352998 0
-1.1185722 3.741183 0.63521004 0
-0.42324686 3.729161 1.252115 0
-0.89065838 3.749373 0.89765787 0
-0.65790057 3.7322128 1.1400816 0
0.58285725 3.7167449 1.2296238 0
-0.1018436 3.722959 1.3410394 0
1.2357507 3.7009542 0.67044055 0
1.4384882 3.6876407 0.087481976 0
-0.96187019 3.7328017 0.90391755 0
-0.85362458 3.7371125 0.99141955 0
0.88049829 3.7260683 1.009542 0
1.3161528 3.7049494 0.47436249 0
1.358591 3.6896679 0.47399032 0
-0.45679975 3.7322381 1.2446051 0
1.0231299 3.7239463 0.87961829 0
0.17052495 3.7086513 1.3814681 0
-1.2150269 3.7537677 0.35455406 0
-0.80805469 3.7405543 1.0245748 0
1.2728883 3.7214029 0.47476709 0
0.72588229 3.701293 1.2117064 0
1.1125571 3.7009561 0.87271738 0
1.3593976 3.7056048 0.3441602 0
0.9518441 3.7124135 1.0063632 0
-1.2921674 3.7455044 0.064662457 0
1.438071 3.6913869 -0.11046582 0
1.0877706 3.717788 0.83808661 0
0.8546139 3.712297 1.0956235 0
1.1511695 3.7135472 0.77272451 0
1.4384727 3.6877797 -0.21027356 0
0.33393383 3.7142894 1.3476944 0
-1.1844811 3.7451334 0.54757881 0
-0.97748733 3.7368791 0.89983666 0
0.007342577 3.732096 1.343473 0
1.3956844 3.7120221 0.083889961 0
-3.4816308 -1.6268101 -0.98603725 0
-0.74603748 3.7444091 1.0788887 0
0.22524762 3.7252419 1.3465052 0
1.3971452 3.7004178 -0.31708819 0
1.3959255 3.7101057 0.1823163 0
-0.20892811 3.7292035 1.3407803 0
0.89939737 3.7078786 1.0915539 0
0.56105804 3.7198896 1.2638445 0
-1.2930217 3.7462912 0.20936906 0
1.3954977 3.7135043 -0.11571002 0
-0.90116549 3.7593768 0.89823484 0
0.24271059 3.7140577 1.3780727 0
1.4371476 3.6996782 -0.012498498 0
1.1575917 3.7032716 0.83602118 0
0.81596148 3.7017105 1.1769581 0
1.2373163 3.6924706 0.7681179 0
1.0219657 3.7019074 1.0037093 0
1.154768 3.6967554 0.87062013 0
-0.63797021 3.7407765 1.1658704 0
1.193653 3.7073407 0.77092171 0
0.98187959 3.7192569 0.98396993 0
1.3975221 3.6974237 0.37736499 0
-0.20947695 3.7331169 1.3367047 0
0.31645286 3.7127187 1.3735318 0
-0.26578355 3.727937 1.3443286 0
-0.58055711 3.7218325 1.2607853 0
0.11699319 3.7357464 1.3456378 0
1.3960805 3.7088752 0.27997243 0
1.2777151 3.6935537 0.71397579 0
0.62517691 3.7266076 1.2277567 0
-0.52335787 3.7335758 1.2544637 0
-0.80191684 3.7385767 1.080745 0
-1.2112148 3.7501547 -0.51409423 0
-1.2133267 3.7521563 0.49680495 0
0.94327497 3.7048006 1.0879779 0
0.38957262 3.7111766 1.3691826 0
-0.42332053 3.7189038 1.3386769 0
0.74205375 3.7226193 1.1825721 0
1.2228771 3.7234981 0.67214167 0
1.2754724 3.7061822 0.67028475 0
1.4374576 3.6968949 0.28085136 0
-1.2990124 3.7518082 -0.2293753 0
-0.15830779 3.744416 1.3314006 0
1.427013 3.6967437 0.34440303 0
1.4776568 3.6921761 0.087426186 0
0.67373931 3.7104452 1.2659025 0
-1.1163695 3.7390349 0.77518344 0
-0.46912551 3.7483852 1.2482324 0
1.4774094 3.6947298 -0.01105845 0
0.013495564 3.7275341 1.3951068 0
-0.5469594 3.7383816 1.2521358 0
0.088792086 3.7286985 1.390341 0
1.3593087 3.7066829 0.50725853 0
0.76599824 3.7137778 1.2111959 0
1.394403 3.7221997 -0.21936357 0
-3.4951196 1.6285572 -0.98968172 0
0.44683444 3.7179396 1.3510222 0
1.2884214 3.7164419 0.61697638 0
1.4360684 3.709367 0.18279421 0
0.91399086 3.7198262 1.0884871 0
1.3145256 3.715441 0.5723629 0
-0.53054333 3.7427607 1.2534571 0
1.0343421 3.7147148 0.99704719 0
-0.73628712 3.7412508 1.1514413 0
-1.200609 3.7401035 -0.66112447 0
-0.88538122 3.7437644 1.0332766 0
0.5344373 3.7060277 1.3607502 0
-0.31586885 3.7383709 1.3412235 0
1.0233284 3.723182 0.98262644 0
1.2918624 3.7093694 0.67103076 0
-0.62622142 3.7296026 1.2564819 0
-1.1856294 3.7509878 0.63658535 0
1.4769305 3.6996706 -0.11128497 0
-0.9625802 3.7379782 0.99174857 0
0.98535419 3.7066216 1.0857396 0
-1.2062514 3.745451 0.63867772 0
1.1946315 3.7024331 0.87022185 0
-0.74567127 3.7397799 1.1662869 0
0.79607713 3.7255993 1.1786718 0
1.3964874 3.7056434 0.47417951 0
-1.3010471 3.7536819 0.35345781 0
-1.038552 3.7419353 0.90963483 0
0.81015515 3.71415 1.2074251 0
-0.065439701 3.733804 1.4016719 0
-0.14140606 3.7300737 1.4064157 0
-0.85439944 3.7442865 1.0793533 0
-3.470984 -1.70146 -0.9859221 0
-0.95999551 3.7191298 1.078788 0
-0.10176039 3.7238481 1.4296408 0
0.11493051 3.7221565 1.4331119 0
1.4360726 3.7093296 -0.31823075 0
-1.1670182 3.748296 0.71534204 0
1.157665 3.7107027 0.90392542 0
1.4272705 3.6929619 0.50693071 0
1.4365346 3.7051816 0.37731075 0
-1.0754588 3.7569382 0.81525731 0
1.5172018 3.692404 -0.010128498 0
-1.3020647 3.7546191 -0.37906015 0
1.355574 3.7111475 0.57182574 0
1.1596308 3.6870735 0.99955416 0
1.3154056 3.7097673 0.67003417 0
1.2366636 3.6960073 0.86796737 0
-0.63779259 3.7372441 1.2533014 0
1.4765166 3.7039418 -0.21307516 0
0.88298059 3.7126167 1.1766534 0
-1.3813646 3.7460649 -0.089147866 0
-0.20926929 3.7239246 1.4284601 0
1.4770849 3.6980772 -0.31409353 0
-1.3785689 3.7435634 0.20614552 0
-1.3827279 3.7472849 0.058691263 0
1.3181108 3.6923232 0.76643944 0
-1.2906973 3.7441506 -0.52655709 0
1.1541333 3.6997173 0.97232544 0
0.90970731 3.7081442 1.1801491 0
-0.33867168 3.7436256 1.3592763 0
1.4759121 3.7101803 0.18308449 0
0.22500896 3.7239246 1.4358988 0
0.85367417 3.7152176 1.2040458 0
1.5171492 3.6930418 -0.20973068 0
-1.2961874 3.7492065 0.49782681 0
1.0646919 3.7266576 0.98131657 0
1.2239941 3.7134693 0.83622289 0
-0.89212608 3.7432797 1.0866046 0
1.0882307 3.7145116 1.0040512 0
-1.0725734 3.7446148 0.90464759 0
-0.80797696 3.7404695 1.1606581 0
0.60361278 3.7129748 1.3587737 0
-0.39722371 3.7380044 1.3675404 0
-0.5303061 3.7317443 1.3402684 0
-1.3822033 3.7468157 -0.23859996 0
0.44402444 3.7062905 1.4398336 0
1.5164992 3.7009223 -0.1108402 0
1.476071 3.70854 0.28045392 0
0.45585763 3.7321274 1.3695962 0
0.0078459978 3.7362032 1.433023 0
0.89836252 3.7112601 1.1994481 0
-0.66110277 3.7359231 1.2753124 0
1.3563017 3.7059669 0.6691823 0
1.0256463 3.7142546 1.0850399 0
-1.3744595 3.7398865 -0.38755488 0
1.3594239 3.7052863 0.67050135 0
1.5569344 3.6886022 0.088663816 0
-0.74490523 3.730088 1.2532797 0
1.0699722 3.7050557 1.0804794 0
1.2839417 3.7068651 0.80866086 0
1.1075448 3.7228134 0.9786694 0
-0.96368408 3.7457063 1.0420623 0
1.2733003 3.718976 0.77055192 0
1.4360398 3.7096241 0.47416711 0
-1.1867986 3.7569489 0.72557473 0
-0.224576 3.7416737 1.4146481 0
0.33600712 3.724113 1.4389286 0
0.9428637 3.7062166 1.1947451 0
1.411443 3.6990757 0.61431301 0
1.1953222 3.6989684 0.97056127 0
0.67476034 3.7100832 1.3550391 0
-0.71382833 3.7350109 1.2636003 0
1.5161881 3.7046936 0.18387747 0
1.2927511 3.7001984 0.834445 0
1.5567605 3.6911557 -0.10835958 0
1.515835 3.7089741 0.085790634 0
-0.72397089 3.7273872 1.2833917 0
0.5639019 3.7303529 1.3558292 0
-3.490881 1.7043273 -0.99130857 0
1.3953105 3.7149913 0.57175052 0
0.9873389 3.6994042 1.1897464 0
-0.37868261 3.7289174 1.4243574 0
1.1563998 3.7077825 0.99799156 0
-0.30262828 3.7384779 1.4200456 0
1.4370093 3.7009194 0.57076073 0
1.1127652 3.7000484 1.0770774 0
0.95130098 3.7156126 1.1752331 0
-0.5193038 3.7285976 1.3858557 0
1.4757595 3.7117546 0.3772676 0
1.3970182 3.7014263 0.66831827 0
1.0364677 3.7200341 1.0905385 0
-0.45661712 3.7218235 1.4294617 0
-0.87891102 3.7368882 1.1695244 0
-1.2916925 3.7450671 0.64193606 0
1.5161448 3.70522 0.28081489 0
1.2756783 3.7049694 0.86828732 0
-1.0758908 3.7595329 0.90391886 0
-3.4619422 -1.776368 -0.98653173 0
1.4930233 3.710593 0.34423184 0
-1.3869288 3.751044 0.35237885 0
-0.42323899 3.7302687 1.4282727 0
0.79632115 3.7263288 1.270792 0
1.4776975 3.6917558 0.57006216 0
-1.3760371 3.741298 0.49876595 0
0.67659938 3.7198884 1.3582919 0
-0.46639371 3.7443702 1.3802783 0
1.5561807 3.6996703 0.1845783 0
1.515923 3.707907 -0.31578726 0
-3.4661384 1.7770343 -0.98767018 0
-0.85494208 3.7493095 1.1676629 0
1.555776 3.705615 -0.01175642 0
-1.2913613 3.7447622 -0.67974615 0
-1.2128506 3.7517052 0.7820369 0
1.0211824 3.706959 1.1721058 0
1.5564518 3.6956902 0.28147149 0
-1.2613175 3.7489407 0.71800327 0
1.410435 3.6970725 0.71113014 0
-0.31565189 3.744415 1.4305868 0
-1.0736048 3.7458019 0.9923172 0
-1.1864681 3.7552643 0.81483519 0
0.90885103 3.7058091 1.2724597 0
-1.1632886 3.7422755 0.90860403 0
-0.6378715 3.7388134 1.3415456 0
1.2350872 3.7045498 0.97016966 0
-1.1292081 3.7515559 0.91837895 0
0.11506164 3.7230203 1.5229216 0
1.4754277 3.7151773 0.47419238 0
1.3554881 3.7117591 0.76812947 0
-0.1015017 3.7266159 1.5191762 0
-1.4724185 3.7457047 -0.097503483 0
1.5156894 3.7107396 0.37734747 0
-1.2995136 3.7574663 0.63449788 0
-0.98403311 3.7481549 1.0927203 0
1.3161181 3.7051725 0.86729217 0
0.74290502 3.7186468 1.353796 0
1.031635 3.7079403 1.1831875 0
-1.4741349 3.7471967 0.052698612 0
1.5560787 3.70117 -0.31317949 0
-1.0421412 3.7455373 1.0507512 0
0.56035089 3.7172878 1.4453945 0
1.4781653 3.686929 0.66627157 0
-1.3800876 3.7449224 -0.54195762 0
-1.4706933 3.7442048 0.20250237 0
1.5603976 3.6972859 0.34451854 0
-0.20918798 3.7251816 1.5175455 0
-1.2964938 3.7441094 0.72510493 0
1.5164478 3.7015448 0.47389138 0
-0.53026986 3.7300568 1.4283509 0
1.6358371 3.6815252 -0.10566545 0
1.4931182 3.7088273 0.50713718 0
1.3968662 3.7026339 0.76634812 0
-0.8533361 3.7344401 1.2546275 0
0.22511268 3.7244966 1.5261328 0
1.4260515 3.7108657 0.6705308 0
-0.74481153 3.728905 1.3411958 0
1.5955448 3.702225 0.087282419 0
-0.9626255 3.7383091 1.1678152 0
1.2762961 3.7013297 0.9681561 0
-0.95516348 3.7369065 1.1797614 0
1.5956526 3.7002189 0.1847403 0
0.007837534 3.7361341 1.5226626 0
1.4358786 3.7110715 0.66875577 0
-0.31631017 3.7260699 1.5168073 0
-0.54340458 3.7311046 1.4383845 0
1.6355299 3.6893258 -0.0085022449 0
1.5952814 3.7071271 -0.011615098 0
1.2240362 3.7130916 1.0017951 0
-0.80533767 3.7448781 1.2718029 0
-0.59487486 3.7389095 1.4008842 0
1.6355193 3.6895976 0.089059472 0
0.7932198 3.717056 1.3621161 0
0.81291628 3.716984 1.350723 0
0.16710281 3.718787 1.5633488 0
1.1504871 3.7167318 1.0789518 0
-1.2947977 3.7366076 0.81473947 0
-3.4510956 1.8510448 -0.98694336 0
1.5547068 3.7213178 -0.21558958 0
1.3589772 3.7107027 0.83484268 0
1.1582805 3.7121234 1.0923805 0
-1.2919147 3.7452719 0.7867074 0
1.5555718 3.7086151 0.37743676 0
0.46324348 3.7052686 1.5403476 0
1.5951606 3.7093756 -0.11144096 0
1.516505 3.7008517 0.5703553 0
1.2901899 3.7202227 0.90392733 0
1.5953125 3.7065485 -0.2116161 0
-1.1866055 3.7559643 0.90391934 0
1.0682003 3.7123046 1.1876466 0
1.4371245 3.6998849 0.76543069 0
1.0229256 3.7247331 1.1938407 0
-3.4562845 -1.8519449 -0.98835456 0
-0.81012106 3.7428143 1.2993534 0
1.3557283 3.7100489 0.86713922 0
1.2821463 3.703027 0.99909425 0
-1.1173968 3.7400367 1.0586121 0
1.3169112 3.7000585 0.96664643 0
1.5954267 3.7044227 -0.31340849 0
1.0879647 3.7164056 1.1720397 0
-1.2093894 3.7484248 0.92520976 0
0.44680059 3.7177992 1.5325849 0
1.5952392 3.7079141 0.28095555 0
-1.3828955 3.7474349 0.6455586 0
1.4272258 3.6936176 0.83290386 0
-1.4844611 3.7561738 -0.25172722 0
1.6352701 3.6959238 -0.20873684 0
1.5956643 3.6999996 0.3776294 0
-0.42325306 3.7282925 1.5167942 0
0.23853636 3.727031 1.5599928 0
1.1920924 3.715168 1.0766528 0
1.5602654 3.7006423 0.50694001 0
0.88275135 3.7138588 1.3475676 0
1.1547307 3.6969297 1.1784477 0
0.33777618 3.7324946 1.5309885 0
-3.4243031 -1.9227803 -0.98329949 0
0.012978554 3.7289321 1.5774221 0
-1.3779566 3.7430155 -0.69661212 0
1.4933999 3.7035835 0.66993523 0
0.088032246 3.7308476 1.5719438 0
1.6351082 3.7000341 0.18491697 0
-1.0746017 3.7517896 1.0810947 0
-1.4807115 3.7529142 0.35112953 0
1.5555515 3.7089126 0.47396839 0
1.1578873 3.7009227 1.1681471 0
-1.4100125 3.7434843 0.63363659 0
-0.13891768 3.7238953 1.5889721 0
-0.66345739 3.738651 1.4127388 0
-0.21516776 3.7192442 1.5946717 0
1.6353054 3.6950276 -0.31039691 0
1.1529218 3.6997545 1.1859207 0
1.6747339 3.6910787 -0.0085798502 0
0.38543451 3.7254241 1.5497124 0
0.31099856 3.730541 1.5557559 0
-0.06435442 3.730993 1.5841799 0
-1.0763636 3.7509339 1.0987761 0
0.67806399 3.7247245 1.4509692 0
1.6351209 3.6997139 0.2814821 0
-3.4312067 1.9240799 -0.98518169 0
1.0320784 3.7090497 1.2768598 0
1.6747895 3.6888573 -0.20681244 0
1.1087978 3.7173495 1.1864548 0
0.91032016 3.7098157 1.3658466 0
-0.53017044 3.7254407 1.5164516 0
0.60487497 3.7078111 1.5326972 0
1.4192821 3.7146537 0.80712378 0
-1.4679346 3.7418065 -0.5566923 0
0.11486816 3.7217455 1.613055 0
1.4767166 3.7018771 0.76517034 0
1.5558321 3.7047906 0.57040644 0
-0.85325742 3.7337115 1.3429363 0
1.4375446 3.6961141 0.86333036 0
0.0065505505 3.7256324 1.6110077 0
1.39565 3.7122946 0.86665702 0
0.53102088 3.7191846 1.5394106 0
1.2760545 3.7027533 1.0703158 0
-1.1862228 3.7540133 0.99297369 0
0.5600574 3.7162082 1.5369575 0
1.2329069 3.7163644 1.0751479 0
-1.563452 3.7427611 0.19886005 0
1.5954034 3.704855 0.47385538 0
1.6747695 3.6896577 0.28207576 0
1.5174338 3.6895914 0.76322126 0
-1.2852712 3.7391536 0.93124104 0
-1.0725725 3.7396009 1.169059 0
-0.96303749 3.7413125 1.256511 0
-0.8961339 3.7504165 1.2795224 0
-1.5679321 3.7465448 -0.10647625 0
1.6745059 3.7001758 -0.10904694 0
-0.63838148 3.7489595 1.4315522 0
1.6350805 3.7007396 0.37764847 0
-1.4887676 3.759918 -0.40679467 0
-1.5706444 3.7488353 0.0461936 0
-1.1597636 3.7365849 1.102602 0
-1.3766012 3.7418029 0.79198933 0
1.5513015 3.7080996 0.60923314 0
1.280829 3.7002106 1.0942202 0
1.7140418 3.685204 -0.10599965 0
-1.2649179 3.7545712 0.91425085 0
0.67527378 3.707844 1.5289586 0
1.6743653 3.7057946 0.087225318 0
1.5957617 3.6981883 0.56993389 0
-0.63541079 3.74775 1.4492469 0
0.95065987 3.7193887 1.3463235 0
-1.0434272 3.7468278 1.1931603 0
0.22550631 3.7266686 1.6173937 0
-0.71275568 3.7329657 1.4535799 0
-0.88888717 3.7474904 1.3125117 0
-0.20875883 3.7318227 1.6083908 0
1.6352738 3.6958292 0.4736656 0
-0.97680521 3.7357042 1.2838345 0
1.3169572 3.6997616 1.0681202 0
-1.4112089 3.7481494 0.72366965 0
1.54574 3.6977952 0.70818818 0
-1.4667499 3.7407765 0.6486237 0
0.79338086 3.7175376 1.4549284 0
-0.10056257 3.7366586 1.6109061 0
1.1934135 3.7085416 1.1793954 0
1.5150206 3.7188482 0.66876507 0
1.3549297 3.7157347 0.96858072 0
-0.29934621 3.7309573 1.6048036 0
-1.4868517 3.7582524 0.50041246 0
-1.2987638 3.754149 0.90391994 0
-0.4233079 3.720669 1.6048398 0
-1.1845684 3.7455778 1.0817242 0
-1.2040641 3.7433779 1.0688744 0
-1.5671842 3.745913 0.35006285 0
-1.408324 3.7369001 0.81411386 0
1.7139568 3.6931236 0.18569422 0
-1.5731618 3.7509613 -0.2618584 0
1.7139148 3.6970465 0.088386059 0
1.596125 3.6914239 0.66588891 0
1.5555863 3.7083995 0.66758704 0
0.33626366 3.7253282 1.6211624 0
1.6741936 3.7126477 0.1839242 0
1.6360995 3.6748619 0.66427886 0
1.0203177 3.7125351 1.3428376 0
1.2892487 3.7363398 1.0038049 0
1.2243309 3.7104452 1.1684051 0
1.6743731 3.7054818 -0.31285965 0
-0.74166679 3.7473063 1.4282897 0
1.5599699 3.7081463 0.67001188 0
1.3587881 3.7129943 1.0001872 0
1.2778493 3.6921813 1.1709781 0
-1.2951441 3.7381392 0.99313593 0
1.7139313 3.6955013 -0.20818448 0
1.3960838 3.708848 0.96619773 0
1.4093229 3.6948628 1.0002174 0
0.90693915 3.7005951 1.4579616 0
1.4765532 3.7035635 0.86386395 0
-0.31595302 3.7360229 1.6081674 0
-0.80187058 3.7337906 1.4363995 0
1.7139691 3.6919806 0.28199077 0
1.6744699 3.7016184 0.37765527 0
-0.95761895 3.7394426 1.3221242 0
-0.74624634 3.7470536 1.4322629 0
0.44647896 3.7164657 1.6241133 0
1.4204839 3.717042 0.90392888 0
1.4933126 3.7052081 0.83356452 0
1.6352594 3.6961973 0.56973338 0
1.2343649 3.7084639 1.1773067 0
-0.37960839 3.7309587 1.6123369 0
0.67626977 3.7188001 1.5426431 0
1.4373643 3.6977315 0.96310663 0
1.7531856 3.6838381 0.18651891 0
0.74382687 3.7143457 1.5269966 0
1.4271481 3.6947606 0.99732447 0
1.090012 3.7018301 1.3387985 0
-1.470058 3.7436526 -0.71523356 0
-1.5700758 3.7483552 -0.4173339 0
1.7137923 3.7084439 -0.011219144 0
1.6749437 3.6827033 0.56895959 0
0.81564665 3.7032893 1.5211387 0
1.5169797 3.6950972 0.86195636 0
1.713984 3.6905887 0.37786007 0
1.0324461 3.70997 1.3709722 0
1.5455624 3.6974661 0.80612075 0
-3.4262066 1.9999626 -0.98777115 0
1.753216 3.6923268 0.08898294 0
-0.96280313 3.7396038 1.3451784 0
1.4776944 3.6917884 0.96114564 0
-0.63818097 3.7449694 1.5202973 0
-3.4300942 -2.0007522 -0.98883426 0
-1.3576353 3.7499759 0.91833258 0
-1.1239469 3.7464249 1.2042317 0
1.3556072 3.710911 1.0693624 0
1.7138339 3.7045722 -0.31242681 0
-1.0736055 3.7458055 1.2584755 0
-0.85391283 3.7397809 1.4326544 0
1.7532462 3.7007453 -0.0099774599 0
1.7139986 3.6892433 0.47351635 0
1.7532434 3.6999948 -0.1088475 0
1.1586565 3.6948135 1.3356853 0
1.5553808 3.7114182 0.76554394 0
-1.4088943 3.7391238 0.90392017 0
1.3970946 3.70082 1.0657885 0
1.2918541 3.7094543 1.1671412 0
-0.53031516 3.7321565 1.6071489 0
-1.0696862 3.7398016 1.2918704 0
1.5566566 3.6926806 0.86110294 0
1.7532424 3.6996782 -0.20911634 0
-1.5744522 3.7520511 0.50150311 0
-0.80503845 3.7443273 1.463974 0
1.560313 3.6994369 0.83278763 0
-1.3803658 3.7451715 0.9403832 0
1.6741771 3.7133074 0.47394872 0
1.7532228 3.6942163 -0.30961412 0
1.7532007 3.6880085 0.37790763 0
-1.2572463 3.742574 1.1096005 0
-1.6653068 3.7461898 -0.11563796 0
-1.5283294 3.7538278 0.63076901 0
-0.74542022 3.7366021 1.5200617 0
1.5955979 3.701236 0.76399589 0
-0.87791705 3.7358317 1.4506578 0
1.1617748 3.7201886 1.2824764 0
1.2857705 3.7107749 1.1904414 0
1.5173342 3.690799 0.96026564 0
-3.4031534 -2.0722077 -0.98571539 0
-0.46584129 3.7414114 1.6228802 0
-1.0373383 3.7407172 1.3352315 0
0.1687535 3.7138979 1.7446899 0
0.88313282 3.7117918 1.5201294 0
-1.2964098 3.7437382 1.0827169 0
-0.63722801 3.7260075 1.6067133 0
1.3601292 3.6967347 1.1641686 0
-1.2930558 3.7463226 1.0794926 0
1.792516 3.6948526 0.08862102 0
1.4112453 3.698683 1.0968108 0
0.79463732 3.7212942 1.5489419 0
1.6265959 3.7126982 0.67013788 0
0.56334186 3.7282925 1.631742 0
1.6747037 3.6922843 0.66569364 0
0.67334688 3.7091494 1.6339982 0
1.7532622 3.7052038 0.28130507 0
-1.6696773 3.7497749 0.19434595 0
-1.6737614 3.7531252 0.039019346 0
1.3149951 3.7124143 1.1747336 0
1.7925 3.6939611 0.18559635 0
-1.1867785 3.7568469 1.1716719 0
1.7923679 3.6865778 -0.30768013 0
-1.6670942 3.7476561 -0.27295846 0
1.0288506 3.7009718 1.4641428 0
1.8313873 3.6812048 -0.0071041584 0
1.4368137 3.7026756 1.0651338 0
1.3569114 3.7016258 1.1702321 0
1.6352625 3.6961162 0.76314139 0
-1.4813223 3.7534451 0.79953444 0
1.7926522 3.702471 -0.010317743 0
1.7926364 3.7015817 -0.10923815 0
0.24027896 3.7216151 1.7406533 0
1.5959415 3.6948383 0.86106586 0
-1.2043924 3.7436891 1.2151361 0
-1.5799184 3.7566674 -0.57855725 0
1.1546961 3.70385 1.3758059 0
1.7926062 3.6998992 -0.20926493 0
-3.4152384 2.0748429 -0.98902965 0
1.7138886 3.6994755 0.56980193 0
-1.5709465 3.7490904 0.653054 0
-0.059736729 3.7190363 1.7668152 0
-0.96264076 3.7384212 1.434324 0
-0.89129353 3.7417967 1.4716482 0
0.53429663 3.7065694 1.7147975 0
-1.5289116 3.7558551 0.72188616 0
1.5508437 3.7072513 0.90393031 0
-0.54892564 3.7424066 1.6313834 0
1.7925749 3.6981468 0.28165281 0
0.95229268 3.7097714 1.516885 0
0.31319535 3.7233627 1.7352488 0
1.4931707 3.7078488 0.99843574 0
1.6935332 3.6959317 0.66919661 0
1.6910477 3.7083957 0.60445166 0
0.014375329 3.7251556 1.7613273 0
-0.62624216 3.7296441 1.6366954 0
1.7532412 3.6993463 0.47369015 0
-0.85333061 3.7343893 1.5213516 0
1.3974825 3.6977384 1.1677644 0
-1.4613163 3.7360528 0.94709706 0
-1.1596 3.7363207 1.2988124 0
1.7139925 3.6898022 0.66541505 0
-1.672394 3.7520037 0.34858334 0
1.7924892 3.6933551 0.3778069 0
1.6841149 3.696388 0.70510435 0
1.6270161 3.6959255 0.83229268 0
1.7532052 3.6892731 0.56925988 0
1.5563732 3.6968439 0.96086764 0
-1.0738549 3.7473032 1.3480172 0
0.38569033 3.7245433 1.7300005 0
1.4767268 3.7017722 1.063972 0
0.91102707 3.7117436 1.5537899 0
-1.1847131 3.7463157 1.2603736 0
-1.4550195 3.7498357 0.92306542 0
1.0220373 3.7014468 1.5124063 0
1.8319023 3.6971898 0.088212967 0
1.2834802 3.7058783 1.2859261 0
0.086992264 3.7337878 1.7568839 0
-3.3875084 2.1459701 -0.98597491 0
-1.5696592 3.7480032 -0.73625839 0
1.8319808 3.6996307 -0.10905057 0
1.8318586 3.6958349 -0.20855391 0
-3.3893132 -2.1463907 -0.98647141 0
1.6797123 3.6887627 0.80477667 0
1.8707188 3.6850693 -0.0079609156 0
1.5465534 3.6993022 1.0017879 0
1.2239254 3.7140868 1.3379111 0
-0.96066785 3.7425914 1.4672782 0
-1.6745493 3.7537715 -0.4336161 0
1.8320268 3.7010565 0.1848892 0
-0.21674895 3.7230141 1.7835221 0
1.5961069 3.691762 0.9594121 0
-0.14159441 3.7305419 1.7777314 0
0.45657015 3.7295363 1.7261212 0
-1.1217554 3.7442875 1.3496664 0
-0.74532604 3.7354121 1.6097956 0
1.8316164 3.6883152 0.37787771 0
1.4373431 3.6979227 1.1665554 0
1.8318907 3.6968319 0.28167009 0
1.6744184 3.7036695 0.76391363 0
-1.413594 3.7574499 0.99422097 0
1.7925862 3.6987798 0.47368765 0
-0.96087384 3.7255352 1.5220573 0
1.5602747 3.7004063 0.99713969 0
-1.5294914 3.7578728 0.81290436 0
-0.97869754 3.7389638 1.4795947 0
1.4262972 3.707257 1.1650438 0
1.6349318 3.7045147 0.86230969 0
-0.71194553 3.7314208 1.6461248 0
1.7599995 3.6874421 0.6687392 0
0.7932471 3.7171376 1.6422906 0
-1.2985172 3.7530589 1.173027 0
0.67431426 3.7120287 1.7073092 0
-1.3574858 3.7497494 1.117044 0
-1.5254421 3.743777 0.90392125 0
-1.2929177 3.7282915 1.2608135 0
-0.37185764 3.7138693 1.7979012 0
0.60111272 3.7232029 1.7147436 0
1.8320835 3.7028172 -0.31229669 0
1.8712028 3.6954675 0.088234425 0
-1.645206 3.7515979 0.6285497 0
-1.3861945 3.750387 1.0908482 0
1.7924995 3.6939371 0.56952643 0
-3.3618588 2.2172935 -0.98376405 0
-1.0723274 3.7381282 1.4365976 0
-1.6685383 3.7488408 -0.59312677 0
-1.6794455 3.7577879 0.50297582 0
1.8713599 3.698843 -0.10919881 0
-1.5749888 3.7525043 0.80570388 0
1.5180219 3.6824598 1.1603456 0
1.2918547 3.7094476 1.3356464 0
1.5155437 3.7125065 1.0656397 0
1.4178975 3.7119021 1.1945493 0
1.8713622 3.6988912 0.18494308 0
1.7532498 3.7017498 0.666448 0
1.8711027 3.6933167 0.28177333 0
-1.6639171 3.74505 0.65666342 0
1.6745285 3.6992793 0.86127901 0
-1.4118152 3.7505133 1.0842855 0
1.8318509 3.6955967 0.47364926 0
1.1559092 3.70665 1.4717462 0
-1.1843243 3.7443328 1.3499796 0
1.8714764 3.7013438 -0.21018469 0
1.031641 3.7079551 1.560302 0
1.8711798 3.6949725 -0.31060851 0
1.2813559 3.7013369 1.3816209 0
1.8709198 3.689389 0.37783206 0
-0.30077887 3.7342403 1.7951455 0
1.0884181 3.7131774 1.5128455 0
0.74360538 3.7153785 1.7041652 0
1.9101558 3.6879871 -0.1074962 0
1.5559499 3.7030594 1.0627644 0
1.4764321 3.7048137 1.1673069 0
1.7137988 3.7078569 0.76434124 0
-1.2985573 3.751389 1.2295332 0
1.4079651 3.6921644 1.2898512 0
1.5962394 3.6892939 1.0590267 0
-1.0389402 3.7423248 1.4819245 0
-3.3733296 -2.2201409 -0.98693097 0
1.6351191 3.6997581 0.96061218 0
-1.7805483 3.7573214 0.031522989 0
-1.7791038 3.7561707 -0.12727469 0
1.6934251 3.7060001 0.83307004 0
-1.6453757 3.752131 0.72048032 0
-1.5245404 3.7406385 0.99452114 0
0.91021979 3.709542 1.6482303 0
-1.462388 3.7369845 1.0984948 0
-1.2585137 3.7445562 1.3082616 0
1.6843989 3.6968799 0.90393186 0
-1.7802842 3.7571111 0.1895963 0
1.4932353 3.7066467 1.1643028 0
1.5500233 3.7057314 1.1000926 0
1.9106501 3.696104 0.18500221 0
1.1573091 3.7055166 1.5089927 0
-0.85433078 3.7436492 1.6132534 0
1.3594925 3.7044532 1.3335049 0
-1.7783833 3.7555966 -0.28745699 0
1.7532452 3.7004683 0.76341665 0
1.8319366 3.6982553 0.56980443 0
1.8347733 3.7074802 0.49731743 0
-1.2079401 3.7470512 1.3644526 0
1.9110587 3.7028122 -0.011109948 0
-1.7760735 3.7537565 0.34715664 0
1.9107686 3.6980491 -0.20991176 0
-1.4504769 3.743161 1.1227283 0
1.7926759 3.7037868 0.66666329 0
-1.5572886 3.7539327 0.92844725 0
1.8712136 3.6956985 0.47367811 0
1.9111944 3.7050414 0.086797118 0
-0.80313802 3.7408264 1.6579528 0
-1.410331 3.7447262 1.1742949 0
0.81237388 3.7197044 1.7015681 0
1.9105309 3.6941464 -0.31095314 0
0.9552089 3.6925948 1.6874778 0
1.8706712 3.6840467 0.5691402 0
1.6745505 3.6983993 0.96010137 0
1.9107649 3.6979878 0.28141737 0
1.910273 3.6899111 0.37778604 0
-1.7724998 3.7509096 -0.44807327 0
-1.6441238 3.7482011 0.81234694 0
1.7138212 3.7057667 0.86219501 0
1.9496158 3.689187 0.088418841 0
1.9496942 3.6902275 -0.009536922 0
1.8316631 3.7024333 0.59977233 0
1.7924669 3.6921103 0.76244211 0
-0.46196055 3.7331703 1.8127251 0
-1.0754349 3.7493856 1.4908962 0
1.5563761 3.6968012 1.1634061 0
-1.6717627 3.7514856 -0.75788343 0
-1.5228577 3.7347796 1.0849354 0
1.8934691 3.7082798 0.34434736 0
1.0272512 3.696969 1.6539059 0
-1.3793914 3.7442994 1.2402411 0
1.6264836 3.7171834 0.99893689 0
-0.9619298 3.7332351 1.6137717 0
-1.0725982 3.7397552 1.5271254 0
1.9875637 3.6721947 -0.2052902 0
-1.5747633 3.7523139 0.958974 0
1.6351422 3.6991715 1.0608871 0
1.2251382 3.7031972 1.5066161 0
-3.3545737 -2.2932272 -0.98691618 0
1.5452905 3.6969621 1.1977432 0
1.8319921 3.6999803 0.66641653 0
-3.3550649 2.2933567 -0.9870522 0
1.8278029 3.6961694 0.70168531 0
1.9103529 3.6912234 0.47363675 0
0.88160372 3.7200778 1.6981695 0
-1.776602 3.7541778 0.50425506 0
1.760057 3.7034957 0.83283007 0
1.9498001 3.6916347 0.28161061 0
1.7139382 3.6948569 0.95927596 0
1.9097021 3.680537 0.56906629 0
-0.54320669 3.7306998 1.8215439 0
-3.3159528 -2.3607888 -0.98166573 0
1.4264063 3.7056553 1.3327615 0
1.9499612 3.693774 -0.31157142 0
1.8267707 3.7091801 0.66991591 0
1.1564646 3.7079318 1.5681868 0
1.9508499 3.7055783 -0.11144513 0
1.5599031 3.7098415 1.1643171 0
1.7532673 3.7066295 0.86230934 0
-1.7697861 3.7487478 -0.61129165 0
-1.185853 3.7521281 1.4413815 0
1.6877522 3.702688 1.0034616 0
-1.6756673 3.7546887 0.8125962 0
1.9507439 3.7041702 -0.21194869 0
-1.1268544 3.7492604 1.4999781 0
1.2840344 3.707063 1.4791973 0
1.9892931 3.6914744 0.087738395 0
1.9511209 3.709177 0.18362045 0
1.7532036 3.6888692 0.95808482 0
1.7925147 3.6947806 0.86049938 0
-1.2985425 3.7531712 1.3537493 0
1.8935412 3.7105205 0.50709176 0
-1.6458962 3.7537646 0.90392244 0
1.9896958 3.6959653 -0.0109635 0
1.9597292 3.6971948 0.34449518 0
1.9894152 3.6928356 0.18476999 0
-1.881521 3.7539032 0.024758816 0
1.950392 3.6994963 0.37757158 0
-1.7670093 3.7576392 0.62544787 0
-1.3573267 3.7495086 1.317445 0
-1.6532061 3.7462146 0.93276644 0
1.9890032 3.6882427 0.28161883 0
-1.4113405 3.7486627 1.2652569 0
-1.1665864 3.7475989 1.4998226 0
1.5952082 3.7084916 1.1659002 0
1.0207103 3.7100027 1.6892681 0
-1.2985542 3.7513862 1.3804228 0
-0.89666438 3.7513616 1.6705196 0
1.6743426 3.7066975 1.0623324 0
1.8929873 3.6933253 0.66917217 0
-1.8824813 3.7546461 0.18546307 0
1.9902304 3.7019258 -0.11136681 0
1.9892912 3.6914539 -0.31181812 0
1.8322124 3.7068188 0.76436985 0
1.4159569 3.7080457 1.3891997 0
1.8304133 3.7004054 0.80274868 0
1.6268932 3.7008321 1.1625495 0
1.8265481 3.6967428 0.83230174 0
-1.764581 3.7507105 0.71878266 0
1.6831012 3.6946323 1.1026654 0
-0.97589564 3.7341378 1.676137 0
1.8718419 3.7091973 0.66735947 0
-1.5249205 3.741961 1.1762114 0
-0.62929583 3.7356741 1.8330109 0
-1.7793794 3.7563903 0.66174293 0
1.6932538 3.7219627 0.99937701 0
-1.8886378 3.7594082 -0.13809931 0
2.0284832 3.6874759 0.087762952 0
1.8710953 3.6931565 0.76288152 0
1.2915473 3.71262 1.5071919 0
1.950491 3.7008109 0.47385132 0
1.0899235 3.7024596 1.6845577 0
1.7600224 3.6938393 0.99589455 0
1.545257 3.6969001 1.2961717 0
1.6349752 3.7034121 1.1640451 0
-1.7656481 3.7454515 -0.77643085 0
-1.8718097 3.7463915 -0.46271551 0
-1.2041295 3.7434399 1.513824 0
-1.6445653 3.7495868 0.99553168 0
1.7138779 3.7004752 1.0607328 0
1.9596756 3.6960433 0.50688469 0
1.9107267 3.697361 0.66650796 0
2.0292323 3.6946695 -0.011363268 0
1.9499398 3.6934905 0.5698868 0
-1.0730693 3.7425852 1.6186559 0
-1.1847529 3.7465193 1.5315089 0
1.8319831 3.699698 0.86143458 0
-3.3458133 2.3691154 -0.98997223 0
-1.7624686 3.7446837 0.81155169 0
2.0284426 3.6870868 0.28147972 0
-0.71038747 3.7284501 1.8412449 0
1.1535466 3.7011967 1.6637878 0
1.4927768 3.7151821 1.3338258 0
1.9902813 3.7024925 0.37746227 0
-1.8914111 3.7615533 -0.30212128 0
-1.5589058 3.7562373 1.1316183 0
1.7925982 3.6994495 0.96022356 0
2.0298035 3.7001541 -0.11176604 0
-1.5773189 3.7544723 1.11412 0
-1.4787676 3.751224 1.2556188 0
-1.8906183 3.7609401 0.34550643 0
1.6745316 3.6991556 1.1625638 0
-1.4101005 3.7438271 1.3557463 0
1.6935786 3.691695 1.1609135 0
2.0298462 3.7005653 0.18375564 0
-3.307765 2.4367392 -0.98516321 0
1.3592989 3.7068007 1.5044565 0
1.8300848 3.6998723 0.90393412 0
-1.6769435 3.7557356 0.9688859 0
1.9807677 3.7022192 0.49041605 0
2.0675941 3.6827896 0.18493569 0
1.5603863 3.6975734 1.3297956 0
1.9737308 3.6915016 0.59508526 0
-1.2583747 3.7443388 1.5087905 0
1.9901909 3.7014837 0.47391999 0
1.9890895 3.6892049 0.56983161 0
1.9106339 3.695838 0.76347065 0
1.9500134 3.6944666 0.66648877 0
-1.4524808 3.7461054 1.3253872 0
2.02649 3.6980932 0.34441698 0
2.0297484 3.6996245 -0.31504297 0
2.0684714 3.6901851 -0.11067218 0
1.7532567 3.703686 1.0614414 0
1.4134402 3.7030449 1.4866343 0
-1.3861039 3.7503057 1.3952212 0
2.0308633 3.7103314 -0.21501815 0
-1.7783678 3.7555842 0.81963301 0
1.2872472 3.7139316 1.5779173 0
1.7139311 3.695519 1.1614008 0
2.0297506 3.6996458 0.37744522 0
-1.9799013 3.7457545 0.018345118 0
1.9596938 3.6964347 0.66947258 0
-1.8887761 3.759515 0.5058527 0
2.0687215 3.6922944 -0.21184701 0
-1.301333 3.7655127 1.4465761 0
-3.3223085 -2.4410198 -0.98922539 0
2.0289955 3.6923947 0.47382748 0
1.8932369 3.7010729 0.83282661 0
2.069593 3.6996386 0.085719943 0
-1.4065251 3.7298849 1.4451745 0
-1.8780491 3.7512178 -0.63130462 0
-1.982187 3.7474709 0.18153489 0
2.1073248 3.6827691 0.08719635 0
2.0680761 3.6868525 0.37759304 0
1.8718777 3.7099645 0.86330807 0
1.5461143 3.6984887 1.3952451 0
-1.2956107 3.7402034 1.5342569 0
1.7925951 3.6992753 1.0605206 0
2.0692246 3.6965346 0.28075111 0
1.4263659 3.7062485 1.5031669 0
1.8322527 3.7080674 0.96209121 0
1.2251726 3.7028883 1.6801448 0
2.0264692 3.6977561 0.50697708 0
1.6899831 3.706552 1.2032652 0
1.9761639 3.6952074 0.69801509 0
-1.6482782 3.7612417 1.0878108 0
-1.5287468 3.7552812 1.2687299 0
1.1550111 3.7237699 1.6879158 0
1.989545 3.694283 0.66675711 0
-3.2849898 -2.5085754 -0.98488843 0
2.0287604 3.6901395 0.570081 0
-1.9897149 3.7531233 -0.14750254 0
1.9503387 3.6987886 0.76416337 0
-1.8814015 3.7538109 0.6658653 0
-1.7630577 3.7433877 0.97615564 0
2.0696697 3.7002857 -0.31640315 0
2.0711818 3.713032 -0.014989316 0
-0.8027699 3.7401483 1.8556647 0
-1.8894391 3.7579391 0.62248135 0
-1.7678862 3.7601407 0.90392375 0
2.1086249 3.6925302 -0.012508273 0
1.9108729 3.6997614 0.86202574 0
2.1080778 3.6884229 -0.21209514 0
2.1086755 3.6929109 -0.11217403 0
2.0926166 3.6886804 0.34450245 0
2.108541 3.6919012 0.18369722 0
1.8341594 3.7064841 1.0052862 0
-3.2921343 2.5107901 -0.98689258 0
1.8268327 3.7126467 0.99829173 0
1.8714355 3.7004662 0.96091461 0
-1.2997789 3.7525141 1.5342124 0
-1.3517683 3.7410843 1.5181491 0
1.4085821 3.6933906 1.5835905 0
-1.5714087 3.749481 1.269073 0
-1.7635021 3.7476323 0.99636793 0
-1.0801306 3.7572138 1.692956 0
-1.6595988 3.7550533 1.1386738 0
1.9731126 3.6905603 0.80116069 0
1.2929165 3.6984904 1.6770926 0
1.7532654 3.7060874 1.1641948 0
1.8319697 3.6992836 1.0607505 0
1.910146 3.6878259 0.95886469 0
-1.8878591 3.7538147 0.71667099 0
1.7600613 3.7046745 1.1629314 0
1.4935801 3.7002285 1.5008364 0
-3.2513514 -2.576859 -0.98184013 0
-1.9911964 3.7542357 0.34418106 0
1.9498994 3.6929533 0.86136985 0
-1.6765046 3.7553756 1.126286 0
-1.6459165 3.7538285 1.17946 0
-1.1875634 3.7608497 1.6258903 0
2.1093245 3.6977832 0.28042364 0
-1.9960086 3.757849 -0.31494212 0
2.0682442 3.6882708 0.57021272 0
1.8929678 3.6927207 0.99604917 0
1.9597867 3.6984308 0.83282471 0
1.6265676 3.7138283 1.3325393 0
2.1478565 3.6871433 0.085972309 0
2.0700009 3.7030776 0.47409201 0
2.109369 3.6981194 -0.31715602 0
-1.9847183 3.7493713 -0.48052263 0
2.1088221 3.6940107 0.37738025 0
2.1465778 3.6784899 -0.31333411 0
-1.4061091 3.7282634 1.5366089 0
-1.477658 3.7502596 1.4110668 0
2.0265546 3.6991556 0.66980302 0
-1.527339 3.75038 1.3600817 0
2.0298109 3.7002249 0.66761434 0
2.0673604 3.68082 0.66629064 0
2.1080205 3.687993 0.47391367 0
-1.3747149 3.7401147 1.5468464 0
1.7926447 3.7020483 1.1632259 0
2.1488621 3.693949 -0.11346042 0
1.2880226 3.7155893 1.6766665 0
2.147702 3.6860981 0.28075027 0
2.1483736 3.6906428 -0.21389675 0
2.1486332 3.6924 0.18316615 0
1.6935455 3.6947873 1.3286057 0
1.8712204 3.6958449 1.0603137 0
1.6897578 3.7061617 1.3035073 0
2.0931122 3.6952631 0.50701261 0
-1.2951107 3.7379911 1.6258607 0
1.3603873 3.6936057 1.6741738 0
2.1495776 3.6987925 -0.014392734 0
-1.8842263 3.755996 -0.80316842 0
1.9890428 3.6886842 0.86120558 0
1.8330221 3.7046387 1.1066468 0
-1.5580981 3.7550862 1.3360679 0
2.0287256 3.6898031 0.76392424 0
-1.9910634 3.7541358 0.50721586 0
1.8317111 3.6912532 1.1605964 0
-1.8886425 3.7558599 0.81029761 0
-1.8846993 3.7563617 0.82699275 0
2.1871476 3.6820509 0.085850716 0
-1.7515903 3.7394135 1.1438107 0
-1.7642627 3.7498028 1.08902 0
1.5603647 3.6981204 1.4996331 0
1.8265753 3.6982629 1.1620293 0
1.9754391 3.6941035 0.90393615 0
-1.1709404 3.7546279 1.7033591 0
1.991707 3.7183874 0.76697922 0
2.1485271 3.6916833 0.3773241 0
1.5509911 3.7075248 1.4961336 0
2.1873088 3.6830428 -0.21354043 0
2.1879973 3.6872835 -0.11334592 0
2.1597643 3.6920683 0.34434724 0
-3.2792811 2.5859561 -0.98971081 0
-1.6460197 3.7541523 1.2718041 0
2.1871853 3.6822839 0.28063071 0
-1.8858442 3.7485542 0.90392458 0
2.1309295 3.6953371 0.48308718 0
1.8263364 3.6937897 1.207387 0
2.1871126 3.6818357 -0.31588459 0
2.026227 3.6937773 0.83273005 0
1.9506586 3.703037 0.96234965 0
2.1886165 3.6910946 0.18274283 0
-3.2344427 -2.6505296 -0.98379004 0
2.1094506 3.6987305 0.57102633 0
-0.90138245 3.759763 1.8730388 0
1.9108033 3.6986198 1.0614438 0
1.8709527 3.690094 1.1606998 0
2.148448 3.6911476 0.47406638 0
1.4090071 3.6942351 1.683001 0
-1.9896765 3.7530944 -0.65206468 0
2.158927 3.6827323 0.5068891 0
-1.526453 3.7472963 1.4519596 0
-0.98002648 3.7412531 1.8791809 0
1.9596456 3.695401 0.99670029 0
2.190388 3.7020013 -0.015885592 0
2.1877213 3.6855838 0.37732446 0
2.1293061 3.6930127 0.58889794 0
1.9895222 3.6940291 0.96122551 0
1.7600329 3.6967666 1.3289442 0
1.4267533 3.7005584 1.6746964 0
2.2270973 3.6804674 0.18309605 0
1.6270562 3.6943219 1.498261 0
2.0936742 3.7027285 0.67022872 0
-1.9948294 3.7569637 0.67069352 0
-3.2448134 2.6540725 -0.98672652 0
2.0695231 3.6990497 0.76560712 0
-1.6751578 3.7542708 1.2851691 0
1.949834 3.6920836 1.0605502 0
-1.6425123 3.7431433 1.3631756 0
-1.7786951 3.7558451 1.1389201 0
2.109314 3.6977048 0.6682148 0
1.892984 3.6932232 1.1614947 0
2.2285936 3.6889136 -0.014854789 0
1.819021 3.6819191 1.3077493 0
-1.7647583 3.7512169 1.1819246 0
-2.1086388 3.7571146 -0.15953338 0
-1.4594338 3.7563221 1.5322604 0
1.6912773 3.7087934 1.4045734 0
2.2289088 3.6906927 -0.11533034 0
-1.5753539 3.7528126 1.4285779 0
2.0281751 3.6845191 0.96011043 0
2.149333 3.6971364 0.57123435 0
2.2274008 3.6821809 -0.31778282 0
-2.0172782 3.7646544 0.61872888 0
-1.2641919 3.7534359 1.7145944 0
1.8262348 3.6792328 1.3256743 0
-1.884614 3.7562957 0.98887455 0
1.9806657 3.702064 1.0070324 0
1.5483745 3.7026765 1.5955701 0
-2.118032 3.7639601 0.007682085 0
-1.8880787 3.7543879 0.99751544 0
2.1294012 3.6931489 0.69409359 0
2.2302089 3.6980326 0.083031058 0
-1.6595426 3.7549756 1.3453765 0
2.2295423 3.6942697 -0.21772796 0
2.0312004 3.7135673 0.86577249 0
2.2275131 3.6828141 0.37725592 0
-1.475323 3.7482297 1.5685029 0
2.1896229 3.6972902 0.47428238 0
-2.014523 3.7580359 0.71430016 0
2.22664 3.6902535 0.34426618 0
2.0927973 3.6910822 0.83289039 0
-3.2127481 -2.7227263 -0.98468745 0
2.1093118 3.6976886 0.76605153 0
2.069515 3.6989822 0.86414838 0
-2.1210465 3.7661569 0.17510188 0
2.1489601 3.6946132 0.66842949 0
-2.1131525 3.7604041 -0.33009923 0
2.2299962 3.6968319 0.27950346 0
