# .PCD v0.7 - Point Cloud Data file format
VERSION 0.7
FIELDS x y z intensity
SIZE 4 4 4 4
TYPE F F F F
COUNT 1 1 1 1
WIDTH 1404
HEIGHT 1
VIEWPOINT 0 0 0 1 0 0 0
POINTS 1404
DATA ascii
-2.8625488 -6.2865787 -0.6908114 0
-2.7883916 -6.3551626 -0.19140702 0
5.9443498 -3.4510429 -0.97893989 0
-2.7811122 -6.3464804 -0.43897766 0
5.9448137 -3.5107985 0.73419428 0
-5.4337215 -3.990804 1.6602595 0
5.9329839 -3.6079471 -0.0083816051 0
-3.5634832 -5.575953 2.1070566 0
5.9444962 -3.0472009 1.8996902 0
5.9399505 -3.5288813 -0.7114656 0
5.9492803 -3.5844038 -0.11538851 0
-2.9578762 -6.1753254 1.1725481 0
-3.9110446 -5.2343287 2.3602934 0
5.9430828 -3.4487157 1.0257239 0
-3.7795124 -5.3497777 2.3177409 0
5.9277391 3.2022383 1.6989861 0
5.946681 -3.5816014 0.31781292 0
-5.6127329 -3.9432039 1.1205151 0
-3.2881346 -5.8474231 1.8176353 0
5.9617262 -3.284332 1.4078484 0
-5.5509396 -3.9578836 1.35554 0
5.9475651 -3.5825546 -0.33337224 0
5.9390459 -3.5733702 0.53339112 0
-2.9997268 -6.13761 1.2887664 0
-2.8492475 -6.2711668 -0.94060254 0
5.9679041 -3.5234752 0.56296015 0
-5.66607 3.2457931 2.3915355 0
-2.7833557 -6.3491564 0.54868352 0
-3.4165225 -5.701858 2.0451512 0
-3.4811711 -5.6566734 2.0629323 0
-3.0002174 -6.1257067 1.3680644 0
5.9352188 -3.2062643 1.701262 0
-2.8553391 -6.2796111 0.90400195 0
-5.3351469 -4.0201602 1.9439726 0
5.9232898 3.1852548 1.7831521 0
3.5374277 -5.9096885 -0.98751199 0
-3.2928343 -5.8616657 1.7931204 0
5.794488 3.2940433 1.9977903 0
-3.2193165 -5.91155 1.7669199 0
-3.1444454 -5.9824286 1.67102 0
-5.7986078 3.243444 2.0823531 0
5.9476438 -3.6172476 0.164765 0
-6.0548983 3.2453191 1.1369011 0
5.9418941 -3.6135998 -0.36180753 0
5.9455557 -3.5112057 0.90401828 0
-3.1583948 -6.0122652 1.5417652 0
5.9410157 -3.3668213 1.3672099 0
5.9415836 -3.274014 1.5745316 0
5.9386525 -3.4450743 1.1717281 0
5.9129767 -3.5452645 -0.98981869 0
-2.8489852 -6.2708635 1.0406241 0
5.9603295 -3.5414047 0.68509364 0
5.9505653 -3.6191008 -0.18606126 0
-2.7101665 -6.4189739 0.056071639 0
-2.7845278 -6.3505545 -0.69052243 0
-3.0496469 -6.0930204 1.4717293 0
5.9324503 3.0773284 1.9827456 0
5.9491014 -3.6181722 0.33876216 0
-2.7789416 -6.3438916 0.79459071 0
5.9518394 -3.5871627 -0.55445141 0
5.9504795 -3.2927456 1.5374184 0
-6.1575508 3.2409132 0.44495881 0
5.9156022 3.2733238 1.705281 0
-3.4198742 -5.6967831 2.1142402 0
-3.7146163 -5.4272547 2.3172693 0
-5.5440178 -3.9525132 1.5060015 0
5.9269629 3.0388455 2.0652039 0
-5.13762 -4.0644393 2.3913743 0
5.9334679 -3.5045693 1.0735407 0
5.9391036 -3.5734322 -0.77356911 0
-5.0997653 -4.083262 2.4423816 0
-3.8330698 -5.3271327 2.364157 0
5.9439788 -3.6149223 0.51253188 0
5.9164381 3.2611334 1.7402277 0
5.9524307 -3.5365508 0.85791612 0
3.6098895 -5.8879027 -0.98877192 0
-2.714488 -6.4242806 -0.19194996 0
-3.3912501 -5.7375031 2.0645821 0
-3.0760307 -6.0718994 1.5395899 0
-3.2169695 -5.9281702 1.791729 0
5.9499822 -3.5350461 -0.89726698 0
-5.7930717 -3.8915784 0.0017113686 0
-2.8553205 -6.2795634 1.0605412 0
-5.2994285 -4.0296063 2.1023097 0
5.9402952 -3.0848701 1.9856615 0
-2.710434 -6.4193025 -0.44034261 0
-3.7394338 -5.4025617 2.3630168 0
5.9352589 -3.3175266 1.5884671 0
5.9484262 -3.617744 -0.54228723 0
5.9504676 -3.4531095 1.2010546 0
-2.9984121 -6.1213698 1.5230994 0
-2.7171249 -6.4275188 0.30239832 0
5.9427991 -3.2045557 1.7894878 0
-4.5801644 -4.5474553 2.6708722 0
0.37771785 -6.9054151 -0.98490167 0
5.9491124 -3.5842226 0.74981177 0
-3.3512259 -5.7782907 2.0461817 0
0.28659546 -6.9099216 -0.99076307 0
-2.9296932 -6.2102499 1.2896347 0
-2.6992955 -6.4176016 0.58722138 0
5.9392872 -3.0447185 2.0674484 0
-5.6000113 -3.9380276 1.3991408 0
-4.6661711 -4.4631243 2.6736691 0
-2.7037959 -6.4304419 0.42744935 0
-5.7975473 -3.8933253 -0.28251988 0
-2.9501224 -6.1635737 1.4721231 0
-3.6453004 -5.4772162 2.3620632 0
5.9442053 -3.531496 1.0311015 0
-4.3268085 -4.8028731 2.6666069 0
-4.4146271 -4.7210293 2.6688309 0
-2.7129364 -6.4223757 0.54888582 0
3.6814218 -5.8633509 -0.9895401 0
-4.5017099 -4.638176 2.671186 0
-2.8720298 -6.2678609 1.175246 0
-5.2699747 -4.040555 2.1951022 0
-5.7788811 -3.8950839 0.59651875 0
-6.1670189 3.2462895 0.59774125 0
-4.2396336 -4.885047 2.6650281 0
5.9072351 3.2889974 1.797502 0
-3.6477337 -5.5030155 2.3164821 0
-3.1335607 -6.0003362 1.7704921 0
-3.269743 -5.8391457 2.0423574 0
5.9498186 -3.6186271 0.68676996 0
3.7480454 -5.8266029 -0.98707533 0
-2.8529053 -6.2732573 1.2169354 0
-2.7082229 -6.4165869 -0.69088638 0
-5.670939 3.2481132 2.5056064 0
5.9481874 -3.6175923 -0.72392654 0
-2.7856636 -6.36128 0.87642825 0
-3.2913332 -5.8540134 1.9736462 0
-2.7765498 -6.3410387 1.0411944 0
5.936244 -3.6949553 0.33822477 0
5.9431119 -3.6994517 -0.013463438 0
-4.7571907 -4.3824873 2.6785915 0
-5.8089457 -3.8977745 0.28418779 0
5.9290538 -3.6902483 0.51302516 0
5.9315825 -3.5237389 1.2042837 0
-5.3370647 -4.0217385 2.0962806 0
-3.5671425 -5.5667739 2.3112001 0
-5.7953386 -3.8924632 0.56695712 0
-2.6287208 -6.4787164 -0.43975264 0
5.9424243 -3.7090104 -0.12302953 0
5.9458046 -3.7012146 -0.19103199 0
-2.6383619 -6.4909081 0.055486679 0
5.9460249 -3.3697054 1.5452785 0
-3.0029597 -6.1411462 1.5397606 0
-2.6373672 -6.4896507 -0.19218749 0
-5.7990904 -3.8939276 -0.56844318 0
-3.1466956 -6.0001831 1.7921429 0
5.9377937 -3.6109984 -0.90527606 0
-3.3057694 -5.824738 2.0680809 0
5.939765 -3.5080264 1.2435827 0
5.9452825 -3.7121813 0.09677434 0
-2.7921433 -6.3596373 -0.94650912 0
5.9472146 -3.2909274 1.7149763 0
-4.9234366 -4.2068472 2.684109 0
5.9444957 -3.6152501 0.86097419 0
5.9479151 -3.5829318 0.96661282 0
5.940577 -3.7069609 -0.3440668 0
-3.486052 -5.6293564 2.3059969 0
-6.1687441 3.2472689 0.75090623 0
5.9444766 -3.7003453 -0.36959445 0
-4.8461571 -4.299511 2.6831527 0
5.9513488 -3.7048442 0.16211474 0
-5.5486031 -3.9560704 1.6584125 0
-4.1616349 -4.9762254 2.6673534 0
5.9494553 -3.4525073 1.3770394 0
-2.6301565 -6.4805322 0.54877317 0
-5.7846241 -3.8992815 0.75017643 0
5.9315281 -3.7456574 -0.13608813 0
5.9526978 -3.2797072 1.7449918 0
-6.0562029 3.2457032 1.423991 0
5.9234982 3.1854613 2.0012584 0
-2.8573651 -6.2805729 1.2902803 0
5.9500046 -3.4569671 1.3906341 0
5.9375172 -3.7035654 -0.56652731 0
-3.1528931 -6.0011849 1.8291616 0
-2.7158709 -6.4259791 0.79580164 0
5.949203 -3.7165315 0.31604493 0
-5.7746277 -3.8919747 0.90399826 0
-3.5649686 -5.5686698 2.3665261 0
-6.16364 3.2443707 0.90399766 0
-4.0764604 -5.0603862 2.6674485 0
5.9451256 -3.7007699 -0.55049092 0
-2.6460333 -6.5006094 0.30217993 0
-2.9218245 -6.2013927 1.5382454 0
5.9297004 -3.1915967 2.0035958 0
0.45958984 -6.940691 -0.98875976 0
3.8874435 -5.768681 -0.98750091 0
5.927537 3.0391192 2.2348609 0
-5.4448323 -3.9955113 1.943182 0
3.8240199 -5.8123364 -0.9914248 0
-5.0146527 -4.1244903 2.690172 0
5.9248095 3.2654216 1.9108043 0
-3.043335 -6.0837455 1.7732358 0
-2.709012 -6.4453244 0.7450155 0
-2.6879382 -6.4376502 0.87717986 0
-2.7101278 -6.4189262 -0.94523823 0
5.947103 -3.7142017 0.53530025 0
-2.780087 -6.3522778 1.1772118 0
5.9483232 -3.7555153 0.036720037 0
-6.1555729 3.2397897 1.0567365 0
-2.7040396 -6.4114504 1.0419023 0
-3.2872744 -5.8456507 2.1280663 0
-3.0745826 -6.0703607 1.7923317 0
-3.0049372 -6.1370435 1.6811254 0
-2.8646317 -6.2562914 1.4759521 0
-5.801084 -3.8947058 0.85013938 0
0.54745471 -6.9484468 -0.98640466 0
-2.7754622 -6.3397412 1.2892978 0
5.939178 -3.4463923 1.5528584 0
-3.9936876 -5.1471491 2.6689513 0
-2.6380324 -6.4904914 -0.69305766 0
-3.2178164 -5.9094758 2.0712399 0
-2.5622163 -6.5577474 0.055176497 0
5.944993 -3.7006831 -0.73369896 0
5.9503899 -3.6189895 1.0374355 0
5.9493356 -3.7035263 0.68915904 0
5.945384 -3.7537904 0.38538611 0
5.9401388 -3.7064745 0.75422299 0
-3.2126489 -5.9238338 2.0467381 0
-2.8586578 -6.2882752 1.3749523 0
5.9480252 -3.583051 1.1848552 0
-2.9870844 -6.1237826 1.7883787 0
-3.4764056 -5.6506472 2.3684897 0
-2.5633168 -6.5591803 -0.19300371 0
-3.1451283 -5.9839454 1.9828122 0
5.9429836 -3.3679543 1.7241602 0
5.9433374 -3.5099881 1.4141111 0
5.9404988 -3.7843761 -0.19614351 0
-5.80755 -3.8972297 -0.85812116 0
5.9394255 -3.7502928 0.55889857 0
-3.904254 -5.226902 2.6683226 0
-2.6365609 -6.4886308 0.79576099 0
5.9457083 -3.787894 -0.017937064 0
-2.7091551 -6.4457331 0.90400505 0
5.9596853 -3.7621841 0.21008277 0
5.9439754 -3.5313547 1.384059 0
-5.7810335 -3.8966575 1.0577173 0
-2.7023993 -6.4264574 1.0625286 0
5.9440603 -3.7108252 -0.79392958 0
-2.8506241 -6.2673025 1.5306354 0
5.9376898 -3.6959019 -0.91757739 0
-2.5622168 -6.5577478 -0.442388 0
3.9629521 -5.7521348 -0.99182034 0
-2.5677695 -6.56498 0.30213332 0
4.0264826 -5.7095146 -0.98874092 0
5.9553556 -3.0523758 2.2406669 0
5.9497595 -3.2782021 1.9147453 0
-5.5545435 -3.9606795 1.8121679 0
-3.3453417 -5.7727146 2.3042841 0
5.9095187 3.291322 2.018708 0
-3.4343739 -5.7182975 2.3117626 0
5.9449577 -3.4516799 1.6085129 0
5.9537497 -3.7933245 0.15944231 0
5.9541068 -3.336715 1.8129444 0
-2.8533583 -6.2759304 1.5399833 0
-5.6139998 -3.9437194 1.6837702 0
5.9461241 -3.6162832 1.2140007 0
4.0926981 -5.6729975 -0.98773706 0
5.9503207 -3.7910089 -0.37831652 0
-3.1377568 -5.9909515 2.0456765 0
5.9421568 -3.7854955 -0.55912966 0
-2.5658803 -6.5625191 0.54921246 0
5.9540567 -3.7935319 0.33701301 0
-2.6281161 -6.477952 1.0422826 0
0.63238502 -6.9705949 -0.98773026 0
-3.3883543 -5.7337313 2.371125 0
5.9386444 -3.5729373 1.4027781 0
5.9471645 -3.7548356 0.73134482 0
5.9370351 -3.7820368 0.69090056 0
-5.7789841 -3.895159 1.2114849 0
-2.5484228 -6.5866799 0.42053545 0
-5.7980585 -3.8935249 1.1339679 0
-3.8258619 -5.3190193 2.672595 0
5.9525514 -3.7925153 0.51435518 0
-3.0052691 -6.1378407 1.8385413 0
5.9458966 -3.7128632 0.9748832 0
-6.170763 3.248415 1.2104557 0
-2.6899157 -6.4409466 1.1797292 0
5.964427 -3.7134063 0.86709225 0
-2.960701 -6.1796069 1.778563 0
4.2229567 -5.5964098 -0.98548543 0
-2.6447201 -6.4989481 -0.94941223 0
-5.2979674 -4.0285735 2.4166195 0
-5.6764374 3.2516639 2.7104716 0
-2.5472755 -6.5830779 0.58215988 0
-2.5988979 -6.5298491 0.87896955 0
5.9393182 -3.5284927 1.5626941 0
5.9305558 -3.7776613 0.86773729 0
-5.2671919 -4.0393291 2.4784806 0
5.9476614 -3.851249 0.091242671 0
-2.5695095 -6.567246 -0.69597614 0
-2.4840007 -6.6221271 -0.44289815 0
-3.1370883 -6.0053639 2.0773153 0
5.9422112 -3.8450248 -0.35687375 0
-6.0620604 3.2474275 1.7144003 0
5.948288 -3.5127056 1.5855331 0
-2.4934111 -6.6347537 0.054133415 0
-2.7059689 -6.4366417 1.2217281 0
5.9486709 -3.8524024 -0.13277143 0
-5.4602346 -3.9901984 2.1235838 0
-2.7791176 -6.3507133 1.480171 0
5.9383097 -3.8711777 -0.02152431 0
-2.4924498 -6.6334634 -0.19444615 0
4.1659656 -5.650362 -0.99119508 0
-3.7371039 -5.3998623 2.6732244 0
5.9538431 -3.7064772 1.0436115 0
-3.2793961 -5.8485599 2.3056307 0
-2.49125 -6.6318541 0.30200815 0
5.9366856 -3.2715054 2.0835876 0
5.9477649 -3.7892828 -0.74555814 0
-3.0655165 -6.0607257 2.0458131 0
-5.5497065 -3.9569266 1.9650414 0
-5.1418586 -4.0675278 2.7084973 0
-2.715529 -6.425559 1.2927332 0
0.71818542 -6.9887066 -0.98839235 0
4.2908521 -5.5634341 -0.98640001 0
-2.9283066 -6.2086892 1.7929897 0
5.9404783 3.2734478 2.0842881 0
-3.1473975 -5.9889832 2.1413629 0
-2.5698624 -6.5677056 0.79688144 0
5.9511371 -3.8552186 0.31421268 0
5.9524236 -3.454273 1.7380271 0
-2.8539553 -6.276 1.6896639 0
-6.1647644 3.2450092 1.3636181 0
5.9430661 -3.8460019 0.53697336 0
-3.3016577 -5.819221 2.3747902 0
-2.5479641 -6.5852385 0.74311793 0
-2.700202 -6.4201875 1.3798015 0
5.9454441 -3.8761461 -0.20301729 0
5.9403367 -3.322696 2.0304918 0
5.9262481 -3.7747521 1.0454321 0
5.9399724 -3.7840207 -0.93116081 0
5.9527555 -3.6204903 1.3946836 0
-2.7861266 -6.3524613 1.5423164 0
0.80630434 -6.9925227 -0.9860003 0
5.9615126 -3.7632568 0.90402222 0
5.9444861 -3.7003515 1.2209961 0
5.9527631 -3.8812425 0.15687895 0
-2.5105038 -6.6252465 0.57734799 0
5.9405355 -3.8727281 0.514974 0
5.9427338 -3.4493506 1.8297997 0
4.359076 -5.5308061 -0.98772788 0
5.9487476 -3.8524897 -0.58534288 0
-3.6515923 -5.4847202 2.6756971 0
-2.5459752 -6.5789971 0.9040072 0
-2.4954152 -6.6374426 0.54951334 0
-5.986465 -3.8402741 -0.0067969561 0
-3.0025296 -6.1312609 1.9957173 0
-2.5599575 -6.5548053 1.043921 0
-2.5694222 -6.5671325 -0.95087039 0
-5.7905769 -3.9036326 1.3666503 0
-2.8692703 -6.263545 1.7818236 0
4.422132 -5.4891114 -0.98654878 0
-2.9899411 -6.1269073 2.04515 0
5.9420958 -3.8448937 0.75971448 0
5.9510422 -3.7185724 1.197386 0
5.9404869 -3.5084231 1.7562644 0
5.9548388 -3.8826878 -0.38711923 0
-5.4525709 -3.99879 2.2299747 0
5.9580526 -3.8849261 0.33605325 0
-2.4931731 -6.6344342 -0.69716859 0
-5.7933264 -3.8916781 1.4190834 0
5.9408069 -3.8434217 -0.81277871 0
-5.9903965 -3.8417442 -0.29667032 0
-2.6383047 -6.4908361 1.2930498 0
-3.2112808 -5.9004397 2.3775558 0
-2.855329 -6.2782135 1.7938118 0
-3.0508213 -6.0947466 2.0820756 0
-2.5041857 -6.6139956 0.88033795 0
5.9418068 -3.8736129 0.69382119 0
5.9573307 -3.7608023 1.0769737 0
-2.4902101 -6.6304584 0.79698575 0
5.9450097 -3.5797994 1.626657 0
-2.6861191 -6.4346175 1.4830241 0
-3.2170424 -5.9282427 2.3087697 0
5.9531159 -3.8814886 -0.57143986 0
-5.9978843 -3.8445437 0.28143859 0
-2.5447917 -6.5752816 1.0646534 0
-3.5629091 -5.5661411 2.6773787 0
5.9436584 -3.5311599 1.7466781 0
-2.4207797 -6.7074771 0.05331409 0
-6.1662493 3.2458522 1.5177624 0
0.89259267 -7.0073671 -0.98647869 0
4.4892836 -5.4543471 -0.9878161 0
-2.4219956 -6.7091579 -0.1961363 0
-5.7813425 -3.8968832 1.5205824 0
-6.0369892 3.2400479 2.0022018 0
5.9422126 -3.698863 1.4012141 0
-2.5396318 -6.5590868 1.2246819 0
-5.9894071 -3.8413742 -0.5879693 0
-2.8550739 -6.2789197 1.8491256 0
-2.6063113 -6.5426197 1.1836724 0
-5.9930816 -3.8427482 0.56987178 0
4.6110544 -5.3646398 -0.98485351 0
-2.7140942 -6.4237971 1.5437591 0
-2.7035694 -6.4297953 1.5401568 0
-2.4197316 -6.7060275 -0.44653183 0
5.9370594 -3.2716966 2.2558875 0
-2.4250813 -6.7134242 0.30154407 0
5.9407582 -3.7071617 1.418694 0
5.9382162 3.2722893 2.2561326 0
5.9546928 -3.6217194 1.577105 0
-3.1382422 -5.9914527 2.3060567 0
5.9531126 -3.8814862 -0.75861585 0
5.9431801 -3.846132 0.98344219 0
-5.6229329 -3.9473543 1.971565 0
5.950984 -3.7570772 1.2497702 0
5.9382653 -3.9612038 -0.39215541 0
5.9456611 -3.9665124 0.154603 0
-2.3826966 -6.7280092 0.41443694 0
-5.55896 -3.9641068 2.1221638 0
-2.4195342 -6.7057548 0.5496906 0
5.9483795 -3.9684639 -0.027157605 0
5.9460778 -3.9668119 -0.20950788 0
-6.1533232 3.2385123 1.6707203 0
4.5578327 -5.4215207 -0.99001145 0
-2.4133911 -6.6972613 -0.69771123 0
-2.7762809 -6.3461332 1.7850485 0
5.9442234 -3.9654806 0.33543861 0
5.9450769 -3.7874677 1.2287142 0
-2.488215 -6.6277819 1.0452261 0
-3.0017052 -6.1292801 2.1547065 0
-2.497004 -6.6395745 -0.95360792 0
5.9511571 -3.8801243 0.87429392 0
5.9438806 -3.8750572 -0.94582081 0
-3.4790335 -5.6539707 2.6816671 0
5.9359665 -3.9988873 0.20051885 0
5.9332657 -3.8676653 1.0525951 0
0.97870624 -7.0242181 -0.98771071 0
-2.9598498 -6.1783175 2.0857265 0
5.9460006 -3.9902594 0.085784316 0
5.9394398 -4.0010624 -0.15565217 0
5.9337959 -3.6084619 1.7554073 0
5.9413214 -3.9847591 -0.36979109 0
-2.4193826 -6.7180147 0.57799673 0
-2.5010009 -6.6083241 1.1840959 0
5.9443798 -3.988354 0.31253052 0
-5.7776461 -3.8941813 1.6754537 0
-2.5672169 -6.56426 1.294796 0
4.7389097 -5.2846317 -0.98611581 0
-2.7868538 -6.3533282 1.7963088 0
5.9462042 -3.9669025 0.51600385 0
-6.025754 -3.8350718 0.58875918 0
4.6821766 -5.3354316 -0.98881638 0
-5.4417377 -3.9775136 2.4371219 0
-2.8491311 -6.2634048 2.0065351 0
4.7962122 -5.2351003 -0.9840709 0
-5.9909215 -3.8419404 0.85844624 0
5.950501 -3.9955499 -0.14235711 0
-3.1290331 -5.9938836 2.3841085 0
5.9424706 -3.7520802 1.4224231 0
5.9466448 -3.5118034 1.9297512 0
-2.9338074 -6.2148809 2.0515609 0
1.0668484 -7.0243974 -0.98535454 0
-2.6378236 -6.4902272 1.5444043 0
5.9443941 -3.4510901 2.055964 0
-6.0198994 -3.8310454 0.74663174 0
-2.5945096 -6.5222902 1.486578 0
-2.420578 -6.7071977 0.79806781 0
-5.2813144 -4.016799 2.730927 0
5.951293 -4.0084848 0.021091461 0
-2.3445215 -6.775847 0.30147254 0
-5.4165239 -3.9835176 2.5092795 0
-2.3472004 -6.7796645 -0.19736338 0
-2.7029753 -6.4281006 1.7002854 0
-2.3834643 -6.7306828 0.74098992 0
5.944046 -3.9653533 0.69669271 0
-3.0705252 -6.0660481 2.3079867 0
-2.4123802 -6.7051153 0.88219261 0
5.9538751 -3.9724088 -0.58176351 0
-2.3511624 -6.7853112 0.052108765 0
5.9466019 -3.9909666 0.53892934 0
-2.3434868 -6.7743726 -0.44793451 0
-2.4135528 -6.697485 -0.95308125 0
5.9477921 -3.7025158 1.5858712 0
-2.3889627 -6.7498236 0.57686615 0
-6.0030451 -3.8464737 -0.88417637 0
5.9418521 -3.78529 1.4104581 0
-2.8484855 -6.2702842 2.0482073 0
-6.1498375 3.2365334 1.8253458 0
5.9518147 -4.0088115 0.37575638 0
-2.5451736 -6.5764799 1.3867321 0
-5.6153336 -3.9432032 2.1434565 0
-5.7974286 -3.8932791 1.7078001 0
5.9451818 -4.0046582 0.55252862 0
4.8648663 -5.2013731 -0.98752916 0
5.9505744 -3.585799 1.8539824 0
5.9496813 -3.8535559 1.209666 0
5.9400024 -4.0544152 -0.030994058 0
5.9504347 -3.9954717 -0.60266161 0
-3.3960638 -5.743772 2.6869824 0
-2.7089944 -6.4175348 1.7962894 0
5.9387112 -3.8714573 1.2354064 0
-2.3397417 -6.7690353 -0.70020139 0
5.9430995 -3.9868495 0.76538098 0
4.9257727 -5.1567659 -0.98769808 0
5.9398341 -3.9830105 -0.83319616 0
-5.9375672 3.2555068 2.4473898 0
1.1533424 -7.0387421 -0.98658013 0
-2.3844442 -6.7340937 0.90401006 0
5.9412642 -4.0553484 0.33455646 0
-2.4170861 -6.7023697 1.0468032 0
5.9453449 -4.0583673 -0.21605593 0
5.9575686 -3.9750605 -0.77192807 0
-2.4922333 -6.633173 1.2959895 0
5.9441185 -4.0039921 0.7284013 0
-2.3191805 -6.795814 0.57837141 0
-2.8722544 -6.2682118 2.091105 0
5.9495506 -4.0614786 0.1515069 0
5.9492002 -3.7165282 1.6468217 0
-6.0305529 -3.8383725 0.90400338 0
-2.3540096 -6.7893686 0.55021572 0
5.9435134 -4.0570126 -0.40176433 0
-2.6906133 -6.4421096 1.7909658 0
5.9431777 -3.96473 -0.95953894 0
-3.3006897 -5.8179226 2.6874101 0
4.9870243 -5.1125479 -0.98829556 0
5.9530015 -3.9717817 0.87905526 0
5.0415106 -5.0597725 -0.98625958 0
-3.0439515 -6.0846519 2.3901811 0
-5.9943137 -3.8432088 1.1484361 0
-2.2695465 -6.8467221 0.051892757 0
5.9420004 -3.5092537 2.1026793 0
1.2412506 -7.0380068 -0.98459792 0
-3.0025587 -6.1407075 2.3102691 0
-2.2695341 -6.8467035 -0.19832551 0
-2.7026539 -6.4271841 1.8613203 0
5.0994558 -5.0115004 -0.98603404 0
-5.7899227 -3.9031549 1.8337381 0
5.9408498 -3.9630589 1.0601175 0
5.953598 -3.7586114 1.597306 0
5.9412785 -4.002214 0.90402532 0
-5.6118016 -3.9428248 2.2589707 0
-2.6307616 -6.4812975 1.7964382 0
-6.0287056 -3.8371022 1.0616236 0
-6.1484289 3.2357333 1.9811919 0
5.943068 -3.7861111 1.5956497 0
5.9437199 -3.9875782 0.99284136 0
5.9526229 -4.0637512 0.51709008 0
5.1581736 -4.96415 -0.98642015 0
5.9484715 -3.7029605 1.7724302 0
-2.5744019 -6.5736179 1.5486484 0
-2.3524933 -6.7872076 0.79941249 0
-2.5476284 -6.5841856 1.5492129 0
5.9464869 -3.8499081 1.4361992 0
-2.2755322 -6.8555174 0.30101311 0
-2.7841988 -6.350162 2.0526371 0
-2.2719545 -6.8502598 -0.45060676 0
-2.9217167 -6.2012711 2.3078218 0
5.2151508 -4.9147253 -0.98636973 0
5.267128 -4.8597379 -0.98460448 0
-2.3187418 -6.7949777 0.88403726 0
5.9392352 -4.1278019 -0.15059054 0
-5.7688551 -3.8877556 1.9869819 0
-6.0168667 -3.8289595 1.2187455 0
-2.2705364 -6.848176 0.55023181 0
-2.5087476 -6.6221189 1.4920011 0
5.9490833 -4.0611329 0.69986248 0
-2.3883653 -6.7477441 1.0674441 0
5.9447556 -3.8756666 1.4208593 0
-2.4188395 -6.7170143 1.1889458 0
5.957386 -4.0672746 -0.59317553 0
-2.8574991 -6.2852511 2.1719155 0
5.9367208 -3.9993596 1.0794463 0
5.3722658 -4.7517109 -0.98254037 0
5.9439025 -4.1334505 0.080104351 0
-2.4162664 -6.7012372 1.2972057 0
5.9401646 -4.1289268 0.31069744 0
5.9472761 -4.0597959 -0.78152919 0
-2.7801423 -6.3523674 2.0954118 0
-2.3509307 -6.7849813 -0.95987034 0
-6.4752407 3.2417486 0.27677035 0
1.3276607 -7.0559211 -0.9872247 0
5.9427147 -3.7522233 1.7705688 0
5.9473643 -3.5823381 2.0821221 0
5.9424458 -3.9642045 1.2443702 0
-2.6997814 -6.4189882 2.0220993 0
-5.9828014 -3.8389044 1.4385033 0
-2.2177815 -6.8933086 0.40630853 0
5.3308411 -4.8176584 -0.98780322 0
-2.5984445 -6.529068 1.7954082 0
-2.4921203 -6.6330214 1.5482893 0
5.9465656 -4.136673 -0.38449872 0
-6.0639257 3.2479763 2.3046155 0
-6.489522 3.2457311 -0.022229195 0
-2.3503838 -6.7842016 1.0492482 0
5.948288 -4.1546631 0.14862752 0
-2.9595027 -6.1777911 2.397191 0
-5.7928085 -3.8914757 1.9982176 0
-2.5460625 -6.5792699 1.7112303 0
5.9418211 -4.0557604 -0.97361076 0
5.9516544 -4.1572285 -0.037210464 0
5.9487944 -3.716078 1.8759031 0
5.4370985 -4.7103739 -0.98666763 0
-2.1961975 -6.9209137 0.050802588 0
-3.2254162 -5.9199834 2.6975169 0
-2.2778239 -6.8588848 -0.70633352 0
5.9541006 -4.0648441 0.88392818 0
1.4153855 -7.0557675 -0.9859581 0
-2.3886986 -6.7489033 1.231111 0
5.9469237 -4.1371069 0.54088771 0
-2.2748585 -6.8545275 0.80000198 0
-2.1959324 -6.9205117 0.30084407 0
5.9516921 -4.1572571 0.33334279 0
5.9550724 -4.1598334 -0.22449195 0
-2.2642713 -6.8389697 -0.95892715 0
5.9484468 -3.9931347 1.2225413 0
-6.4944353 3.2471011 -0.32251167 0
5.9452291 -4.1350555 -0.61907351 0
5.9443183 -4.1516371 0.51789522 0
5.9416962 -3.8444369 1.6644409 0
-6.19771 -3.7903943 0.27848756 0
5.937921 -4.1262116 0.77080345 0
-2.2302246 -6.8972387 0.57923365 0
5.4949675 -4.6615062 -0.98833704 0
5.9437027 -4.0571523 1.067205 0
-6.2080774 -3.7941022 -0.01687336 0
-2.1969285 -6.9220214 -0.45279831 0
-2.5685115 -6.5659461 1.8019795 0
5.9453363 -4.0047545 1.2555318 0
-2.8579421 -6.2812414 2.312685 0
-2.3843889 -6.733902 1.3940136 0
-2.7193708 -6.4302773 2.0573618 0
5.5474257 -4.6071677 -0.98823428 0
-6.1892185 -3.7873569 0.57275486 0
-6.0299559 -3.8379622 1.3776555 0
5.9579048 -4.1619921 -0.41357106 0
-6.2054996 -3.7931805 -0.31288505 0
5.9531717 -3.5153866 2.2800879 0
5.9522114 -3.7922859 1.7865181 0
1.5029587 -7.0559297 -0.98505533 0
5.6459212 -4.4926023 -0.98656309 0
-6.4932261 3.2467639 0.57495546 0
-2.1889062 -6.9098625 -0.70520091 0
-2.2226276 -6.9122043 0.57160163 0
5.6938515 -4.4342947 -0.98571563 0
-6.4907789 3.2460816 -0.62389958 0
-2.2082486 -6.939178 -0.20206171 0
5.9361076 -3.7483454 1.9448855 0
-2.1980104 -6.9236612 0.55062163 0
5.6003933 -4.5532994 -0.98860681 0
5.95189 -3.8806348 1.6096718 0
-2.4145417 -6.7090974 1.495759 0
5.9523573 -4.1577644 -0.60295558 0
-2.2196765 -6.9006968 0.73817384 0
-2.6885886 -6.4387345 2.1004834 0
5.9432669 -4.1326814 -0.85591948 0
-2.6973476 -6.412044 2.1839576 0
-3.1353245 -6.0028496 2.7015944 0
5.7465277 -4.3801527 -0.98684955 0
-6.20049 -3.7913883 -0.61020195 0
-5.4501224 -3.9832633 2.7629116 0
5.952498 -4.1578717 0.7030499 0
-2.3798881 -6.7182331 1.5566552 0
-5.781539 -3.8970265 2.1480603 0
-2.3273563 -6.8114018 1.1924629 0
-5.7776451 -3.8973444 2.1649706 0
-2.6361275 -6.4880829 2.0557418 0
-2.8710771 -6.2663703 2.4032202 0
-2.2757874 -6.8558922 1.0506978 0
5.9542851 -3.9727032 1.4332614 0
5.7976913 -4.324574 -0.98771465 0
-2.1292696 -6.9773812 0.27169847 0
5.9404149 -4.0547204 1.2525539 0
-2.3530169 -6.7879539 1.3013716 0
-2.2188373 -6.8974252 0.90401328 0
-6.1761942 3.2514994 2.1444809 0
-6.4833031 3.2439969 0.87329078 0
-6.0239201 -3.8338108 1.5356572 0
-5.6257792 -3.9501488 2.4687989 0
-2.5474148 -6.5835161 1.8752432 0
5.9336295 -4.1434913 -0.98597085 0
-2.1960526 -6.9206939 0.80058348 0
-7.1575804 -1.0774274 -0.98421919 0
-2.4251804 -6.7135615 1.5522971 0
5.8465977 -4.2670317 -0.98806763 0
-2.7816935 -6.3471732 2.3129034 0
-5.9282594 3.2504103 2.7692609 0
-2.1203279 -6.9923081 0.049830794 0
5.9471745 -4.1538143 0.88811755 0
5.9451776 -4.2484159 0.14575016 0
-2.5096421 -6.6237121 1.8014514 0
5.9443684 -4.2477808 -0.23005939 0
1.5901728 -7.066668 -0.98688507 0
-6.4853382 3.2445643 -0.92732346 0
5.9402533 -4.2615438 0.0061187744 0
-7.165288 1.0775378 -0.98544002 0
5.8968434 -4.2104731 -0.98915529 0
5.9422383 -3.7088039 2.1062045 0
-2.1212449 -6.9937415 0.30048239 0
5.9604855 -4.163959 -0.79840791 0
-2.4940586 -6.635622 1.8040495 0
-7.1873236 0.95002371 -0.98878551 0
5.9531188 -4.2546496 -0.042526722 0
5.9531021 -3.9986079 1.4547136 0
-2.1151934 -6.9842777 0.55072153 0
-2.1927805 -6.9157348 -0.96358705 0
-2.2375836 -6.9117708 0.88752949 0
-6.2004671 -3.7913804 0.86784983 0
-2.1265864 -7.0020947 -0.20278597 0
5.9523349 -4.1436553 1.0037897 0
5.9514637 -4.2533503 0.33231974 0
5.9431748 -4.2468438 0.51889622 0
5.9569283 -4.0120134 1.4327192 0
-2.1220717 -6.9950352 -0.45530963 0
-6.2000475 -3.7912304 -0.91047478 0
5.9437742 -4.2638917 0.36654747 0
5.950685 -4.252739 -0.42146057 0
5.949338 -3.8788576 1.7990026 0
-3.0465021 -6.0883999 2.7069221 0
5.9516649 -4.2691541 0.18559265 0
-5.9927521 -3.8426249 1.7338357 0
-2.268116 -6.8446198 1.3011689 0
5.9402313 -4.2796679 0.30865633 0
-5.6208043 -3.9464881 2.5560267 0
5.9548922 -4.2713065 -0.17809439 0
-7.1641712 -1.2050722 -0.98569691 0
5.9458632 -4.2866859 -0.16173571 0
-2.3799057 -6.7182951 1.7211585 0
-2.2209625 -6.9057112 1.0699739 0
-6.0190439 -3.830457 1.69417 0
5.9507723 -3.9701817 1.6213965 0
5.9475164 -4.2502518 -0.6132108 0
-6.271286 -3.7626214 0.58111978 0
5.9500346 -4.2918835 0.073462844 0
-5.7849336 -3.8884022 2.2914495 0
5.9493136 -3.8531358 1.8996391 0
5.9463663 -4.2656202 0.54588675 0
5.9431849 -4.2468514 0.70551693 0
-2.6001496 -6.5320048 2.1073604 0
1.6776402 -7.0766191 -0.98882079 0
-6.5707836 3.2469912 0.41942835 0
5.9418283 -4.13094 1.2349854 0
-2.1399035 -6.9991493 0.58012426 0
-6.5616484 3.2421451 0.58172798 0
-2.2286863 -6.8942008 1.1949472 0
5.9311562 -4.2374091 0.89148378 0
-2.5677104 -6.5649028 2.0600226 0
5.9564967 -4.1609187 1.0761118 0
-2.2011905 -6.9284806 1.0523403 0
-6.4853325 3.2445629 1.1730847 0
-2.3246455 -6.8062334 1.5010848 0
5.9500494 -4.0618472 1.4428015 0
-7.1803322 1.2055349 -0.98825753 0
5.9509478 -4.2930217 -0.39972466 0
-2.2184877 -6.8960619 1.2356501 0
-2.7147446 -6.4245958 2.3174686 0
5.9495039 -3.7562084 2.1238027 0
-2.7850428 -6.3602777 2.4109883 0
5.9269314 -4.2526598 0.90402889 0
1.7652972 -7.0674319 -0.98662746 0
5.9451499 -4.248394 -0.80753434 0
5.9507875 -4.0081682 1.6091685 0
-6.1938314 -3.7890069 1.1632009 0
5.9347501 -4.2728376 0.77665722 0
-2.1223125 -6.9954109 0.8017621 0
5.9488134 -4.2903619 0.54298282 0
-2.355835 -6.7919703 1.5560389 0
-2.4147787 -6.7095342 1.806088 0
5.9418716 -4.1497726 1.2617781 0
-6.2765512 -3.7660244 0.74250543 0
-2.4214272 -6.7083721 1.8070929 0
-2.5502634 -6.5924578 2.0413513 0
5.9495888 -4.2677693 0.72496498 0
-6.0654783 3.2484331 2.606832 0
5.9399323 -4.3424835 0.14289331 0
-2.1308289 -7.0087295 -0.71332204 0
-2.134388 -6.9878583 0.88869119 0
-7.1713915 -1.3330375 -0.9875648 0
5.9423137 -4.3444085 -0.04668045 0
-6.5500975 3.2360175 0.9040072 0
-7.1726627 1.3330921 -0.98776639 0
5.9511366 -3.9962971 1.6879869 0
-2.0490513 -7.0721641 -0.20436072 0
1.8527555 -7.0613499 -0.98544002 0
5.9516025 -4.2938375 -0.63921213 0
-6.5712996 3.2472649 0.74270105 0
-7.1541319 -1.459964 -0.98584116 0
-2.9597673 -6.1781921 2.7139716 0
5.9419217 -3.9638283 1.8105245 0
-2.0522027 -7.0772514 0.04796505 0
5.9375319 -4.0525875 1.6301308 0
-2.6331186 -6.4842777 2.3162518 0
-2.0440226 -7.0640464 0.55123818 0
-7.1612978 1.4603747 -0.98697805 0
5.9474344 -4.3485484 0.33133936 0
5.950264 -4.3508358 -0.23851007 0
-2.1230741 -6.9966025 -0.96938837 0
-2.0529208 -7.0784106 0.2998668 0
-6.0238447 -3.8337586 1.8549232 0
-2.1966467 -6.9215946 1.3041353 0
-2.686245 -6.4348273 2.4138117 0
5.9470968 -4.3482752 -0.43044454 0
-2.1190934 -6.9903774 1.052969 0
-2.0508966 -7.0751429 -0.45897883 0
-2.0506058 -7.0796075 0.3963871 0
-2.2714548 -6.8495259 1.5559404 0
-2.5049005 -6.6152682 2.1122346 0
5.9464455 -4.2874112 -0.87963188 0
-2.4944901 -6.6362014 2.0629518 0
-2.0428786 -7.090313 0.27057338 0
5.9428887 -4.2466187 1.0812283 0
5.9429455 -4.0032578 1.785814 0
5.9489551 -4.3497772 0.52009475 0
-2.3842626 -6.7334614 1.888772 0
5.9406352 -3.8432257 2.1328468 0
-2.221364 -6.9072771 1.4027288 0
-5.6004457 -3.9333036 2.7888005 0
-7.1504183 -1.5875756 -0.98655534 0
-6.2895794 -3.7744451 0.90400851 0
-2.5460634 -6.5792727 2.2047992 0
-2.0505753 -7.079473 0.56590927 0
5.9436994 -4.151166 1.4522395 0
5.947268 -4.3484135 -0.62506247 0
-6.5610151 3.2418091 1.0650437 0
-2.040287 -7.0848093 0.58072042 0
-2.0481091 -7.068563 0.73531485 0
5.9498482 -4.140646 1.471622 0
5.9462261 -4.2655272 1.0830002 0
-7.1580448 1.5881222 -0.98776627 0
1.9405981 -7.0712085 -0.98822343 0
-1.9654124 -7.1331 0.047833443 0
-6.4846535 3.2443733 1.4745188 0
-2.1325922 -6.9841828 1.1982517 0
-6.2794304 -3.7678854 1.0655909 0
-5.9902477 -3.8416884 2.0306149 0
-2.0460076 -7.0672503 0.8028183 0
5.949728 -3.7563398 2.3019426 0
-2.8674684 -6.2607274 2.7190456 0
5.9497633 -4.2915454 1.0136807 0
-2.0547986 -7.0814419 -0.71665418 0
-1.9680476 -7.1374936 0.29975736 0
5.9430456 -3.9867857 1.9220526 0
-2.4124556 -6.6959677 2.0628653 0
-6.0169086 -3.8289881 2.0146623 0
5.9458523 -4.3472691 -0.82188475 0
-2.354434 -6.7899733 1.8124557 0
5.9406281 -4.4363089 0.067831516 0
5.9580445 -4.3571253 0.70972717 0
-2.2195606 -6.9002461 1.5691335 0
-1.9735785 -7.1467137 -0.2064929 0
-5.9486003 -3.8531177 2.1884255 0
-2.2369404 -6.9105015 1.5075312 0
-2.325182 -6.8072557 1.8130622 0
-6.2066174 -3.7935801 1.4624009 0
-1.9656971 -7.1335745 0.55156279 0
5.9370198 -4.4316788 -0.41201806 0
-6.4063349 -3.7341108 0.27537417 0
5.946177 -4.3475318 0.89851499 0
-6.2756119 -3.7654171 1.2271369 0
5.9411206 -4.0552425 1.8247771 0
-5.794003 -3.9078872 2.4959488 0
-7.1521168 -1.7158086 -0.98842061 0
-2.120358 -6.9923549 1.3063188 0
-7.1535759 1.7159343 -0.98865259 0
-6.5637951 3.2432837 1.2264011 0
5.9506063 -4.252677 1.2728446 0
-6.4149008 -3.7370372 -0.026118398 0
-7.1255827 1.8415688 -0.98608661 0
2.0285068 -7.0746789 -0.98982263 0
-6.4100523 -3.7353809 -0.32810974 0
-2.5951943 -6.5234699 2.4207528 0
5.9457479 -4.4478083 0.13915682 0
-2.050868 -7.0807652 0.90401733 0
-2.5708995 -6.5690565 2.3239233 0
5.9478054 -4.2665806 1.262254 0
5.9481535 -4.4459667 -0.17279071 0
-1.9378784 -7.1667423 0.27013123 0
5.9495869 -4.4510036 -0.053087234 0
-6.3955593 -3.7304296 -0.63034165 0
5.939518 -4.1281443 1.7061753 0
5.9366403 -4.4402275 0.52092981 0
5.9479632 -4.4457226 0.30629909 0
5.9422264 -4.1500435 1.6445076 0
5.9458299 -4.4478765 0.33026135 0
2.1153402 -7.056942 -0.98680902 0
-1.9771659 -7.1526947 -0.46239734 0
-6.4064293 -3.7341433 0.57602739 0
-6.2030344 3.2541673 2.5012114 0
-2.2702627 -6.8477736 1.812397 0
-2.0565038 -7.0841942 -0.97690523 0
-7.14116 -1.8431348 -0.98856616 0
-2.0466928 -7.0984125 0.89192748 0
5.9482994 -4.4499316 -0.44080353 0
5.9500289 -4.2918768 1.2509441 0
5.9566936 -4.4569187 -0.24738163 0
-2.0521445 -7.077157 1.0562744 0
5.9549227 -4.0107574 1.9662795 0
-6.2713795 -3.762682 1.3887877 0
-1.8842623 -7.1988492 0.29957831 0
-2.2080688 -6.9389057 1.5621119 0
-2.3884463 -6.7480254 2.0581207 0
-1.9733772 -7.1463785 -0.71872365 0
-2.4192362 -6.7177448 2.1216235 0
-7.116621 -1.9689517 -0.98683691 0
5.9506145 -4.4491248 0.54517615 0
2.2025387 -7.0487881 -0.98629856 0
5.9501295 -4.3507271 1.0898886 0
-2.0515661 -7.0838542 1.0730846 0
-2.4896812 -6.6297488 2.3237634 0
-5.801363 -3.8948147 2.5958433 0
-7.1212626 1.9694855 -0.98757696 0
-2.2199898 -6.9019203 1.7369754 0
5.9483285 -4.4499564 -0.63774025 0
2.2885332 -7.027719 -0.98308277 0
-7.0895653 -2.0941539 -0.98499 0
-6.5694323 3.2462745 1.3884823 0
-6.3979435 -3.7312441 0.87657917 0
5.9502077 -4.2523642 1.4652758 0
-2.1336775 -6.9864044 1.5102291 0
-1.9749148 -7.148942 0.80453455 0
5.9521742 -4.4511266 -0.65880919 0
5.9444847 -4.4412584 0.78389716 0
-2.2250786 -6.8870754 1.8170362 0
-2.7861629 -6.3620858 2.7304261 0
-1.9446535 -7.1816807 0.58155489 0
-6.022253 -3.8326643 2.1780436 0
5.948772 -4.450325 0.71244931 0
-1.8957095 -7.2185678 -0.20844448 0
-1.8972411 -7.2212057 0.045672536 0
-6.1911163 -3.7880356 1.7603722 0
-2.0399537 -7.0841017 1.2026284 0
5.9418597 -4.4378901 -0.90202248 0
5.9427919 -4.3447952 1.2809677 0
5.9577675 -4.2732239 1.4426904 0
5.9378309 -4.0000553 2.1429515 0
-2.3509927 -6.7850695 2.0713859 0
-6.4926167 3.2465942 1.7799201 0
-2.0505767 -7.0794783 1.2421265 0
-6.4077225 -3.734585 -0.93856382 0
-2.123168 -6.9967489 1.5624695 0
-7.1088934 2.0966575 -0.98807681 0
5.9442158 -4.5344706 0.17212999 0
-2.1928263 -6.9158039 1.8150029 0
-1.9737344 -7.1469741 -0.97895062 0
5.9457812 -3.9900014 2.1635213 0
-2.0499887 -7.0736775 1.3101671 0
-1.9391503 -7.1695471 0.89294696 0
-2.3843827 -6.73388 2.2238507 0
5.9466047 -4.5361652 -0.19823039 0
-2.5063162 -6.6177893 2.4294879 0
-7.0774565 -2.2211993 -0.98581755 0
-5.9866958 -3.8403604 2.3310041 0
5.9552946 -4.4557543 -0.83945513 0
-1.8707891 -7.2446303 0.21471226 0
5.9511771 -4.4523268 0.90466809 0
5.9467669 -4.5362802 0.35558248 0
5.9412894 -4.2453637 1.6578012 0
5.9538755 -4.5413213 -0.013725221 0
5.9463329 -4.5513592 -0.05853492 0
5.9506645 -4.1564741 1.8431096 0
-1.8375266 -7.2557011 0.26942468 0
-1.9018869 -7.2292085 -0.46579057 0
-2.2186475 -6.8966856 1.9048114 0
-6.285264 -3.7716563 1.5527456 0
5.9453564 -4.2649469 1.6217623 0
5.9478869 -4.552691 -0.254143 0
2.3775141 -7.0390019 -0.98765719 0
5.9558439 -4.2991228 1.4916854 0
5.9467463 -4.5517135 0.32907963 0
-2.0487151 -7.0712447 1.4110496 0
-6.3950329 -3.7302501 1.1781211 0
-7.0911026 2.2231658 -0.98800111 0
5.9521961 -4.5563831 0.1352272 0
-1.871748 -7.2495198 0.38734579 0
5.948956 -4.4469962 1.0243049 0
-6.5761929 3.249861 1.5515087 0
-1.9787233 -7.1552911 1.0587678 0
-1.8966062 -7.2201123 -0.72260141 0
-2.4198966 -6.7062559 2.3292212 0
5.9481125 -4.5372343 0.53865314 0
-1.9044716 -7.2336612 0.55252421 0
5.9466124 -4.1367302 1.9491096 0
-2.6932101 -6.4464393 2.7367611 0
-2.3259859 -6.8087888 2.1287031 0
5.944109 -4.5494537 0.52225959 0
5.94906 -4.5536962 -0.45149976 0
-1.8712769 -7.2471161 0.55999601 0
5.9375515 -4.594233 0.061364889 0
-5.938468 -3.8467906 2.5165558 0
-7.0682821 2.3488882 -0.98740864 0
5.947341 -4.3484726 1.4764805 0
5.9448338 -4.5500751 -0.64977825 0
2.4646764 -7.0299902 -0.98781693 0
5.9488506 -4.5377574 0.72142136 0
5.9435616 -4.5489845 0.71557689 0
-1.871088 -7.2461543 0.73212433 0
-1.8201561 -7.2958922 0.044276714 0
-7.0330496 2.4723756 -0.98510849 0
5.9571171 -4.4572711 1.0988491 0
-6.566184 3.2445514 1.7133827 0
-7.0765381 -2.350199 -0.9887327 0
-2.279387 -6.8611817 2.0764437 0
-1.9037943 -7.2324939 0.80641139 0
-5.7811341 -3.8995931 2.8243604 0
-7.0375757 -2.4731607 -0.98583603 0
-2.0476503 -7.0665345 1.5804677 0
-6.5342674 -3.6895552 0.57254779 0
-1.8450713 -7.2729902 0.58230448 0
-1.822485 -7.3000393 -0.21145773 0
5.9425101 -4.6007881 -0.42889845 0
-6.2854023 -3.7717454 1.7162755 0
2.5509562 -7.0140653 -0.98665726 0
5.9494987 -4.6100259 -0.18424731 0
-1.9410827 -7.1738081 1.2061234 0
-1.8965456 -7.2200079 -0.98355126 0
-6.5479307 -3.6978407 0.40524852 0
-2.1344857 -6.9880595 1.8249667 0
-2.0512218 -7.0756683 1.5669785 0
5.9464021 -4.2873573 1.7310183 0
5.9500618 -4.6107702 0.30399168 0
-2.0433421 -7.0912971 1.5170443 0
-2.1226373 -6.9959197 1.8206308 0
-1.824636 -7.3038702 0.29850245 0
-1.9766088 -7.1517658 1.3136642 0
5.9471602 -4.5520682 -0.85236764 0
5.9501171 -4.5386558 0.90403402 0
-6.2616234 -3.7563756 1.8767018 0
5.9491653 -4.2674875 1.8031983 0
5.9442701 -4.549592 0.90969718 0
-2.2199812 -6.9018865 2.0752687 0
-1.8977637 -7.222106 1.0602024 0
5.947423 -4.2501783 1.857785 0
-1.8246715 -7.3039331 -0.46905702 0
-6.536973 -3.6911957 0.73829663 0
5.9520197 -4.0089397 2.3269918 0
5.9554558 -4.4553375 1.2671008 0
-2.3473892 -6.7799339 2.3340273 0
-2.419148 -6.7175827 2.4399292 0
-2.6000013 -6.5317502 2.7437546 0
5.9414577 -4.6526833 -0.064029217 0
5.9497266 -4.6103277 0.54739857 0
5.9434257 -4.6019983 -0.6769191 0
-6.1928329 -3.7886496 2.0640562 0
-6.4871645 3.2450738 2.0865922 0
-2.1941128 -6.9177542 2.076334 0
-2.2276583 -6.89217 2.1343536 0
-7.0212097 2.5998702 -0.9868567 0
5.9571991 -4.4573393 1.2940373 0
-1.8433228 -7.2689829 0.8956666 0
-1.8738711 -7.2603455 0.90402126 0
-6.2004175 3.2527831 2.8337772 0
-7.0229931 -2.6002059 -0.98714411 0
2.6387868 -7.0094967 -0.98843336 0
-1.8277526 -7.3094201 0.55300856 0
-6.400835 -3.7322321 1.4824262 0
5.9488516 -4.3496938 1.674175 0
5.9465256 -4.536109 1.0865803 0
-1.8222888 -7.2996902 -0.72771013 0
-1.8185759 -7.2930784 0.80695403 0
5.953135 -4.6629825 0.13152456 0
5.9515386 -4.6615744 -0.26325297 0
-1.8724322 -7.2530079 1.0760803 0
-6.9913273 -2.7240493 -0.98598862 0
-6.5740709 3.2487352 1.8784599 0
2.7249093 -6.9929256 -0.98769987 0
5.9468794 -4.5518274 1.1053801 0
5.9485822 -4.1391139 2.1946213 0
-6.5466976 -3.6970925 0.90401363 0
-1.7403407 -7.3671913 -0.2131269 0
-1.7445321 -7.3652639 0.26830494 0
-6.9978161 2.7253671 -0.98703718 0
5.9523425 -4.6622834 -0.46317625 0
-6.6165524 -3.672951 -0.34351909 0
5.9504304 -4.6605973 0.52361584 0
-1.9728122 -7.1454363 1.5699496 0
-2.2670841 -6.8431034 2.3357191 0
5.9480991 -4.4458971 1.5091591 0
5.9605966 -4.6695633 0.32754755 0
-6.62854 -3.6768556 -0.03574121 0
-1.8970084 -7.2208052 1.3159974 0
-1.7459748 -7.3775697 0.042408705 0
5.9522605 -4.4532285 1.4901345 0
-6.5472622 3.2345135 2.0385807 0
5.9595523 -4.6233158 0.79194617 0
-1.7446158 -7.3750663 0.29808974 0
-1.8706241 -7.2437892 1.2478886 0
2.8108864 -6.9759512 -0.98715866 0
-1.8209004 -7.2972178 -0.98929334 0
5.9468555 -4.5363431 1.2693439 0
-2.0529256 -7.0898666 1.7537603 0
-1.742173 -7.3705664 -0.47132289 0
-6.632761 -3.6782303 0.27193379 0
5.9517708 -4.6617794 -0.66504204 0
-1.7405159 -7.3675141 0.55316019 0
5.9540081 -4.2707171 1.9860132 0
5.9544868 -4.6166201 -0.93107402 0
5.9461708 -4.6056271 1.0351646 0
-2.2204752 -6.9038129 2.2466497 0
-2.322413 -6.8019767 2.4466043 0
-5.9931293 -3.8427658 2.6388657 0
-2.5070229 -6.6190476 2.751714 0
-6.5471678 -3.6973774 1.070008 0
-2.0538311 -7.0798802 1.8273187 0
-6.2725487 -3.7634377 2.0436532 0
-6.9711027 2.8502002 -0.9869709 0
5.9531903 -4.6630311 0.71987915 0
-1.7219262 -7.333271 -0.98612857 0
-1.9458582 -7.1843367 1.5223923 0
-6.6249971 -3.6757016 0.57932365 0
-2.0409327 -7.0861807 1.8325706 0
5.952188 -4.2945671 1.978179 0
-6.9772034 -2.8515303 -0.98795986 0
-1.8461487 -7.2754593 1.2108727 0
5.9483838 -4.5531163 1.3027587 0
-2.1240053 -6.9980583 2.0830646 0
-1.8254528 -7.3053241 1.0633879 0
5.938899 -4.4421077 1.6859303 0
-2.04809 -7.0684791 1.9226699 0
-6.6275024 -3.6765175 -0.65526223 0
-1.7512009 -7.3811626 0.58339584 0
2.8980055 -6.965188 -0.98836517 0
5.9511023 -4.6611896 -0.86958349 0
5.9552493 -4.3548656 1.8769038 0
-6.5410891 -3.6936915 1.2358513 0
-6.9391165 2.973819 -0.98633695 0
5.9433146 -4.5338316 1.4521914 0
-1.741385 -7.3691149 0.80848706 0
-1.8898265 -7.2084341 1.5718627 0
5.9434142 -4.7626581 -0.070572734 0
5.9534192 -4.6632333 0.91682446 0
-1.7467868 -7.3790655 -0.73293531 0
5.941546 -4.7609625 -0.27047628 0
5.9432716 -4.7701392 0.053793907 0
-1.7443032 -7.3647184 0.89823794 0
-6.9470301 -2.9756637 -0.98762405 0
5.9468007 -4.7657323 0.1281811 0
-1.8139439 -7.2848296 1.3177667 0
-6.6205816 -3.6742632 0.88670242 0
5.9435434 -4.7705097 -0.19519401 0
-6.6117573 -3.6713891 -0.96605122 0
-1.6303194 -7.3824143 -0.98617268 0
-2.1396008 -6.998529 2.1452415 0
5.9466114 -4.7655606 0.32661211 0
2.9844651 -6.9504099 -0.98892212 0
-6.4068384 -3.7342827 1.7898154 0
5.940578 -4.7664704 -0.44506842 0
-1.6871171 -7.4309821 0.37716436 0
5.9443302 -4.2642627 2.1674309 0
5.9459925 -4.7738452 0.30175173 0
-1.6620426 -7.4428988 0.29772377 0
-6.1882887 -3.7870245 2.3704844 0
-6.1112604 -3.7998073 2.5448649 0
5.9453235 -4.6560926 1.1136353 0
-1.9719181 -7.1439457 1.8296642 0
-6.9075098 3.097441 -0.98605108 0
-6.5351849 -3.6901112 1.4017377 0
-1.6891181 -7.4430003 0.19951606 0
5.9498405 -4.6104779 1.2817903 0
5.347599 -5.3619971 -0.98715734 0
-2.200604 -6.9275923 2.3446095 0
5.953321 -4.4525976 1.7570467 0
-6.9124365 -3.0986638 -0.98685503 0
-6.4868069 3.2449739 2.3982787 0
-1.6685572 -7.4553189 0.040724039 0
5.94835 -4.5530872 1.5020781 0
-1.6872606 -7.4318423 0.55306125 0
-1.668021 -7.4542971 -0.2168715 0
5.9379072 -4.811234 -0.03083545 0
-1.8760943 -7.2716813 1.4222782 0
-1.8696675 -7.2389112 1.5927887 0
5.9517779 -4.7702503 0.52490962 0
5.943357 -4.7626061 -0.6768924 0
-1.5368993 -7.4280381 -0.98573649 0
-1.7429755 -7.372045 1.0650101 0
-5.9558449 -3.8576415 2.8578689 0
-2.2285256 -6.8938837 2.4555352 0
-6.2796154 -3.7680049 2.2116296 0
-1.6667171 -7.4518108 -0.47576189 0
3.0715165 -6.9378977 -0.99030888 0
3.1533296 -6.9024458 -0.98655307 0
5.9508266 -4.7804289 0.54979074 0
-1.6659045 -7.4502616 0.55382133 0
5.960783 -4.7784252 -0.476439 0
5.9446125 -4.771966 -0.69861686 0
5.9468031 -4.5363059 1.6362379 0
-1.6874497 -7.4329791 0.72861135 0
-2.0492487 -7.0736036 2.0961335 0
5.9486771 -4.7674356 0.7233516 0
5.9458981 -4.2867289 2.2248383 0
5.4357724 -5.306726 -0.98647094 0
-2.4213572 -6.7216516 2.7646861 0
-2.0537586 -7.0797629 2.0903902 0
5.9519701 -4.8218255 -0.22253144 0
5.947155 -4.4489794 1.891221 0
-6.5787687 3.2512274 2.2109511 0
-1.6513731 -7.4794025 0.26708055 0
-1.6857524 -7.4227848 0.90402484 0
5.9500265 -4.8203616 0.34367788 0
-6.8847933 3.2233784 -0.98750925 0
-6.8853903 -3.223536 -0.98760712 0
5.9427662 -4.8148937 0.53122544 0
5.9562635 -4.8250594 0.15521455 0
5.9478769 -4.6583447 1.313633 0
-6.6232653 -3.6751373 1.1955366 0
-6.4632893 3.2426426 2.5532944 0
3.2386093 -6.8825812 -0.98677313 0
-1.8504789 -7.2853813 1.5289671 0
-1.662976 -7.4446778 0.8100462 0
5.9499354 -4.7792149 0.79819608 0
-1.7478666 -7.3732128 1.2153528 0
-1.6691301 -7.4564118 -0.73795259 0
-6.8398037 -3.3434062 -0.98560703 0
-6.9539728 3.2416062 0.26870573 0
5.9479718 -4.6080074 1.5295124 0
-6.9595661 3.2430799 -0.04596889 0
-2.3114395 -6.7810545 2.7648625 0
-1.9512715 -7.1962719 1.8424406 0
-6.5478039 -3.6977634 1.5698667 0
-1.6522667 -7.4816217 0.5843612 0
5.9443798 -4.441124 2.0036011 0
5.9511452 -4.5554829 1.7049792 0
5.9431539 -4.8735147 -0.077126265 0
5.9578919 -4.7758007 -0.88839638 0
5.9382381 -4.5302315 1.8195579 0
-2.127522 -7.0035577 2.3510122 0
5.9409194 -4.8714271 0.32543325 0
5.9419818 -4.7683825 1.0463631 0
5.9493618 -4.7784343 -0.95569897 0
-6.950161 3.2406018 0.58262539 0
-6.9637098 3.2441716 -0.36207092 0
-1.8985825 -7.2235169 1.8357396 0
-1.5839493 -7.5209541 0.29713714 0
-1.5859036 -7.5248132 -0.219064 0
-1.7446272 -7.3750877 1.3233545 0
3.3251605 -6.8672976 -0.98837984 0
-2.046175 -7.097312 2.1547003 0
5.5289145 -5.2597585 -0.98795497 0
-1.4522605 -7.491539 -0.98946106 0
5.9374704 -4.810905 0.90403831 0
-1.8262875 -7.3068109 1.5804033 0
-1.5885561 -7.5300512 0.039163351 0
5.9551668 -4.2714891 2.3543448 0
5.9625597 -4.7800379 0.92423487 0
-1.8727603 -7.2546806 1.7682679 0
5.9498768 -4.8797956 -0.28111309 0
5.9448075 -4.6556377 1.514637 0
-1.6471601 -7.4689417 0.90135431 0
5.9549222 -4.8845086 0.12365115 0
5.9600754 -4.82793 0.71722901 0
-1.6887746 -7.440937 1.0796273 0
-2.0495009 -7.074719 2.270401 0
3.409225 -6.8424201 -0.98798788 0
-2.1334271 -6.9858918 2.4647763 0
5.9513617 -4.7698727 1.1235039 0
-1.9763355 -7.1513104 2.0951903 0
-1.5888536 -7.5306392 -0.47998554 0
-1.5866315 -7.5262504 0.55436647 0
-6.4113035 -3.7358084 2.100754 0
5.9502168 -4.8801131 0.52618873 0
-6.5445566 -3.6957943 1.7372475 0
-6.8184309 -3.4700541 -0.98787892 0
-1.3557618 -7.5311923 -0.98829806 0
-6.7623491 -3.586401 -0.98470557 0
5.6157341 -5.2022958 -0.98734665 0
-1.6710868 -7.4601421 1.0688488 0
-6.9714622 3.2462144 -0.68086874 0
-6.8158913 -3.614738 0.39203238 0
3.4936447 -6.8188405 -0.98819637 0
5.9606771 -4.8898849 -0.48838574 0
-1.6876192 -7.4339976 1.2550917 0
5.9444332 -4.6033301 1.7792349 0
-1.5835981 -7.5202603 0.81166136 0
5.9494853 -4.8794298 0.72735882 0
-6.9582272 3.2427273 0.89729619 0
-2.0483775 -7.0710764 2.3550272 0
-1.8461471 -7.2754555 1.8471305 0
5.946207 -4.8174853 1.0904448 0
5.9489007 -4.5535598 1.9096594 0
5.9441829 -4.7713809 1.2972164 0
-1.2575738 -7.5667582 -0.98656595 0
-1.5896535 -7.5322185 -0.74285829 0
5.9558539 -4.8853793 -0.69484615 0
-6.18855 -3.787118 2.6829212 0
-7.0138845 3.2442875 0.39194131 0
3.5767064 -6.7907882 -0.98761523 0
-1.8723855 -7.2527709 1.9429226 0
-1.5497038 -7.5771532 0.26614439 0
-6.6398029 -3.6805241 1.5082507 0
-6.8456144 -3.6122096 -0.045557261 0
-1.9419093 -7.1756306 2.1600161 0
-6.8222837 -3.6183679 0.56266069 0
5.9465723 -4.5361419 2.0063014 0
5.9449987 -4.6558065 1.7191048 0
-1.7532778 -7.3861141 1.5356431 0
5.9550624 -4.773232 1.3266151 0
5.9469848 -4.8770938 0.92898488 0
5.7046218 -5.1481428 -0.98778653 0
5.9514976 -4.9567246 -0.20880288 0
-7.0147476 3.2447143 0.56289744 0
-1.7481339 -7.3815465 1.5847824 0
5.9512477 -4.8810759 -0.90373278 0
5.9542594 -4.9606013 0.045368195 0
5.9419909 -4.8143101 1.2768073 0
-1.6682868 -7.4548039 1.3275766 0
-6.4965506 3.2476909 2.7178159 0
-6.8208237 -3.6175387 0.73347139 0
-1.8979964 -7.222507 2.1001542 0
-6.548296 -3.6980617 1.9065132 0
-1.8291736 -7.3119502 1.8439775 0
-1.5093293 -7.6083593 -0.2226249 0
5.7837887 -5.0793295 -0.98509669 0
-1.5512705 -7.5812092 0.58533144 0
5.9571404 -4.9646454 0.29893911 0
-1.6883516 -7.4383965 1.4314139 0
-1.5086927 -7.6070561 0.29637647 0
5.9528365 -4.9586043 -0.46506631 0
-1.6536167 -7.4849739 1.2212615 0
3.6626797 -6.7717395 -0.98950839 0
5.9487543 -4.4467378 2.2589431 0
5.9459968 -4.9903517 -0.084338427 0
-6.860342 -3.6167746 -0.36235785 0
-6.8644047 -3.6180336 0.26839852 0
5.9407802 -4.8712969 1.1309843 0
-7.016777 3.2457173 0.73349798 0
5.9476271 -4.9919186 0.12005639 0
5.9444861 -4.9888992 -0.28984785 0
5.9524431 -4.9580522 0.55231953 0
-1.5141804 -7.6182895 0.03675878 0
-2.0361333 -7.0759888 2.4738159 0
-1.5075343 -7.6046848 -0.48367906 0
-2.2316937 -6.9001393 2.7834368 0
-6.2945614 -3.7548773 2.5759299 0
5.9389634 -4.9835896 0.52728856 0
5.9488091 -4.9930553 0.32387292 0
-1.5901642 -7.533227 1.0712891 0
-6.9601221 3.2432265 1.2131462 0
-6.8221569 -3.6182954 0.90401924 0
-6.8587589 -3.6162837 0.58289826 0
-6.8516369 -3.6140761 -0.67916811 0
-1.8708181 -7.2447777 2.1176138 0
-1.5460865 -7.5677862 0.90422964 0
-1.9713907 -7.1430669 2.3607605 0
3.7458172 -6.7437134 -0.98951781 0
-1.1699288 -7.6258993 -0.99014366 0
-6.132432 -3.8126099 2.891865 0
-1.4964423 -7.6311545 0.18484974 0
-7.0129223 3.2438118 0.904019 0
5.9452577 -4.7728443 1.5501895 0
5.9534206 -4.7717419 1.5309343 0
-1.4959979 -7.6279135 0.36555648 0
3.9023218 -6.6615486 -0.98396957 0
-1.5129461 -7.6157632 0.55519259 0
5.9548993 -4.9614997 -0.72389615 0
5.9427166 -4.8148561 1.4637616 0
5.9524703 -4.9580903 0.80587006 0
-1.4955318 -7.6245155 0.54553163 0
-1.6876044 -7.433907 1.6076775 0
5.9437294 -4.9881716 -0.70688021 0
3.8282952 -6.7138071 -0.98935723 0
-1.7404141 -7.3673267 1.8450608 0
-7.0057383 3.2402611 1.0742536 0
-1.0696044 -7.6562295 -0.98789203 0
-1.5099151 -7.6095581 -0.74820137 0
-1.6644182 -7.4474282 1.5877457 0
5.9449587 -4.9893537 0.73114955 0
-1.7461679 -7.3691635 1.8545465 0
5.9454041 -4.9481721 -0.98198271 0
-1.5094352 -7.6085758 0.81407452 0
-0.96579075 -7.6770649 -0.98396564 0
-6.6327362 -3.6782224 1.8209457 0
5.9520845 -4.540051 2.1941795 0
-6.8553314 -3.6152215 0.89749026 0
-6.4745169 3.2483785 2.8983974 0
-6.548852 -3.6983993 2.0764828 0
5.9634943 -5.0071735 -0.50148845 0
5.8796711 -5.0353622 -0.98851717 0
-6.8291016 -3.6222389 1.074789 0
-6.9935789 3.2342515 1.244041 0
-1.495738 -7.626018 0.72484243 0
5.9464211 -4.8765669 1.3366957 0
5.9546061 -4.6642799 1.9302778 0
-1.8437629 -7.2699919 2.169019 0
-1.8196251 -7.2949467 2.1057057 0
5.9565339 -4.6193261 2.0379426 0
-1.5881901 -7.5293283 1.3312049 0
-6.4173031 -3.7378578 2.4166486 0
-1.6503289 -7.4768105 1.5411372 0
-1.4257202 -7.6797519 -0.22509295 0
3.990252 -6.6463099 -0.98800123 0
5.934866 -4.8089433 1.6503654 0
-2.1322856 -6.9835553 2.7915866 0
-1.4287386 -7.686162 0.035488248 0
-1.5453143 -7.5657864 1.2243619 0
5.9467134 -4.9910407 0.93582535 0
5.9534431 -4.959456 1.0604963 0
5.9494152 -4.993638 -0.92130196 0
-1.5059259 -7.6013923 1.0733464 0
-1.4504311 -7.6858854 0.26498175 0
-1.496067 -7.6284194 0.90402985 0
5.9546013 -4.7728138 1.7387702 0
-6.8267498 -3.620904 1.2456181 0
4.0712996 -6.6129665 -0.98785067 0
-1.687501 -7.4332862 1.7849557 0
-1.4312856 -7.6915703 0.29563069 0
-6.9598417 3.2431524 1.5307932 0
-1.4463961 -7.6749744 0.58621514 0
-1.872014 -7.250875 2.2959723 0
-1.4943662 -7.6160159 1.0829821 0
4.1501436 -6.5744758 -0.98669708 0
5.945116 -5.1068478 -0.091399491 0
-1.900177 -7.2262635 2.3702612 0
