# .PCD v0.7 - Point Cloud Data file format
VERSION 0.7
FIELDS x y z intensity
SIZE 4 4 4 4
TYPE F F F F
COUNT 1 1 1 1
WIDTH 1425
HEIGHT 1
VIEWPOINT 0 0 0 1 0 0 0
POINTS 1425
DATA ascii
-5.6725521 7.9782639 1.6802225 0
9.52701 2.8180101 -0.027505398 0
8.8795118 -3.8057387 2.3204076 0
-5.6573243 8.1676722 -0.11606872 0
1.3940558 -9.8214817 0.58067203 0
-5.584096 -8.0695877 1.5729985 0
9.5255356 2.822742 0.28598464 0
1.1389531 -9.8274508 -0.98360348 0
9.3136444 2.8867786 1.9445992 0
9.5182381 2.8209858 -0.55618119 0
0.88047826 9.8543978 -0.9912231 0
-5.6614089 8.1716557 0.24515748 0
1.0448141 9.8488779 0.90409446 0
1.3939006 -9.8254232 -0.66490793 0
9.5355663 2.8221519 0.27458835 0
9.5229836 2.8221278 0.56536949 0
9.3587894 2.8720615 1.7752442 0
9.1425772 -3.74417 1.1923265 0
9.538167 2.8257816 -0.27572107 0
-5.6648483 7.5789609 3.0894032 0
-5.5924373 -7.7996073 2.6451259 0
-5.5804343 -7.8909616 2.3870654 0
9.5419617 2.8252482 -0.33232683 0
1.2664323 -9.8284302 -0.98253083 0
9.5349808 2.8218687 0.57680023 0
9.5335073 2.8211555 -0.63698721 0
8.9733009 -3.7832444 2.1054296 0
9.0789127 -3.752795 1.6694489 0
1.3941123 -9.8200464 -0.98026419 0
1.0079144 9.866951 -0.99140024 0
9.5234184 2.8222325 0.84507275 0
9.2597141 -3.6992562 0.0062634945 0
-5.667748 7.889432 2.2526922 0
1.393544 -9.8344803 0.89167595 0
-5.5824003 -8.0669231 1.7968075 0
9.5286636 2.8234947 -0.84256399 0
9.1272182 -3.7344258 1.4993763 0
1.0459552 9.8563967 1.1361697 0
-5.6788259 8.1886415 -0.48134714 0
-5.6738682 8.1838064 0.60654616 0
8.8089342 -3.8214815 2.7101705 0
9.5307293 2.8198106 0.8791219 0
9.5740824 2.801872 -0.31264246 0
9.2930756 2.8815162 2.2248161 0
9.2652931 -3.7012968 0.28589773 0
8.8945837 -3.8003118 2.4884479 0
-5.6726093 8.2087107 0.45086753 0
8.8744946 -3.8036919 2.559495 0
-5.6702604 7.6396704 3.0452595 0
-5.5948887 -8.1067801 1.6842847 0
9.5908232 2.8065512 -0.069326758 0
-5.6657557 8.1758947 0.96808577 0
-5.6803799 8.2209234 0.22263074 0
9.1798563 2.9164741 2.6715279 0
1.0444474 9.8464622 1.3680282 0
-5.6601963 7.7680941 2.7493322 0
1.4823034 -9.4727068 2.8327227 0
9.5942631 2.8075128 0.17470682 0
-5.671113 7.9769006 2.043642 0
9.2819614 -3.7073941 -0.2765727 0
9.2712584 -3.7034791 -0.55849397 0
-5.6716652 8.2072268 0.67764115 0
-5.6793332 8.1891356 -0.84736776 0
-5.5789232 -8.2985992 0.24462271 0
9.2556896 -3.6977847 0.84491181 0
-5.5819526 -8.3016396 -0.11819857 0
9.5494747 2.8288851 -0.94790995 0
1.3935646 -9.8339577 1.2035468 0
-5.5945373 -7.5519361 3.434948 0
9.5827961 2.8043077 0.66160202 0
-5.5760694 -8.2957354 -0.48154587 0
9.2978172 -3.6923716 0.27092886 0
9.5347824 2.8249671 1.1268163 0
9.2792997 -3.7064202 0.56576252 0
9.2612419 -3.6998155 -0.84215975 0
9.5974159 2.8083942 0.4181273 0
9.5911036 2.8066297 -0.56140077 0
9.3025265 -3.6952655 -0.039280415 0
9.3627405 2.8740442 2.0828128 0
9.286768 -3.685581 -0.66141689 0
-5.5774136 -8.2970848 0.60673988 0
9.5371389 2.8229134 1.1832581 0
-5.5838423 -8.06919 2.0221281 0
9.3063622 -3.6976221 -0.35092419 0
9.2987022 -3.6929152 0.58048916 0
9.0850983 -3.7551582 1.9534011 0
9.5884895 2.8058991 -0.80926681 0
-5.6003094 -7.7129436 3.100729 0
-5.6763735 8.2146273 0.90408802 0
9.1304302 -3.7364638 1.8112779 0
1.3941584 -9.8188782 1.5155036 0
1.0451292 9.8509531 1.6009431 0
-5.6662464 8.1763735 1.3312097 0
-5.5726151 -7.8835516 2.752754 0
9.5300922 2.8238385 1.4090781 0
-5.6724968 8.2085333 1.1305707 0
1.3532407 -9.9482126 0.19700313 0
8.9798336 -3.7875211 2.4225409 0
9.6000719 2.8091364 0.90410793 0
9.268465 -3.7024572 1.1267152 0
-5.5784464 -8.0412178 2.2622154 0
-5.5835724 -8.0957441 2.0466924 0
9.2993774 -3.6933305 0.8904866 0
-5.5863996 -8.3061028 -0.84935653 0
9.5303679 2.8196356 1.4879589 0
9.3547945 -3.6752133 0.1717906 0
-5.5845704 -8.3042669 0.96979284 0
9.344512 -3.6713593 -0.56618083 0
9.3016348 -3.6947172 -0.97937691 0
9.3605518 -3.6773717 -0.074127674 0
-5.6657896 8.1979923 1.3567171 0
9.590416 2.8064375 1.1467977 0
8.8808479 -3.8062837 2.8024802 0
1.3558108 -9.9623909 0.43245661 0
-5.5822201 -8.0666399 2.2480011 0
1.0435473 9.8405313 1.833421 0
1.3536142 -9.9502735 0.66869187 0
9.3634987 -3.6784763 -0.32105315 0
1.3578393 -9.9735823 -0.042297542 0
9.3097267 2.8857765 2.5183873 0
-5.6636519 7.8845463 2.6666715 0
9.364871 -3.6789904 0.41583669 0
-5.5901828 -7.7969179 3.0609326 0
9.3522282 2.8687687 2.3911605 0
9.3544044 -3.6750674 0.66036499 0
9.2949543 -3.6906116 1.2011526 0
-5.6673203 7.9733057 2.4103341 0
0.99493945 10.024258 0.2667706 0
-5.5747857 -8.2944469 1.3327866 0
9.0866432 -3.7557485 2.2405539 0
1.3941672 -9.8186522 1.8314428 0
9.3570299 -3.6760514 -0.81750023 0
0.99343181 10.042536 -0.052437186 0
1.3553133 -9.9596472 0.90409899 0
9.5402784 2.8262897 1.6958561 0
9.5962992 2.8080819 1.3900356 0
9.2837238 -3.7080386 1.4115236 0
9.3600502 -3.6771836 0.90410912 0
-5.6693487 8.2035847 1.5841105 0
9.5301609 2.8195353 1.7959113 0
0.99447298 10.049417 0.23326015 0
0.99313343 10.046153 -0.37281162 0
0.99550366 10.034279 0.61787486 0
-5.6745362 8.1844578 1.6979451 0
9.1399469 -3.7425015 2.1283677 0
-5.6627831 7.7704763 3.1234856 0
0.99324691 10.044777 0.58498871 0
1.482304 -9.472681 3.2193203 0
9.2945137 -3.6903412 1.5139332 0
9.7218628 2.7723458 -0.34455562 0
9.7244978 2.7735751 0.27197373 0
0.99320507 10.045285 -0.6948514 0
9.264286 -3.7009284 1.6940727 0
9.7312527 2.7767267 -0.036244392 0
1.0451111 9.8508348 2.0688713 0
-5.6668916 7.635767 3.4646196 0
-5.6613894 8.1910744 1.8105509 0
9.4437027 -3.642241 -0.0018094778 0
8.9778786 -3.7862418 2.7426386 0
9.3607426 -3.6774433 1.148011 0
-5.5857525 -8.0721922 2.4767957 0
9.4086895 -3.6106727 -0.98699832 0
-5.6679916 8.3879881 0.24242008 0
9.7181721 2.7706237 -0.6548028 0
1.3572853 -9.9705257 1.1399856 0
9.7228813 2.7728212 0.57939506 0
0.99372685 10.038959 0.90364897 0
9.524354 2.8224576 1.9813395 0
0.99537754 10.036131 1.0027909 0
9.6009636 2.8093855 1.6339984 0
-5.6774654 8.3974962 -0.12529033 0
-5.5914087 -8.1033869 2.4172211 0
-5.6705117 8.3905172 -0.49325198 0
9.4482517 -3.6438315 -0.5764904 0
-5.6694107 8.3894119 0.60901499 0
9.0785065 -3.7526395 2.5297132 0
9.4614239 -3.6484368 0.28298497 0
9.467165 -3.6454642 -0.045313358 0
9.7630863 2.7588873 -0.0051520467 0
9.4724531 -3.5000832 -0.98686612 0
9.4659109 -3.6447179 0.26884854 0
1.3561207 -9.9641008 1.3758237 0
9.4663858 -3.650172 -0.29007947 0
9.3533802 2.8693464 2.7071891 0
9.7263393 2.7744339 0.8873601 0
1.3939229 -9.8248558 2.1521316 0
0.99428546 10.032187 1.2229855 0
9.4710217 -3.6477587 -0.36099428 0
-5.5881023 -8.3078117 1.7010527 0
9.7225647 2.7726734 -0.96884906 0
9.3649073 -3.6790042 1.392385 0
9.4629402 -3.648967 0.56844306 0
9.7738495 2.7613151 0.28200674 0
-5.586935 -8.0516424 2.6822114 0
9.7744217 2.7614441 -0.29457372 0
-5.6672907 8.177392 2.0652137 0
9.7682781 2.7600586 -0.58438337 0
9.5352192 -3.3889358 -0.98684216 0
9.4534044 -3.6456332 0.85374808 0
9.4522858 -3.6452417 -0.86773992 0
-5.6667528 7.9727678 2.782697 0
9.7712688 2.7607331 0.56934702 0
9.2638006 -3.7007513 1.9822345 0
1.0451748 9.8512545 2.304688 0
-5.6690688 8.3890686 0.97606683 0
9.5417643 2.8251526 2.1098237 0
9.4769011 -3.6512568 0.58277452 0
9.3008556 -3.6942384 1.830632 0
9.1401711 -3.7426441 2.4480433 0
-5.5946441 -7.904429 3.1346474 0
-5.6812162 8.4012594 -0.86585045 0
-5.5844917 -8.0702114 2.7059731 0
9.4643002 -3.64376 0.8965385 0
9.4799232 -3.653055 -0.6796453 0
9.6045971 2.8104012 1.8788831 0
9.7649727 2.7593131 -0.87670803 0
1.3563055 -9.9651203 1.6123991 0
-5.581183 -8.3122206 1.8755865 0
-5.586061 -8.5194063 -0.12649155 0
9.5971508 -3.2773149 -0.98695564 0
-5.585463 -8.5187883 0.24180067 0
9.3610106 -3.6775434 1.6368947 0
9.5238781 2.8223431 2.2732415 0
0.99455559 10.048202 1.3901443 0
-5.5773368 -8.510397 0.60939527 0
9.7763176 2.7618718 0.85726273 0
-5.6785231 8.2180061 2.0427527 0
-5.5838809 -8.5171547 -0.49584496 0
-5.6696715 7.8917255 3.0894961 0
9.7418375 2.7816648 1.1978838 0
9.4590836 -3.6476185 1.1408024 0
-5.677772 8.1631899 2.2871289 0
0.99371386 10.039118 1.5454912 0
9.6537533 -3.1628697 -0.98640323 0
-5.5923553 -7.799509 3.4850979 0
1.3945885 -9.8079567 2.4723022 0
1.3541933 -9.9534683 1.848592 0
-5.5811219 -8.300806 2.0692592 0
-5.670145 8.3901491 1.3446064 0
9.2520657 -3.6964586 2.2715325 0
9.7198343 2.7713993 1.5064278 0
-5.584095 -8.5173759 -0.86766517 0
9.7748051 2.7615309 1.146008 0
1.3068691 -10.135559 0.23205113 0
0.99665523 10.017365 1.7754388 0
9.3530769 -3.6745698 1.8816056 0
-5.6677389 8.2010555 2.2703998 0
-5.5793667 -8.5124931 0.97738707 0
9.4764833 -3.6510088 1.2129502 0
9.1197033 -3.7296584 2.7663677 0
-5.5925398 -8.1044893 2.7914221 0
1.0464649 9.8597546 2.5434167 0
9.301115 -3.6943977 2.1499887 0
9.6106672 2.812098 2.1253066 0
9.7216988 -3.0542004 -0.9881562 0
1.3067753 -10.137942 0.61939037 0
9.7598267 2.758152 1.4347193 0
9.4660282 -3.6500468 1.4302025 0
9.7679272 -2.9346373 -0.98635042 0
9.5491619 2.8287339 2.4278545 0
-5.6745424 8.1844635 2.4397933 0
-5.5813437 -8.600462 0.20367265 0
-5.5783396 -8.5954266 0.43784189 0
9.5223789 2.8219821 2.569572 0
9.8164177 -2.8164601 -0.98525202 0
0.99341369 10.042756 1.8707395 0
-5.5760193 -8.5915375 0.67120028 0
9.5886784 2.8059518 2.3692737 0
-5.582098 -8.5153131 1.3470206 0
1.356537 -9.9663973 2.0881829 0
9.3544769 -3.6750944 2.1281531 0
9.479351 -3.6527145 1.5309634 0
-5.5829506 -8.0467491 3.1043329 0
-5.5723057 -8.5853138 0.90409541 0
9.7297039 2.7760036 1.8214965 0
9.4580002 -3.6472402 1.7200987 0
9.8728523 -2.7020407 -0.9858346 0
-5.6719666 8.2077007 2.5032015 0
9.9144554 2.7207308 -0.35799623 0
-5.5906119 -8.3241434 2.2983711 0
-5.6820564 8.4021034 1.7173965 0
-5.6723051 7.9780297 3.1633167 0
9.9203739 2.7233891 -0.044092596 0
9.9175758 2.7221324 0.26928318 0
1.0449898 9.8500357 2.78091 0
-5.6678877 8.1510525 2.7071314 0
9.7645245 2.759212 1.728035 0
9.6412258 -3.5972564 0.266626 0
9.630064 -3.5908291 0.58454907 0
9.8840504 2.7070713 -0.9877789 0
9.647193 -3.6006916 -0.05227077 0
9.6442013 -3.5989697 -0.37191433 0
1.3055944 -10.16793 1.0088167 0
-5.5852275 -8.3049269 2.4439199 0
9.914114 2.7205772 -0.67411983 0
9.6532993 -3.589097 -0.30382717 0
1.3942393 -9.8168221 2.8033955 0
9.2979317 -3.6924417 2.4727988 0
-5.6698179 8.6059055 -0.13280165 0
9.6358633 -3.5941684 -0.69251752 0
9.9319019 2.5886083 -0.9871484 0
9.2723503 -3.7038782 2.5737891 0
9.9281616 2.7268879 0.58231926 0
9.4675722 -3.6457064 1.8492503 0
9.9333076 -2.589216 -0.987391 0
9.6540108 -3.5893342 0.57126272 0
9.5353374 2.8220413 2.7453158 0
9.6719875 -3.5953321 -0.012336493 0
9.6688509 -3.5942857 0.27986419 0
-5.6635103 8.4163265 1.8918831 0
-5.5837698 -8.6045284 1.1373439 0
1.356058 -9.9637556 2.3274703 0
-5.6800203 8.6164417 0.23942804 0
0.99490941 10.043006 2.1708496 0
-5.6699405 8.6060314 0.61171889 0
9.3526278 -3.6744013 2.3756285 0
9.6381016 -3.5954568 0.90312076 0
0.99347019 10.042071 2.1990185 0
1.3062398 -10.15154 1.3977101 0
9.9242496 2.7251308 0.89571524 0
9.5912142 2.8066607 2.6179633 0
9.9829159 -2.4715543 -0.98735571 0
-5.5883036 -8.5217218 1.7198081 0
9.9877224 2.4735503 -0.98818004 0
-5.5876474 -8.0997181 3.1695623 0
9.6738176 -3.5959427 -0.60079896 0
-5.6840563 8.6206093 -0.50844389 0
-5.6729121 7.8955908 3.5186944 0
9.6560135 -3.5900028 -0.89544713 0
-5.6700077 8.2046223 2.7359886 0
-5.5810461 -8.5999632 1.3705971 0
-5.6732635 8.3932791 2.0899351 0
9.4669657 -3.6503747 2.0161214 0
9.6669254 -3.5936434 0.86345673 0
10.033691 -2.3543365 -0.98780763 0
9.9166336 2.7217093 1.209605 0
9.7414589 2.7814879 2.1412392 0
-5.6737075 8.6099224 0.98449457 0
10.038581 2.3562851 -0.98864126 0
-5.6840348 8.1937218 2.8209276 0
-5.684032 8.6205845 -0.88530505 0
9.6431665 -3.5983737 1.2232099 0
9.4593916 -3.6408393 2.1709287 0
10.075545 -2.2335939 -0.98702967 0
9.785038 2.7638388 2.0281029 0
-5.5857148 -8.7390928 -0.13480741 0
-5.5784903 -8.7314138 -0.50907922 0
10.083971 2.2368135 -0.98845828 0
1.3557472 -9.9620409 2.5683584 0
9.3443518 -3.6712992 2.6235085 0
10.022618 2.693294 -0.017709255 0
-5.5832443 -8.314827 2.7216623 0
-5.5901594 -8.7438164 0.23890281 0
1.3064384 -10.146496 1.7892323 0
-5.6634426 8.5993214 1.3572512 0
10.027037 2.6942246 -0.314915 0
9.6762009 -3.5967379 1.1573391 0
10.124242 -2.1154764 -0.98770189 0
9.29916 -3.6931965 2.801981 0
9.4531116 -3.6455309 2.3112776 0
-5.5801592 -8.5133114 2.0931644 0
0.99426126 10.032479 2.5296731 0
10.035144 2.6959314 0.27779353 0
-5.5901432 -8.6152105 1.6057236 0
-5.5896654 -8.7432909 0.61248457 0
10.155302 1.9910364 -0.98569608 0
10.12956 2.1174219 -0.98859882 0
10.02534 2.6938672 -0.6134913 0
9.5957069 2.8079164 2.8690693 0
10.030598 2.6949742 0.57352531 0
9.758604 2.7578764 2.3226399 0
10.16286 -1.9936788 -0.98696423 0
-5.5825667 -8.7357464 -0.8869313 0
9.7240124 2.7733488 2.4588253 0
9.6418247 -3.5976012 1.5447621 0
-5.5908856 -8.310605 2.8246186 0
9.9291725 2.7273424 1.5275469 0
-5.5830054 -8.0468168 3.5345864 0
-5.66991 8.1535358 3.136127 0
-5.5854678 -8.7388306 0.98618841 0
0.99455452 10.048219 2.5684834 0
-5.5812559 -8.5898237 1.9024792 0
9.6739845 -3.5959983 1.4522204 0
10.20605 -1.8735192 -0.98728514 0
-5.6710901 8.3910971 2.4675655 0
10.20861 1.8743732 -0.9877125 0
-5.5864372 -8.6089983 1.8401113 0
-5.6766925 8.4329958 2.3203511 0
10.036332 2.6961815 0.8698436 0
10.035335 2.6959715 -0.91640961 0
-5.6689844 8.7473536 0.42960572 0
10.239044 -1.7500315 -0.98619676 0
10.241473 1.7508035 -0.98660052 0
10.016907 2.6920915 1.1654091 0
1.3560352 -9.9636297 2.8116488 0
-5.6788988 8.7639694 0.19036198 0
9.8234291 -3.5494273 -0.058984041 0
10.272366 1.6268206 -0.9854604 0
-5.5780516 -8.7309484 1.3604231 0
-5.6664524 8.1765738 3.1990576 0
1.3068362 -10.136395 2.1829705 0
9.9197426 2.7231057 1.8453763 0
9.8262901 -3.5510213 0.26421273 0
-5.6717334 8.6078835 1.734534 0
9.6634579 -3.5924861 1.7480898 0
9.4746046 -3.6498907 2.5026193 0
10.283945 -1.6303189 -0.98737621 0
9.8242931 -3.5499089 0.58714724 0
-5.5826597 -8.6026678 2.0751669 0
9.4533644 -3.6456192 2.614202 0
9.3635368 -3.6784906 2.8784056 0
10.118307 2.6691625 -0.052439272 0
9.836071 -3.5564678 -0.38468939 0
10.113964 2.6672857 -0.37208372 0
-5.6803761 8.7664471 0.66646469 0
10.118187 2.669111 0.26645195 0
9.649992 -3.6023037 1.8707132 0
10.313023 -1.5058229 -0.98622668 0
-5.6731215 8.7542868 0.90410101 0
9.8257008 -3.5506933 -0.71017051 0
10.317687 1.5071595 -0.9869951 0
9.8630924 -3.5305486 -0.02080822 0
10.33857 -1.3805578 -0.98479521 0
9.8618927 -3.5301673 0.27700686 0
10.12016 2.6699634 0.58498538 0
-5.5857115 -8.5190449 2.4736788 0
10.026578 2.6941278 1.4650464 0
9.865572 -3.5326328 -0.3705405 0
9.8711462 -3.5345418 0.14112723 0
0.99388969 10.036985 2.8688149 0
9.7239628 2.7733257 2.785362 0
9.8271866 -3.5515201 0.91060936 0
10.106946 2.6642532 0.90319061 0
9.8731613 -3.5337491 -0.32061768 0
9.7740345 2.7613571 2.6315567 0
9.8712854 -3.5345898 0.39591122 0
9.8615007 -3.531239 -0.62793207 0
-5.6733923 8.7547417 1.1414208 0
-5.5809107 -8.3118753 3.1517773 0
-5.6709881 8.8297176 0.23684394 0
9.8818445 -3.5382056 -0.11554992 0
1.2344491 -10.423774 -0.071514726 0
10.127957 2.6733332 -0.69580853 0
10.360815 1.3865895 -0.98844576 0
-5.5788865 -8.298563 3.2053671 0
9.8730469 -3.5337124 0.57459736 0
-5.6762238 8.8352814 -0.14172924 0
-5.5780354 -8.5949173 2.3109288 0
10.381266 -1.2599199 -0.98646617 0
9.8738441 -3.5339658 -0.62179542 0
1.234 -10.432135 0.25995028 0
9.87679 -3.5364747 0.65001857 0
0.99545681 10.034966 2.9676468 0
9.9192047 2.7228637 2.1679099 0
-5.5852728 -8.5950556 2.3316979 0
10.40637 -1.1347117 -0.98554766 0
9.8206596 -3.5478857 1.2345459 0
1.2337389 -10.436995 -0.40550017 0
-5.6784081 8.8376026 -0.52183568 0
-5.6759634 8.8350048 0.61468267 0
1.2340541 -10.431129 0.59143209 0
-5.6632895 8.8215351 -0.90139484 0
9.6733322 -3.5957808 2.0506516 0
10.400105 1.26474 -0.98954618 0
-5.6725435 8.3925562 2.8513274 0
-5.5906467 -8.7443342 1.739779 0
9.645134 -3.5995061 2.19803 0
10.419263 1.137814 -0.98764789 0
9.8743744 -3.5341341 -0.92559195 0
10.189619 2.6473494 0.137321 0
9.8761263 -3.5362475 0.90412164 0
1.2340909 -10.430443 -0.74002886 0
-5.6761303 8.6124239 2.1150155 0
10.190589 2.6475909 -0.11966956 0
-5.676857 8.7605486 1.3793135 0
1.2348428 -10.416449 0.92253017 0
9.8809605 -3.5362272 0.87319064 0
9.879981 -3.5375674 -0.89072978 0
10.437133 1.0109229 -0.98584211 0
-5.6780596 8.4347248 2.7513747 0
10.438694 -1.0112748 -0.98609543 0
10.029279 2.6946967 1.7668295 0
10.192262 2.6480069 -0.37791061 0
9.4728298 -3.6488349 2.8356512 0
-5.6615195 8.1432323 3.567903 0
10.125606 2.6723166 1.2245932 0
9.8114758 -3.5427721 1.5595713 0
10.46781 -0.88703471 -0.98640895 0
9.8729668 -3.5336871 1.1719997 0
-5.5759225 -8.955224 0.23636615 0
1.3064091 -10.147242 2.5844536 0
10.209249 2.6522336 0.39244175 0
-5.6736832 8.755228 1.6171315 0
10.200605 2.6500831 0.64862823 0
9.8822012 -3.5383279 1.1583583 0
-5.5759697 -8.9552755 -0.52328902 0
10.205314 2.6512544 -0.63928914 0
-5.6876469 8.8474216 0.99400282 0
10.481813 0.88998336 -0.98867548 0
9.6573734 -3.5904562 2.3517933 0
-5.5883098 -8.9687719 -0.14372528 0
10.494897 -0.76231354 -0.98668158 0
10.496649 0.76265615 -0.98696423 0
-5.5841427 -8.6051531 2.5512609 0
10.198041 2.6494448 -0.89956939 0
-5.5670576 -8.945529 -0.9045217 0
-5.5814657 -8.9612865 0.61517715 0
10.198432 2.6495421 0.90412331 0
-5.6764698 8.7138329 1.9216759 0
-5.5841355 -8.5174179 2.8575897 0
-5.5822034 -8.7353611 2.1188288 0
-5.6695347 8.8281727 1.3721027 0
10.026184 2.6940451 2.071012 0
10.126101 2.6725304 1.5469599 0
1.2334783 -10.441846 1.2573252 0
9.8810463 -3.5379322 1.4128139 0
-5.6720362 8.7524681 1.8557148 0
10.529614 0.63889533 -0.98846936 0
9.9293156 2.7274067 2.4975061 0
9.6416044 -3.5974739 2.5297806 0
10.195694 2.6488609 1.1595008 0
10.005175 -3.4969351 -0.066017687 0
10.546136 -0.38293427 -0.98440766 0
10.533443 -0.63958782 -0.98908567 0
10.004786 -3.4967268 0.261935 0
10.544037 -0.51175219 -0.98727822 0
9.886858 -3.5381019 1.4748721 0
0.8456229 10.572792 -0.090440214 0
10.549769 0.51270431 -0.98819864 0
-5.673327 8.6095285 2.4981613 0
-5.5859146 -8.9661522 0.99493909 0
-5.5825186 -8.5914679 2.7639928 0
9.9976139 -3.4928658 -0.72527575 0
10.013716 -3.5015328 -0.39601386 0
9.8245773 -3.5500677 1.8906984 0
9.8721619 -3.5348897 1.6671939 0
1.2343386 -10.425833 1.5908618 0
10.566865 0.38607317 -0.98772824 0
0.84634423 10.578678 0.40763927 0
10.010105 -3.4995892 0.5895704 0
-5.6621628 8.3821383 3.23698 0
0.84503186 10.567968 0.65626204 0
10.277955 2.6198666 0.57749569 0
0.84744453 10.587658 0.15809608 0
10.290529 2.6223269 0.27368057 0
10.578212 0.25871485 -0.98662984 0
10.295091 2.6232193 -0.33666152 0
10.198576 2.6495781 1.4152942 0
9.6499071 -3.5879653 2.6590447 0
9.8714905 -3.5332179 1.7765126 0
-5.5857649 -8.607872 2.7923479 0
-5.6652489 8.4185247 3.1831679 0
0.99530816 10.037149 3.3765097 0
-5.6715384 8.7516336 2.0954504 0
10.591296 0.13174266 -0.98610175 0
0.84476757 10.565813 0.90411389 0
-5.6704178 8.8291111 1.754072 0
10.593907 -0.13206178 -0.98651826 0
10.311525 2.6264348 -0.031850219 0
10.293362 2.6228812 -0.64400768 0
10.129451 2.6739786 1.8726337 0
10.596881 -0.26126891 -0.98961425 0
10.013844 -3.5016019 0.91793358 0
-5.5727439 -8.866457 1.9289379 0
-5.5828085 -8.9627552 1.3755755 0
1.3067753 -10.13794 2.9875329 0
10.325537 2.6138318 -0.061308265 0
10.606489 0.0050672889 -0.98620009 0
10.029545 2.6947527 2.3806524 0
-5.5936093 -8.3279343 3.5951133 0
9.8692694 -3.5338993 1.9225574 0
9.9107533 2.7190673 2.8248174 0
-5.5777249 -8.7306013 2.5023539 0
10.613888 -0.005864501 -0.9873786 0
10.327627 2.6146998 -0.38750136 0
0.84490848 10.566962 1.1519427 0
-5.6769838 8.7145023 2.3555496 0
10.196326 2.6490183 1.6714118 0
10.301332 2.6244407 0.88270581 0
9.8142948 -3.5443418 2.2213597 0
1.2346022 -10.420925 1.9279079 0
10.003669 -3.496125 1.2464156 0
10.328125 2.6149063 0.58795309 0
10.341501 2.620461 0.26319408 0
10.302068 2.6245847 -0.9555614 0
10.629805 -0.12089431 -0.98787892 0
10.630075 -0.2490043 -0.98618126 0
10.092825 -3.4725766 -0.33739012 0
10.098566 -3.4743111 -0.03172338 0
10.082148 -3.4693506 -0.64387703 0
10.097937 -3.4741211 0.27336085 0
9.6412048 -3.5972435 2.867605 0
10.287787 2.6217904 1.1874104 0
10.0902 -3.4717836 0.57789791 0
10.640795 0.11986893 -0.98962712 0
9.873497 -3.5338557 2.0839198 0
-5.6727633 9.0611401 0.23386121 0
-5.6744699 8.7565479 2.3373904 0
10.119052 2.6694849 2.199275 0
-5.6757617 9.0644188 -0.15051734 0
-5.5883493 -8.5217695 3.2498121 0
10.332004 2.6165171 0.91307521 0
-5.5790439 -8.9586372 1.7581024 0
10.650915 0.24736041 -0.98949218 0
10.648016 0.37569344 -0.98758078 0
10.349656 2.6238475 -0.71850312 0
10.649141 -0.37562084 -0.98775947 0
-5.6715531 9.0598164 -0.53568184 0
-5.6681786 8.8267317 2.1386995 0
10.091839 -3.4722788 0.88275504 0
10.651941 0.50336456 -0.98704457 0
0.8470366 10.584329 1.400856 0
10.08775 -3.4710436 -0.95491481 0
-5.675787 8.6120701 2.8880074 0
10.654528 -0.50323492 -0.98745465 0
10.200253 2.6499953 1.9288511 0
10.320354 2.6116793 1.2382121 0
10.28579 2.6213996 1.4944603 0
-5.6813288 9.070508 0.6177603 0
9.8838863 -3.5389051 2.1810553 0
10.0134 -3.501363 1.578877 0
-5.6692791 9.0573292 -0.92312205 0
10.662024 0.63074458 -0.98777413 0
10.66241 -0.63073075 -0.98783517 0
10.030499 2.6949534 2.6949096 0
1.1688871 -10.666358 -0.1031934 0
-5.6718702 9.0601625 1.001615 0
0.84587944 10.574886 1.6492357 0
-5.6682549 8.74613 2.5782511 0
10.655018 -0.88622522 -0.98579574 0
10.665725 -0.75841963 -0.98778117 0
10.665842 0.75841713 -0.98779976 0
-5.5752745 -9.1788797 0.16886187 0
1.2343581 -10.42547 2.2701979 0
-5.5875978 -8.5980835 3.2048483 0
9.814085 -3.5442245 2.5583742 0
-5.5728564 -9.1855164 0.23341596 0
-5.5793839 -8.8753672 2.3665431 0
1.1716849 -10.684791 0.14828801 0
1.1691577 -10.66814 0.65293038 0
10.646808 1.1411742 -0.98478425 0
10.67109 0.88611019 -0.98834145 0
1.171306 -10.682295 0.40080416 0
10.192295 2.6480153 2.1861694 0
10.108028 -3.47717 1.1901796 0
-5.5701771 -8.9489403 2.1423352 0
9.873312 -3.5337968 2.3951457 0
10.112206 2.6665261 2.5304775 0
-5.5835624 -9.1975679 -0.15246594 0
10.194845 -3.4442027 -0.073511839 0
-5.6727233 8.7089529 2.7927845 0
9.8702517 -3.5342355 2.4374871 0
-5.5832663 -9.1931925 0.41362417 0
10.671163 -1.0138903 -0.98835289 0
10.671408 1.0138921 -0.98839164 0
10.645668 -1.2686698 -0.98518181 0
10.197284 -3.4454706 0.25938332 0
10.328423 2.6150301 1.56708 0
10.288684 2.6219659 1.8048012 0
-5.5869436 -8.7403984 2.8952763 0
10.663865 -1.1415404 -0.9874866 0
10.197278 -3.4454677 -0.40791559 0
-5.5840745 -9.198144 -0.53954786 0
10.010223 -3.4996531 1.9126551 0
-5.6660862 8.4195833 3.6264215 0
-5.5871444 -9.2016001 0.61835945 0
10.199945 -3.4468544 0.59206903 0
-5.675004 9.06359 1.3875291 0
1.1712025 -10.681613 0.90411842 0
10.098493 -3.4742892 1.4973736 0
-5.5798035 -9.1869907 0.90411043 0
10.633373 -1.5233622 -0.98525691 0
-5.5899639 -9.2051868 0.65868068 0
1.3060682 -10.1559 3.4038186 0
10.199398 -3.4465702 -0.7445178 0
0.8479141 10.59149 1.9004331 0
-5.6664877 8.7431688 2.8220317 0
10.677509 1.2698097 -0.99022818 0
-5.5827551 -9.1966591 -0.92871773 0
1.1698478 -10.672688 1.1554132 0
10.648346 1.5243279 -0.98763323 0
10.665641 -1.3973222 -0.98921704 0
10.667959 1.3974384 -0.98958457 0
10.591064 -1.9034052 -0.98374283 0
-5.6635756 8.5994587 3.2787886 0
-5.5850406 -9.1992321 1.0039825 0
-5.579915 -9.187192 1.1490612 0
10.638134 -1.6516314 -0.98746157 0
10.192767 2.6481326 2.4457307 0
-5.6828699 8.8423452 2.5321784 0
10.619116 -1.7781084 -0.98617864 0
10.620042 1.7781948 -0.98632586 0
0.79114342 10.776235 -0.43801033 0
0.7902472 10.785482 -0.092169881 0
0.79041183 10.783783 0.25324678 0
10.209469 -3.4518063 0.92577553 0
10.646985 1.6523296 -0.98886776 0
0.79082966 10.779472 0.59807754 0
10.331469 2.6162951 1.8985317 0
10.587582 -2.0312884 -0.98550904 0
10.094298 -3.4730217 1.8073981 0
1.2338917 -10.43415 2.6184425 0
1.1699311 -10.673235 1.407007 0
9.8749008 -3.5358279 2.6981072 0
10.002225 -3.4953477 2.2488279 0
-5.6819849 9.013032 1.9513834 0
10.194614 -3.444083 1.2590528 0
-5.671103 9.0593233 1.7748537 0
0.84723639 10.585959 2.1508982 0
9.8785 -3.5354455 2.7129276 0
0.79081559 10.779617 -0.78687763 0
-5.57938 -9.1862326 1.3942268 0
10.300201 2.6242194 2.1205096 0
-5.5772252 -9.1904345 1.3900456 0
10.55229 -2.2838662 -0.9853934 0
10.578606 -2.1587687 -0.98669279 0
10.630182 1.9076204 -0.98997438 0
9.8299007 -3.5530322 2.9057653 0
10.532055 -2.4097619 -0.98535442 0
10.117249 2.6687059 2.8700097 0
10.586708 2.1598771 -0.987988 0
0.79071987 10.780604 0.94331288 0
10.617409 2.034935 -0.99026823 0
-5.5812073 -8.8778133 2.8082294 0
-5.5805387 -8.9602728 2.5354581 0
-5.5879354 -9.18645 1.5201674 0
10.484901 -2.6603577 -0.98506844 0
10.574786 2.2872727 -0.98899722 0
10.520799 -2.5373011 -0.98705041 0
10.552125 2.4130957 -0.98857689 0
-5.5784454 -9.1845579 1.6398165 0
10.191928 2.6479239 2.7067971 0
10.527029 2.5384276 -0.98805308 0
1.1713575 -10.682634 1.6597996 0
0.84556794 10.572344 2.4013252 0
-5.5817604 -8.73489 3.2899017 0
10.324492 -3.4091096 0.26988757 0
10.328367 -3.4102204 -0.042328596 0
10.196595 -3.4451125 1.5955298 0
10.402796 -3.0338514 -0.98496521 0
10.326914 2.6144035 2.2323017 0
10.441064 -2.9118094 -0.98648024 0
10.095354 -3.4733407 2.1216295 0
0.79072177 10.780585 1.2897928 0
-5.5887127 -8.5995359 3.6517134 0
10.324025 -3.4089761 0.58150387 0
10.478938 -2.7893779 -0.9882102 0
0.76926398 10.860324 0.21885026 0
10.338743 -3.4131937 -0.35656327 0
9.8713169 -3.5346005 2.9593201 0
-5.6752777 9.300807 -0.15970314 0
-5.6735826 8.8324747 2.9244647 0
10.294459 2.623096 2.4372978 0
10.385615 -3.1610332 -0.98717737 0
1.1692278 -10.668603 1.9116468 0
-5.6786065 9.304554 0.2306366 0
10.349997 -3.2836561 -0.98667037 0
10.311806 -3.4054742 -0.98602617 0
10.335701 -3.412322 -0.67176628 0
-5.6851783 8.7251749 3.2418408 0
0.76915276 10.861672 0.63257325 0
-5.5859957 -9.2003069 1.7807167 0
1.234332 -10.425955 2.9684319 0
-5.6800904 9.0104895 2.3932345 0
10.01333 -3.5013249 2.5939662 0
-5.6826415 9.3090963 -0.55253214 0
-5.6807251 9.3069391 0.62081897 0
-5.5852079 -9.1966696 1.8875926 0
-5.6674395 9.2919836 -0.94437361 0
-5.5850701 -9.1824875 1.9611125 0
-5.6879444 9.0777435 2.1699777 0
10.390997 -3.3901122 -0.081376731 0
10.346477 -3.4154098 0.89471567 0
0.76936376 10.859115 1.0466902 0
10.322019 -3.4084008 1.2064409 0
1.1681851 -10.661733 2.1647763 0
-5.6749477 9.300436 1.0110769 0
10.193201 2.6482408 2.9702396 0
0.78971136 10.791013 1.6396832 0
10.205033 -3.4494998 1.936214 0
0.84721041 10.585747 2.6572316 0
10.40128 -3.3952734 -0.421812 0
10.093868 -3.4728918 2.4396207 0
10.406687 -3.3979871 0.25650525 0
10.39703 -3.3931406 0.59470606 0
-5.6789532 9.3645592 0.15399456 0
-5.5676365 -9.1796408 2.169209 0
-5.5792789 -8.9588947 2.9310577 0
10.323327 2.6129143 2.5705295 0
-5.6715984 9.351387 0.65478754 0
1.106618 -10.903264 0.2185024 0
-5.5796428 -9.4346781 -0.16167963 0
-5.578938 -9.4338617 0.23008466 0
-5.5717077 -9.4254847 -0.55379909 0
10.38636 -3.3877852 0.93250477 0
-5.5828247 -9.1924019 2.1349025 0
-5.6815853 9.3692713 0.4042356 0
10.402557 -3.3959148 -0.76390254 0
10.291126 2.6224437 2.7594814 0
-5.5758629 -9.4302988 0.62123311 0
0.79142451 10.773335 1.9888496 0
0.76899087 10.863635 1.4627674 0
10.672316 2.6088786 -0.41524261 0
10.340407 -3.4136708 1.5237675 0
-5.675611 9.0642548 2.5628448 0
-5.5767722 -9.4313517 -0.94991398 0
10.004832 -3.4967511 2.9396374 0
10.683191 2.6132135 -0.078658164 0
10.682196 2.6128166 0.25773597 0
-5.6851382 9.3119068 1.4042609 0
-5.594317 -8.8954039 3.2605281 0
10.672337 2.608887 0.59347868 0
1.1051885 -10.929875 0.63336265 0
-5.6864042 9.377903 0.90411663 0
-5.5774293 -9.4321136 1.012902 0
1.1068711 -10.898554 1.0475509 0
10.200933 -3.4473684 2.2786088 0
10.668414 2.6073234 -0.75399172 0
10.471863 -3.3934729 -0.16371441 0
-5.6723814 8.8311987 3.3253355 0
10.396718 -3.3929842 1.2727654 0
-5.6781664 9.3631496 1.1537585 0
-5.5848985 -9.18225 2.40624 0
0.84746897 10.587857 2.9135916 0
1.1710869 -10.680851 2.4226589 0
10.472531 -3.3936806 0.37133646 0
-5.6816778 9.3160591 1.534162 0
-5.6775413 9.0070696 2.8395648 0
-5.6688347 8.7038889 3.6869655 0
10.478186 -3.3954372 -0.43363237 0
10.486279 -3.3979521 0.10320735 0
-5.6714554 9.3511314 1.4030299 0
10.096053 -3.473552 2.7636991 0
10.475682 -3.3946595 0.63780391 0
-5.5903215 -9.2058277 2.3861828 0
10.330133 -3.4107263 1.8404455 0
10.683497 2.6133351 0.93007529 0
10.480562 -3.3961759 -0.70475149 0
10.324718 2.6134913 2.9154255 0
10.4643 -3.3911231 -0.97455883 0
10.471765 -3.3934424 0.90413654 0
10.390936 -3.3900816 1.6137059 0
-5.5727453 -9.1743507 2.6313767 0
-5.6823092 9.3087215 1.7985225 0
0.76879489 10.866012 1.8814483 0
-5.5795021 -9.192997 2.5689273 0
1.1065867 -10.903847 1.4642711 0
10.461019 -3.3901033 1.1701119 0
-5.5871053 -9.4433241 1.4072609 0
10.67542 2.610116 1.2669349 0
-5.673975 9.3556442 1.6535263 0
-5.5784416 -8.9579792 3.3331242 0
1.1705415 -10.677258 2.6793618 0
10.19373 -3.4436233 2.6245511 0
0.78913403 10.796969 2.348721 0
11.006846 -0.82316357 -0.98399198 0
10.772377 -2.4527748 -0.98414171 0
10.900338 -1.8060617 -0.98510146 0
10.84511 -2.1311548 -0.98531079 0
10.335041 -3.4121327 2.1629658 0
10.384459 -3.3868315 1.957006 0
11.052453 -0.16501585 -0.98682821 0
10.90656 1.8070517 -0.98613679 0
10.956924 -1.480945 -0.98666728 0
-5.6885686 9.3255863 1.9827967 0
10.997993 1.1534425 -0.98720908 0
-5.6790085 9.0679703 2.965179 0
11.028489 0.82471859 -0.98755825 0
11.04952 0.49519306 -0.987903 0
10.476597 -3.3949437 1.4371367 0
10.676812 2.6106708 1.6065016 0
10.965828 1.4821007 -0.98814273 0
11.054496 -0.49540734 -0.98872161 0
-5.6723976 9.2975645 2.1941919 0
10.624554 -3.0954933 -0.98607194 0
-5.6774559 9.548007 0.22745275 0
-5.5745201 -8.8688402 3.7069683 0
-5.5833969 -9.4390278 1.8025589 0
11.06939 0.16525882 -0.9896121 0
11.010364 -1.1546888 -0.98925233 0
-5.6787586 9.3642111 1.9055147 0
-5.5814571 -9.4889231 1.5413918 0
10.864621 2.1348362 -0.98857415 0
-5.6822991 9.5536184 -0.16991365 0
-5.6722493 9.541975 0.62380803 0
1.1679657 -10.660286 2.9353175 0
10.72206 -2.7798314 -0.98831868 0
10.801716 2.459187 -0.98907745 0
-5.5866408 -9.184659 2.8569334 0
0.7694447 10.858132 2.3022726 0
-5.6806607 9.5517206 -0.56838804 0
1.1058279 -10.917972 1.8850026 0
10.468171 -3.3923256 1.703743 0
-5.5855217 -9.1972322 2.8884997 0
-5.6773634 9.0068312 3.2926121 0
10.318288 -3.4073319 2.4850514 0
0.79034543 10.78447 2.7067993 0
-5.5779495 -9.1912498 2.970701 0
10.671241 2.6084502 1.9479108 0
-5.6834283 9.5549269 -0.96995687 0
-5.6814051 9.5525827 1.0212419 0
-5.6801815 9.3667574 2.158253 0
-5.5739403 -9.6775446 -0.17118096 0
-5.6779203 9.3108635 2.43138 0
1.0508478 -11.121445 0.24774587 0
-5.5766253 -9.680747 0.22682834 0
-5.5765162 -9.4818811 1.9904437 0
1.050113 -11.132236 -0.10916317 0
-5.5822859 -9.4377403 2.2014928 0
10.212214 -3.453233 2.9833026 0
1.0504261 -11.127637 -0.46678817 0
-5.5751166 -9.6789474 0.62453055 0
10.405775 -3.3975298 2.3096602 0
10.477156 -3.3951173 1.9725108 0
1.0502206 -11.130655 0.60381508 0
1.1067138 -10.901484 2.3054943 0
-5.6737723 9.2991123 2.5965178 0
-5.5850077 -9.6907454 -0.5722301 0
-5.6797996 9.5507221 1.4196725 0
-5.6689825 9.057004 3.3690772 0
1.0513214 -11.11449 0.95963085 0
1.0504121 -11.127844 -0.82687366 0
-5.5753741 -9.6792545 -0.97298789 0
-5.6786108 9.363945 2.411644 0
-5.5781221 -9.6825323 1.022922 0
10.317137 -3.407002 2.8154941 0
10.91903 2.6093171 -0.062973499 0
10.912569 2.6081486 -0.38950884 0
10.701509 -3.3865798 0.25197744 0
10.468409 -3.3923995 2.2407174 0
0.79112351 10.776441 3.0710177 0
10.682667 2.6130044 2.296253 0
0.76814926 10.873838 2.7318225 0
10.382321 -3.3857586 2.6572473 0
10.929947 2.6112912 0.26274753 0
10.718326 -3.3947208 -0.096870542 0
10.920797 2.6096365 0.58849013 0
-5.5840545 -9.1810837 3.3122907 0
10.915083 2.6086032 -0.71870542 0
-5.6725202 9.5422888 1.8193069 0
10.718863 -3.3949807 -0.44672257 0
-5.5738759 -9.6774683 1.4221141 0
10.717852 -3.3944914 0.59973943 0
1.0500462 -11.133216 1.3186774 0
-5.5764608 -9.4309912 2.6033425 0
10.917311 2.6090062 0.91428185 0
10.712637 -3.3919671 -0.79783809 0
10.737035 -3.3886006 -0.38955164 0
-5.5783448 -9.4844885 2.4446263 0
-5.679822 9.3661137 2.6674867 0
-5.5811677 -9.1948719 3.3807659 0
-5.6719322 8.9995432 3.7506466 0
10.75783 -3.3942389 -0.063784242 0
10.743171 -3.3902643 0.58846366 0
-5.6780996 9.3111115 2.8872683 0
10.759233 -3.3946195 0.26264572 0
10.721398 -3.3962085 0.94844937 0
10.472422 -3.3936465 2.5118394 0
1.0509624 -11.119761 1.6772788 0
10.920587 2.6095984 1.2416215 0
-5.6861215 9.6380844 1.5573339 0
10.670332 2.608088 2.644316 0
10.753903 -3.3931744 -0.72059774 0
-5.6735239 9.2988329 3.0039239 0
-5.5741777 -9.8291473 0.12888885 0
10.705386 -3.3884571 1.2968125 0
-5.5742512 -9.8292866 0.38776088 0
1.1058398 -10.917749 2.7358797 0
10.754736 -3.3934002 0.91501617 0
-5.5738983 -9.8286095 0.64610124 0
-5.4991641 -9.8438597 -0.98260784 0
10.904555 2.6066992 1.5687916 0
-5.5775785 -9.6818838 1.8248091 0
-5.6737251 9.543684 2.2236581 0
-5.6759648 9.7992315 0.22412944 0
-5.6809673 9.8051987 -0.17991132 0
10.7459 -3.3910046 1.2417552 0
-5.3679266 -9.9425488 -0.98197305 0
-5.6818924 9.3698215 2.9257433 0
0.76889122 10.864842 3.1626301 0
-5.6791129 9.8029861 0.62735593 0
10.464254 -3.391109 2.7828412 0
10.398405 -3.3938305 3.0204897 0
-5.6816373 9.8059969 -0.58538842 0
-5.6634145 9.7842627 -0.98981333 0
10.705088 -3.3883126 1.6482081 0
-5.5803566 -9.8409996 0.90412688 0
1.0507752 -11.12251 2.0405951 0
-5.679944 9.629281 2.0125532 0
11.060773 2.6100354 0.25159764 0
10.738846 -3.3890915 1.5700822 0
-5.5802011 -9.8407001 1.1624699 0
-5.583292 -9.4389057 3.0145302 0
11.069398 2.6133311 -0.097515762 0
-5.2419887 -10.047953 -0.98267698 0
-5.6807251 9.8049088 1.0312915 0
-5.5799074 -9.1753502 3.7740259 0
-5.5669374 -9.9270849 -0.1810289 0
11.070903 2.6139059 -0.44788843 0
11.069168 2.6132433 0.59995914 0
-5.5751038 -9.8309221 1.4205794 0
-5.5454741 9.9007282 -0.99161267 0
-5.5782795 -9.8086557 1.5642471 0
11.061028 2.6101332 -0.79902577 0
-5.5780191 -9.6824093 2.2305722 0
-5.5875049 -9.4975424 2.9065654 0
10.681878 2.61269 3.0039902 0
10.933616 2.6119547 1.9048944 0
11.062542 2.6107113 0.94853091 0
-5.6713285 9.5409079 2.6315653 0
-5.4100747 9.9958467 -0.99031615 0
-5.5841184 -9.9481831 0.22314644 0
1.1063969 -10.90738 3.1671352 0
-5.5752773 -9.9373264 0.62800908 0
-5.6744232 9.7973928 1.435806 0
-5.6806235 9.3146009 3.3503332 0
-5.1167517 -10.154628 -0.98384583 0
-5.5793333 -9.9423075 -0.58888042 0
-5.6737208 9.2990541 3.4181061 0
10.735662 -3.3882284 1.9013591 0
10.470732 -3.3931215 3.0584149 0
10.725132 -3.3980157 2.0061867 0
-5.2762055 10.092518 -0.98957574 0
0.6174978 11.415131 -0.16633105 0
0.61711204 11.411004 0.3702569 0
0.61807334 11.421285 0.10187078 0
1.0500517 -11.133137 2.4096813 0
-4.9831681 -10.250286 -0.9836061 0
11.063575 2.6111059 1.2986021 0
-5.5756273 -9.9377565 1.0331502 0
-5.5839148 -9.8478241 1.6808407 0
-5.679419 9.6285324 2.472497 0
0.61757386 11.415942 0.63722622 0
-4.8436952 -10.337511 -0.98239219 0
-5.5757895 -9.8049955 2.0230322 0
0.61747479 11.414884 0.90413737 0
10.938961 2.6129215 2.2421255 0
-5.1499529 10.199176 -0.9906677 0
-5.5761805 -9.8329878 1.9394975 0
-5.5735955 -9.4276714 3.4263597 0
-5.6774888 9.8010492 1.8439031 0
0.61656415 11.405146 1.1707962 0
-5.5784154 -9.6828823 2.6408834 0
-4.7075086 -10.429123 -0.98213947 0
0.76784837 10.877486 3.6056223 0
10.716049 -3.3936188 2.3634207 0
-5.5776467 -9.9402361 1.4400468 0
10.749938 -3.3920994 2.2396059 0
11.07497 2.6154599 1.6522582 0
-5.0217462 10.303625 -0.99168873 0
10.907454 2.6072235 2.5757015 0
-5.5780845 -9.4841166 3.3684721 0
0.95582664 -11.472098 0.095802784 0
0.95571458 -11.471184 -0.17492366 0
-4.5720921 -10.521855 -0.98234224 0
-4.8784652 10.387064 -0.98982489 0
0.95608902 -11.474239 0.36563492 0
-5.6798325 9.5507603 3.0486417 0
0.61758208 11.416031 1.4382544 0
1.0492895 -11.144331 2.7846923 0
-5.5850573 -9.8500147 2.2027023 0
11.057991 2.6089725 2.0050049 0
-5.6853161 10.042331 0.11208165 0
-5.6830921 10.038066 0.37679982 0
-4.4343867 -10.611159 -0.98232722 0
-5.5750203 -9.9370108 1.8487577 0
1.1062568 -10.909988 3.6081519 0
-5.6745415 9.797534 2.2543669 0
0.95806623 -11.490374 0.63465524 0
0.6165601 11.405103 1.7052703 0
10.702378 -3.3870008 2.7236514 0
0.95655465 -11.478039 0.90414011 0
11.04367 -3.389034 0.24656475 0
-5.6848326 10.041404 0.64052165 0
11.04915 -3.3915908 -0.11245954 0
-5.5716724 -9.8243408 2.4614701 0
-5.6809177 9.6306686 2.9381776 0
-4.7517843 10.494183 -0.99180222 0
-5.6823997 10.068872 -0.19061184 0
-5.6754541 10.060344 -0.60219824 0
10.753709 -3.3931217 2.5810032 0
-5.6859941 10.073287 0.22033024 0
11.051458 -3.392668 -0.47291732 0
-5.6866541 9.3229399 3.8228321 0
-5.5874386 -9.822114 2.4894383 0
-4.6068377 10.574516 -0.99008882 0
-5.6823635 10.068829 0.63096929 0
-5.6869831 10.045529 0.90413344 0
-4.3010035 -10.707497 -0.98361421 0
-5.5783224 -9.6827717 3.0566711 0
11.03891 -3.3868134 0.96326733 0
0.61623585 11.401635 1.9733455 0
-5.6887279 9.9709511 1.5814221 0
0.95805323 -11.490269 1.1736236 0
11.065804 -3.3993604 0.60526145 0
-5.6833019 10.038468 1.1676681 0
-4.1543818 -10.782413 -0.98209763 0
11.059614 -3.3964727 -0.836555 0
-4.4684992 10.664506 -0.99010193 0
0.95644844 -11.477172 1.4427843 0
11.061303 2.6102381 2.3646212 0
-5.6837878 10.070578 1.0421269 0
-5.5714698 -9.9326506 2.2604654 0
-5.5652714 -10.192099 -0.19180661 0
10.934965 2.6121986 2.9285161 0
1.0499846 -11.134122 3.160841 0
-5.6850443 10.04181 1.4316649 0
-5.5764437 -9.8334923 2.727042 0
-5.5757828 -10.205391 0.21973586 0
11.054283 -3.3939855 1.3245897 0
10.743906 -3.3904636 2.9244566 0
-5.5719924 -10.200598 0.63155735 0
-5.6794901 9.8034363 2.6714633 0
-4.3333473 10.759709 -0.99115551 0
-4.0232949 -10.883451 -0.98460162 0
-5.5772429 -10.207237 -0.60684371 0
0.95722389 -11.4835 1.713284 0
-5.6859269 9.5578222 3.4724264 0
-5.6824255 10.068905 1.4545641 0
0.61790168 11.419448 2.2449255 0
-5.6854658 9.966157 2.0469677 0
10.712636 -3.3919666 3.0957913 0
-5.5734086 -9.8014984 2.9536147 0
-5.6822872 10.036522 1.6957297 0
-5.5831199 -9.491293 3.8434753 0
11.034087 -3.3845632 1.6844964 0
-3.8761263 -10.957113 -0.98349559 0
0.55160749 11.650472 -0.13855469 0
-4.1904082 10.842474 -0.99069715 0
-5.5730791 -10.201972 1.0438662 0
-3.7253423 -11.023645 -0.98169756 0
-5.6744475 9.6214476 3.4072037 0
-5.5742359 -10.14072 1.5881848 0
-5.6737118 10.020072 1.9592025 0
0.55138659 11.652454 0.61366689 0
-4.0435848 10.918403 -0.9895637 0
-5.5731344 -9.8271465 2.9918439 0
0.54913855 11.672639 0.2373786 0
11.062968 2.6108744 2.7289951 0
0.54992974 11.665535 -0.51758337 0
0.95693362 -11.481132 1.9841454 0
0.55222154 11.644958 -0.89559376 0
-5.5732255 -9.9348068 2.6779912 0
0.61720884 11.41204 2.5152621 0
-5.577518 -9.6818123 3.47891 0
0.55184841 11.648308 0.98984051 0
-3.5824838 -11.104458 -0.98219335 0
-5.682848 10.069423 1.8697248 0
-3.9017968 11.002826 -0.98993289 0
-5.5789552 -10.209403 1.4584851 0
0.95553088 -11.469685 2.2550063 0
11.042408 -3.3884451 2.0509231 0
-3.4344988 -11.175477 -0.98162019 0
-5.6845169 9.9647627 2.5167673 0
-3.7579117 11.083639 -0.9900794 0
-5.6806207 9.8047848 3.0934305 0
-5.6823626 10.036666 2.2273154 0
0.55003512 11.664589 1.3688998 0
0.61703086 11.410136 2.7879353 0
-3.2894635 -11.252306 -0.98213542 0
-5.5822301 -10.152837 2.0589528 0
11.477975 2.6106341 -0.11752319 0
11.259381 -3.3845782 0.59715176 0
11.268909 -3.3870158 -0.43451476 0
11.278897 -3.3895712 -0.090129316 0
11.278224 -3.3893988 0.25390875 0
11.061762 2.6104133 3.0985937 0
-3.6160822 11.168517 -0.99107504 0
11.489787 2.6149545 0.24455321 0
-5.5812893 -10.212355 1.8756075 0
-5.5753555 -9.8043585 3.4289379 0
11.467078 2.6066484 -0.84557605 0
11.495001 2.6107123 -0.23745978 0
11.486707 2.6138279 -0.48196107 0
11.481579 2.6119521 0.60669422 0
-3.1430888 -11.326653 -0.98259294 0
11.274771 -3.3885152 -0.78229737 0
-5.6907802 10.079164 2.2903917 0
11.467703 2.6068769 0.96834993 0
-3.4654417 11.236584 -0.99003017 0
-5.6830988 10.038078 2.4953585 0
-5.5722365 -9.9335928 3.1004162 0
11.511476 2.6143129 0.04785037 0
11.507082 2.6133528 0.33401179 0
0.55037177 11.661567 1.7490454 0
11.045801 -3.3900282 2.4210136 0
-5.68611 10.344904 0.21663129 0
0.95859456 -11.494685 2.53197 0
-2.9883962 -11.382998 -0.98090386 0
0.87691462 -11.775983 0.20305312 0
11.509608 2.6139047 -0.52694416 0
-5.6917405 10.352024 -0.20249194 0
11.279595 -3.3897495 0.94156694 0
-5.684444 10.342797 -0.62196386 0
11.514945 2.6150713 0.61905277 0
-5.6891241 10.348716 0.63485348 0
11.501889 2.6122177 0.90415931 0
11.509267 2.6138301 -0.81655562 0
11.267734 -3.3867149 1.2858086 0
0.50555098 11.823234 0.20169818 0
-5.6744466 9.9499655 2.9885228 0
-3.3224983 11.319929 -0.99137628 0
-5.6789298 10.335825 1.0528095 0
-2.8407769 -11.454652 -0.98157394 0
-5.6831713 9.6338797 3.8901491 0
0.6181947 11.422582 3.0653296 0
-5.5732927 -10.139291 2.5299244 0
0.87559962 -11.795297 0.64868474 0
11.500207 2.61185 1.1889153 0
0.55163789 11.650199 2.1309216 0
0.95691574 -11.480986 2.8055186 0
11.490208 2.6151085 1.3336871 0
-5.6822891 10.036524 2.7646861 0
-5.5805578 -10.211429 2.2958038 0
-5.6783533 9.8020802 3.5209637 0
-5.6753707 10.294002 1.6042511 0
-3.174386 11.393113 -0.99161291 0
0.87622416 -11.786123 1.0947163 0
-2.690165 -11.519661 -0.98163748 0
-5.6794591 10.065261 2.7106934 0
0.50342 11.845222 0.65008736 0
-5.5683351 -10.472995 -0.62470508 0
-5.5772824 -10.484649 0.21587479 0
-5.5776534 -10.485131 -0.20431942 0
0.50617731 11.816771 1.0979114 0
-5.5701232 -10.475324 0.63531995 0
-3.0196347 11.451875 -0.99019015 0
11.394243 -3.3855045 -0.12877101 0
11.393134 -3.3850067 0.24104774 0
11.046957 -3.3905675 2.795856 0
-5.6822534 10.340028 1.4730549 0
11.282551 -3.3905058 1.6346834 0
11.491022 2.6154065 1.7001064 0
11.403454 -3.3896425 -0.50080794 0
11.522964 2.6168239 1.4750662 0
0.87676048 -11.778247 1.5418539 0
-2.5442328 -11.596421 -0.98354208 0
-5.5719643 -10.477722 1.0552297 0
11.250885 -3.3824046 1.9800363 0
-2.8708344 11.523528 -0.9908011 0
11.408914 -3.3920949 0.61065412 0
-5.6804914 10.033076 3.0355988 0
-5.5675783 -10.543774 0.08446455 0
-2.3858743 -11.642329 -0.98165131 0
11.399932 -3.3880599 -0.87411857 0
11.501573 2.6121485 1.7597628 0
0.95779943 -11.488196 3.0844936 0
-5.5700188 -10.5488 0.3579247 0
0.55130684 11.653171 2.5190468 0
0.50531828 11.825634 1.5486577 0
-5.5746932 -10.494432 1.1376147 0
-5.5817699 -9.9452991 3.5340619 0
-2.7173653 11.584507 -0.99027157 0
-5.5687141 -10.546113 0.63125193 0
-5.6789908 10.299489 2.0805259 0
-5.5772061 -10.207191 2.71977 0
-5.6814189 10.338972 1.8954282 0
-5.581459 -9.8133278 3.9142118 0
0.83811474 -11.925584 -0.1514585 0
11.422378 -3.3981435 0.98178732 0
11.483901 2.6128016 2.068404 0
-5.5713801 -10.476961 1.4765425 0
-2.2358851 -11.709694 -0.98287678 0
-5.5699472 -10.548654 0.90414476 0
-5.6727071 10.05697 3.1371498 0
-5.674686 9.9503174 3.4696984 0
-5.5831714 -10.154263 3.0116358 0
-2.5669513 11.652832 -0.99100912 0
11.404747 -3.3902233 1.3523319 0
0.87687945 -11.7765 1.9919333 0
0.83723176 -11.93629 -0.53873843 0
11.514416 2.6149554 2.0476401 0
-2.0800495 -11.761484 -0.98234808 0
-2.4085298 11.700994 -0.98937273 0
0.83543229 -11.958106 0.2329005 0
0.83639705 -11.94641 0.61829448 0
-5.5758548 -10.496249 1.6143472 0
-1.9203842 -11.801653 -0.98060572 0
11.059156 -3.3962591 3.1801467 0
-5.5751438 -10.55936 1.177381 0
11.272837 -3.3880205 2.3376932 0
0.83710098 -11.937875 1.0035048 0
0.50467956 11.832226 2.0025101 0
0.83603477 -11.950801 -0.92961347 0
11.40093 -3.3885086 1.7256529 0
-5.5706758 -10.550154 1.4504366 0
11.497688 2.6112998 2.3338461 0
11.726094 2.6080875 -0.45963669 0
-5.5762105 -10.483253 1.9014621 0
-5.6836696 10.341818 2.3221326 0
-1.7686117 -11.865133 -0.98217368 0
11.493793 2.6164198 2.4437871 0
-2.2633505 11.783957 -0.99259889 0
11.751387 2.6122885 0.24861681 0
0.54947078 11.669656 2.9158266 0
11.754454 2.6127977 -0.10614425 0
-5.6819077 10.303909 2.561161 0
0.83733785 -11.935002 1.3900254 0
-2.1006088 11.819619 -0.98991942 0
-5.5787325 -10.209121 3.1509666 0
11.751498 2.6123071 0.60278499 0
-5.6764851 10.613853 -0.64024198 0
-5.6886535 10.629701 0.2126826 0
-5.5723438 -10.553591 1.7245915 0
-5.6889524 10.63009 -0.21389735 0
-1.6115584 -11.912724 -0.98197389 0
-5.5727286 -10.491361 2.0931754 0
11.743544 2.6109855 0.95696449 0
11.392458 -3.3847024 2.1010871 0
-5.6870852 10.627659 0.63867235 0
11.270892 -3.3875229 2.6961374 0
-5.6719089 10.607892 1.0638306 0
0.87574708 -11.793132 2.4486837 0
11.768366 2.6151085 -0.82207286 0
-5.57377 -10.140015 3.4931107 0
11.506141 2.613147 2.6244388 0
-1.9517088 11.894432 -0.99262929 0
0.50458264 11.833225 2.4598458 0
-5.5766521 -10.483828 2.3294559 0
-1.4583375 -11.973462 -0.98374414 0
-5.5733862 -10.555739 1.9996855 0
0.83645618 -11.945693 1.7803841 0
-5.6852341 10.072353 3.5779657 0
11.482091 2.6121395 2.8197331 0
-5.5663018 -10.757813 -0.21535772 0
11.756771 2.6131828 1.3137572 0
-1.2974281 -12.007924 -0.98244107 0
-5.5596156 -10.748842 -0.6434921 0
11.375493 -3.3770812 2.4782355 0
-1.7975521 11.955079 -0.99377513 0
-5.6805816 9.9589806 3.9614191 0
-5.6924319 10.352899 2.7558784 0
-5.5773792 -10.772676 0.21186411 0
-1.6326034 11.981491 -0.99080396 0
0.55066884 11.658899 3.3128791 0
-5.6805034 10.619085 1.492219 0
11.655845 -3.3837538 0.31862473 0
11.649248 -3.3819101 -0.56447005 0
11.660168 -3.3849621 -0.26988351 0
-1.1396575 -12.0534 -0.98283279 0
-5.6879959 10.671622 1.1486371 0
11.670429 -3.3878305 0.023999929 0
-5.5709791 -10.488625 2.5761251 0
-5.5804329 -10.776773 0.63962495 0
-5.5744448 -10.55792 2.276094 0
11.508263 2.6136107 2.9162784 0
-5.5652113 -10.75635 1.0666621 0
-1.4741192 12.027798 -0.9906913 0
-5.6844816 10.307811 3.0473938 0
0.83725798 -11.935971 2.1716132 0
11.272175 -3.3878512 3.0611591 0
11.669645 -3.3876114 0.61122215 0
11.766331 2.6147704 1.6732194 0
-5.5774717 -10.207527 3.5881424 0
0.50674462 11.810915 2.9177873 0
11.661614 -3.3853664 0.90416908 0
-0.98144054 -12.097575 -0.98334479 0
0.87576091 -11.792928 2.9084053 0
11.670687 -3.3879023 -0.86485612 0
-5.5725975 -10.478546 2.7608263 0
-1.3167615 12.078229 -0.99139392 0
-5.6861391 10.788044 0.065482378 0
-5.6812572 10.777987 0.6252594 0
-5.6866107 10.669456 1.632334 0
11.482219 2.6121862 3.2042885 0
11.667139 -3.3869107 1.1970563 0
-5.6900702 10.796143 0.34512496 0
-5.5747004 -10.558447 2.5538661 0
-0.82322979 -12.142463 -0.98423052 0
-5.5717545 -10.76513 1.4966693 0
-5.6919804 10.634033 1.9248033 0
-1.1585057 12.125989 -0.99204111 0
11.937102 2.6140037 0.23720682 0
11.764724 2.6145036 2.0346646 0
11.941503 2.6155419 -0.14048368 0
-5.6848669 10.785423 0.90415227 0
-0.66124153 -12.170868 -0.9833287 0
-5.6862941 10.345137 3.1910009 0
11.507705 2.6134887 3.2099452 0
11.93425 2.6130061 0.61414039 0
11.939478 2.6148341 -0.51928985 0
11.666474 -3.3867249 1.4902291 0
11.409092 -3.392175 2.8720286 0
-0.49854445 -12.194817 -0.98216212 0
-5.5774479 -10.145588 3.9875736 0
-0.99831653 12.166616 -0.99207151 0
11.776421 -3.3857057 -0.14710408 0
-5.6877766 10.791418 1.183393 0
-0.83374095 12.188299 -0.99000466 0
11.942688 2.6159563 -0.90094829 0
11.768624 -3.3823369 0.61633122 0
-5.6779051 10.771079 1.4618831 0
0.83511615 -11.961939 2.5734696 0
-5.5718365 -10.552546 2.832315 0
-5.5661473 -10.757606 1.9275823 0
-5.5709872 -10.488637 3.0648527 0
11.785976 -3.3898356 0.23473871 0
11.654931 -3.3834984 1.7832162 0
-5.5770979 -10.8675 1.1542292 0
11.783108 -3.3885958 -0.53116691 0
-0.67115092 12.217109 -0.98913527 0
11.952386 2.6193473 0.99248791 0
-5.6845169 10.624313 2.3575087 0
-5.6903391 10.675286 2.1199808 0
11.759564 2.6136465 2.3993154 0
-0.33989215 -12.23937 -0.98386252 0
0.87658882 -11.780768 3.3716297 0
-0.17454958 -12.247085 -0.98125398 0
-5.5730877 -10.479185 3.1993475 0
11.787441 -3.3904684 -0.91777909 0
-5.6897769 10.315836 3.5417418 0
-0.011584759 -12.266385 -0.98038518 0
11.946194 2.6171823 1.3713121 0
-5.6840553 10.91581 0.2087481 0
11.790405 -3.3917491 0.99930239 0
-5.5727205 -10.860434 1.6411672 0
-5.6875544 10.790961 1.7430525 0
0.50431108 11.836027 3.3914108 0
11.665832 -3.3865452 2.0787771 0
0.83753943 -11.932559 2.9698298 0
11.398856 -3.3875768 3.26194 0
-5.6997428 10.936858 -0.22706044 0
-0.34930921 12.290401 -0.99023402 0
11.781945 -3.3880937 1.3824561 0
-5.5740862 -10.55718 3.1148033 0
