# .PCD v0.7 - Point Cloud Data file format
VERSION 0.7
FIELDS x y z intensity
SIZE 4 4 4 4
TYPE F F F F
COUNT 1 1 1 1
WIDTH 1403
HEIGHT 1
VIEWPOINT 0 0 0 1 0 0 0
POINTS 1403
DATA ascii
-4.4137497 0.11376297 1.4613144 0
-4.4095316 -0.22746068 1.4614098 0
-4.4223275 -1.2149198 -0.77390003 0
-4.4022493 -1.3022393 0.74830794 0
-4.4031835 -0.34110758 1.4616647 0
-2.8435559 3.5474758 -0.98674965 0
-4.4100633 -1.4797473 0.10201824 0
-4.4099741 -0.57200426 1.3716602 0
-4.358583 1.2997365 -0.98536372 0
-4.4294353 0.92976558 1.0942945 0
-4.3975658 -0.45503762 1.4624848 0
-2.8475494 -3.5497372 -0.98797941 0
-4.4043727 -1.4792573 0.3179934 0
-4.4124751 -1.3912992 0.53342676 0
-4.4049311 -1.302393 -0.77137411 0
-4.4154944 -1.1263627 0.96475339 0
-4.4044471 -1.4792638 -0.33195174 0
-4.4169617 0.22788751 1.4624562 0
-4.3632212 -1.3000023 -0.98643625 0
-4.406045 -0.8053692 1.2808754 0
-4.4295292 0.45872211 1.3722224 0
-4.4458442 1.3936914 -0.11717755 0
-4.4276695 -0.69157916 1.2808895 0
-4.3890119 -1.5664706 0.10269451 0
-4.4096184 0.80609667 1.2812159 0
-4.4139686 0.34203821 1.4631867 0
-4.438118 1.3931375 -0.33524168 0
-4.4141531 -0.92619497 1.1886389 0
-4.4225225 1.4808199 -0.11574292 0
-4.4291658 -0.11420544 1.4634829 0
-4.4192524 1.3917851 -0.55287164 0
-4.4038005 -1.4177028 0.61017025 0
-4.4261351 1.298244 0.70908523 0
-4.42523 0.57420802 1.3734627 0
-4.4207239 1.3032981 0.74927771 0
-4.4045663 -1.2141566 0.9640727 0
-4.4173665 -1.0478278 1.0950775 0
-4.4287562 1.4813566 0.101035 0
-4.3992205 -0.57045096 1.4648049 0
-4.4315681 1.1747466 0.90392852 0
-4.4208465 1.3033051 -0.77447283 0
-4.4233975 0.92835492 1.1893032 0
-4.4209251 0.94998366 1.1825829 0
-4.4019914 -0.22702752 1.5546281 0
-4.413764 -1.1694936 1.000133 0
-4.4142485 0.68924564 1.3743083 0
-4.4315147 1.3926642 0.53375995 0
-4.4036517 -1.4791954 0.53339386 0
-4.3555727 1.38722 -0.98597014 0
-4.4013433 -0.92320222 1.2827964 0
-4.4205589 -1.2964234 0.80669641 0
-4.4168153 -0.68969196 1.374613 0
-4.4031253 -1.4791501 -0.55141342 0
-4.4026875 -1.4173037 0.70832205 0
-4.4057131 -1.291576 0.90392888 0
-4.4234438 1.2973652 0.80662596 0
-2.8060269 -3.612926 -0.98678553 0
-4.414578 1.0520364e-05 1.5556262 0
-4.4025059 -1.3905846 -0.77200711 0
-4.3605642 -1.3875779 -0.98712552 0
-4.4220438 1.1719363 1.0003343 0
-4.4086361 -1.3910241 0.74894142 0
-4.4306116 0.95001638 1.1837721 0
-4.4171281 -0.11385995 1.556314 0
-4.4326744 1.0518709 1.0958154 0
-4.414463 -1.5690292 -0.11575782 0
-4.4050965 1.1669362 1.0960212 0
-2.8132868 3.6171756 -0.98903966 0
-4.4083805 -0.80584472 1.3761623 0
-4.4089541 0.34160551 1.5571203 0
-4.4379792 1.4821506 0.31740463 0
-4.42274 0.114021 1.5572371 0
-4.4243712 -1.054635e-05 1.5572364 0
-4.4182043 0.57319313 1.4675016 0
-4.4271183 1.4260638 0.60843849 0
-4.4087839 -1.1680242 1.0962005 0
-4.3899817 -1.5665681 0.53329802 0
-4.43297 0.45911872 1.4674954 0
-4.421617 1.480742 0.53370857 0
-4.4295077 1.2152283 0.96625686 0
-4.3458977 -1.4742234 -0.98532295 0
-4.4022188 -1.4171357 0.80619049 0
-4.4139557 -1.5689781 0.31768131 0
-4.4425302 1.4825423 -0.33664501 0
-4.4214258 1.391941 0.7496134 0
-4.416254 0.80744749 1.3771017 0
-4.3877783 -0.80165046 1.4687896 0
-4.4170465 -0.34230381 1.5584557 0
-4.4193611 1.4232823 0.70749748 0
-4.4050083 -1.291346 1.0007808 0
-4.4241414 1.2975931 0.90392935 0
-4.4103403 -0.68856615 1.4689589 0
-4.4231143 1.049346 1.191328 0
-4.4281678 1.5704069 -0.11696285 0
-4.4235773 -1.0494682 1.1913617 0
-4.4091444 -1.1261808 1.1814461 0
-4.430377 -1.0383844 1.183821 0
-4.4199018 -1.569576 -0.33487141 0
-4.4126205 -0.45677301 1.5596185 0
-4.431397 1.0383991 1.1839461 0
-4.4311457 0.22870235 1.5594294 0
-2.7639866 3.6756709 -0.98570132 0
-4.4283104 0.92950279 1.285383 0
-4.4021678 -1.6567745 -0.11551076 0
-4.4028568 -1.6568537 0.10146558 0
-4.4170928 -1.30309 0.96555698 0
-4.4017754 -1.1659563 1.1920867 0
-4.4047313 -1.5680509 -0.55297482 0
-4.3947444 -1.6559207 -0.33293605 0
-4.4190626 0.45751563 1.5606847 0
-4.4280977 1.5703998 -0.33588272 0
-4.4089236 -1.4796491 0.7493217 0
-4.4121923 -1.0514033e-05 1.6503272 0
-4.4110298 0.11368493 1.6504154 0
-4.4095554 -0.92512077 1.3792748 0
-4.4379835 1.4821509 -0.55695486 0
-4.4418044 1.5717777 0.099913836 0
-4.3982844 -1.2138867 1.1804986 0
-4.4351606 1.3929255 -0.77837074 0
-4.4126635 -1.0465858 1.2866054 0
-4.4339838 1.5709915 0.31733 0
-4.4105539 -1.4797895 -0.77493036 0
-4.412653 -1.5505536 0.60633051 0
-4.3701797 1.4763138 -0.99094963 0
-4.3430629 1.5618515 -0.98655081 0
-4.403316 -1.5468999 0.70617688 0
-4.415967 -0.22783035 1.6522703 0
-4.4329877 1.3040011 0.96694994 0
-4.3443718 -1.5619831 -0.98685443 0
-4.4077849 -0.95001632 1.3999505 0
-4.4182215 0.57319564 1.5629964 0
-2.7803998 -3.6855962 -0.99084091 0
-4.4080911 -1.390985 0.96526599 0
-4.420516 1.0486598 1.287364 0
-4.4236598 -0.11404742 1.652796 0
-4.4317455 1.4277228 0.80546117 0
-4.4137168 -1.6581028 0.31751883 0
-4.4234481 1.5699325 -0.55595422 0
-4.4326696 1.3003776 1.0014591 0
-4.4074402 0.68806195 1.5642138 0
-4.4250984 0.9287523 1.3811412 0
-4.4063473 -0.45604992 1.6541617 0
-4.4370613 1.1269802 1.184875 0
-4.3965082 -1.5442361 0.80527759 0
-4.4288068 1.570471 0.53397906 0
-4.4207025 0.80835313 1.4735134 0
-4.4405384 0.69381654 1.473268 0
-4.4193702 -1.4232855 0.90393043 0
-4.4274268 -0.57452524 1.5645256 0
-4.4324107 1.0567685e-05 1.6541364 0
-4.4009476 -1.5676706 0.7493341 0
-4.4178843 1.391687 0.96612501 0
-4.4011941 -0.92316729 1.4742808 0
-4.3950243 -1.2880861 1.1941712 0
-4.4215388 1.6590023 0.31738138 0
-4.3977718 -0.57024175 1.6553297 0
-4.4201913 -0.94998366 1.4019156 0
-4.4205585 0.95001632 1.4019737 0
-4.4220648 -0.34273678 1.654968 0
-4.4300957 0.228642 1.6549366 0
-4.4064178 -1.0449363 1.382302 0
-4.4033599 -1.6569116 0.53369904 0
-4.4228897 0.9499836 1.4023428 0
-4.4218168 -1.2968342 1.0985625 0
-4.4263906 1.4258028 0.90393066 0
-4.4248824 1.6593868 -0.33666086 0
-2.7308993 -3.7438877 -0.98771811 0
-4.4085093 -1.419391 1.0018251 0
-4.4364891 1.6607215 -0.11853325 0
-4.4043183 -1.7463279 0.10082042 0
-4.4345284 1.5591131 0.60468829 0
-4.4279051 0.34324071 1.6560724 0
-4.4259601 1.2150759 1.1838999 0
-4.4080238 -1.0380645 1.4000881 0
-4.4066796 -1.6572933 -0.55479604 0
-4.4082484 -1.5684044 -0.7760843 0
-4.421031 0.45774248 1.6569467 0
-4.3370404 -1.6492845 -0.98733115 0
-4.438622 1.4822059 -0.78040636 0
-4.4247246 -0.69106704 1.5670981 0
-4.4448824 1.4827449 0.75121319 0
-4.3388906 1.6494973 -0.98776102 0
-4.4395237 1.1770937 1.1948404 0
-4.3953571 -1.4146754 1.0991752 0
-4.4022021 -1.7460537 0.31753206 0
-2.7385445 3.7486618 -0.99013329 0
-4.4292626 1.5570527 0.70487976 0
-4.4144869 -1.7476449 -0.11754543 0
-4.4108067 -0.80633855 1.5683634 0
-4.4194918 -1.1711833 1.2903526 0
-4.4149356 0.57272094 1.658597 0
-4.4195418 0.92745405 1.4769297 0
-4.4059458 -1.7465386 -0.33565158 0
-4.4356318 1.3013449 1.0992398 0
-4.4108038 -1.479811 0.96611381 0
-4.3878841 -1.744199 0.53361583 0
-4.4185095 1.6586539 -0.55668205 0
-4.4045048 -1.5473651 0.90393126 0
-4.4539676 1.6627316 0.098769307 0
-4.3950715 -1.6757076 0.70426702 0
-4.4249687 1.1727995 1.2908859 0
-4.4188781 -1.3031924 1.1835732 0
-4.3967085 -1.6561465 0.74960995 0
-4.3999438 -1.1654159 1.3853657 0
-4.4292736 1.0509728 1.3850663 0
-4.4278207 1.0383478 1.403224 0
-4.425416 1.7490606 0.099705577 0
-4.3211169 1.7355505 -0.986099 0
-4.43081 1.5706725 0.75090694 0
-4.4130874 -1.6833599 0.60279524 0
-4.4094434 -1.1261894 1.4006126 0
-4.3933477 -1.5429995 1.0025055 0
-4.3245263 -1.7359922 -0.9868927 0
-4.4068632 -1.0450537 1.4791923 0
-4.4269681 1.303656 1.1845682 0
-4.4336462 1.4284045 1.0024476 0
-4.4025917 -0.92349374 1.571157 0
-2.6899447 3.8073092 -0.9875555 0
-4.3995962 -1.7457161 -0.55538207 0
-4.4318037 1.5707724 -0.78068614 0
-4.4357142 1.6606325 0.53426754 0
-4.4020705 1.6567633 -0.77673054 0
-4.4284344 1.2989949 1.1966302 0
-4.4033794 -1.6569138 -0.7769866 0
-4.4248557 1.7489882 0.31713331 0
-4.418334 -0.68995601 1.6627009 0
-4.4310379 1.481553 0.9678905 0
-4.4029937 -1.8357747 0.10025382 0
-4.4383898 1.5606241 0.80423188 0
-4.42203 1.1265498 1.402607 0
-2.6987486 -3.812983 -0.99036193 0
-4.4266491 1.6891204 0.60176516 0
-4.4066167 -1.5682404 0.96646774 0
-4.4076452 -1.836445 -0.11800551 0
-4.4422703 1.7512438 -0.11999649 0
-4.4166336 -1.3915974 1.1839969 0
-4.439827 0.81224656 1.5732327 0
-4.4055338 -1.4183242 1.1978195 0
-4.4221992 1.6590782 0.75095463 0
-4.420032 1.7483633 0.53418171 0
-4.4054852 -0.026159108 1.8630571 0
-4.4189758 -1.2959064 1.2937634 0
-4.4205036 1.3918748 1.1844733 0
-4.4307404 0.69211304 1.6650734 0
-2.6408534 -3.8653176 -0.98506391 0
-4.439568 1.7508937 -0.33981436 0
-4.4216795 0.92795354 1.5743799 0
-4.4317598 1.4277279 1.1009779 0
-4.4331112 1.5585585 0.90393209 0
-4.3130865 1.8228178 -0.98699319 0
-4.4014239 -0.94998366 1.620131 0
-4.4082098 -1.8365264 0.31721401 0
-4.4139109 -1.2145581 1.4018204 0
-4.4111953 1.8369566 0.31716144 0
-4.4113102 -1.6826051 0.8037436 0
-4.4264736 1.689046 0.70267868 0
-4.4015517 -1.043651 1.5757618 0
-4.4243641 1.7489243 -0.55933768 0
-4.3929925 -1.7448606 -0.77705717 0
-4.422349 1.838564 0.099228978 0
-4.412694 0.027303517 1.8647423 0
-4.3988066 -1.5451355 1.1014605 0
-4.411696 -1.8370287 -0.33785725 0
-4.4322777 1.1749558 1.3893075 0
-4.4075422 -0.95001632 1.6213202 0
-4.3938456 -1.3017576 1.399338 0
-4.4072795 0.33169293 1.8528509 0
-4.4214487 1.5539953 1.0032089 0
-4.4148622 -0.15230644 1.8593225 0
-4.3215899 -1.8240433 -0.9889766 0
-4.4359121 1.0527259 1.4834166 0
-4.4221482 0.80864751 1.6675539 0
-4.3905859 -1.9237938 -0.11767399 0
-4.4077616 -1.1677225 1.4839573 0
-2.6507192 3.8718777 -0.98823845 0
-4.4192038 0.061889291 1.8631454 0
-4.4279976 1.839378 -0.1198045 0
-4.407176 -1.4794986 1.1836879 0
-4.4121041 -0.33120793 1.8539705 0
-4.4061007 -1.7465587 0.75067365 0
-4.4154325 0.95001632 1.6228538 0
-4.3992758 -1.8352388 -0.55725378 0
-4.2919898 1.9081413 -0.98512673 0
-4.4001207 -0.38959688 1.877368 0
-4.4274321 -0.80972314 1.6685698 0
-4.4356489 1.3013504 1.2954016 0
-4.4220996 1.6871879 0.80347097 0
-4.4203138 -0.24113864 1.8580828 0
-4.4230146 0.15125042 1.8612204 0
-4.4242921 -0.061155915 1.8643322 0
-4.4207697 0.11924583 1.8700597 0
-4.4102035 -1.2930422 1.39094 0
-4.4260159 1.4256685 1.199342 0
-4.4025517 -1.4172548 1.2959843 0
-4.4120188 -0.42008436 1.8520446 0
-4.4353051 1.5711243 0.96899033 0
-4.4257331 1.8390517 -0.3395986 0
-4.4132748 -0.30043906 1.8760984 0
-4.4218359 0.94998366 1.6240985 0
-4.4104733 -0.92533529 1.6700995 0
-4.4097886 -1.8367538 0.53421366 0
-4.4261551 0.24046683 1.8594403 0
-4.4049592 -1.0380206 1.6209407 0
-4.4345832 1.2154464 1.4050977 0
-4.4124269 -1.6830796 0.90393293 0
-2.5959158 -3.9258702 -0.98416555 0
-4.4057479 -1.9262009 0.099401593 0
-4.3963723 -1.9247124 0.31718791 0
-4.3024449 -1.909801 -0.98757064 0
-4.4254317 -0.21123499 1.8748982 0
-4.4311757 -0.12105089 1.872498 0
-4.3979173 -1.9249576 -0.33780092 0
-4.4131308 -1.6580353 0.9678762 0
-4.4133549 0.39248246 1.8804951 0
-4.4138255 1.0381476 1.6226642 0
-4.4051409 -1.8156222 0.70120573 0
-4.4180031 -1.8215266 0.59857702 0
-4.2724986 1.9935265 -0.98391759 0
-4.4285421 1.1738538 1.4870033 0
-4.425405 0.30290276 1.8789561 0
-4.4222064 0.92807662 1.6723697 0
-4.3998671 -1.1653932 1.5808835 0
-4.3964605 -1.3901513 1.4006524 0
-4.4299116 1.481456 1.1864898 0
-4.4043484 -1.6796479 1.0039461 0
-4.4205141 1.6588844 0.96852636 0
-4.420785 -0.50810504 1.8524642 0
-4.3925977 -1.4136858 1.393563 0
-4.3886118 -1.9234804 0.5340749 0
-4.4317946 1.0516385 1.5809045 0
-4.4227033 0.50796747 1.8529081 0
-4.4307261 1.7497485 0.75197494 0
-4.4129314 -0.48498732 1.8850989 0
-4.4268723 1.6892153 0.90393341 0
-4.4081144 -1.5487775 1.2011926 0
-4.4154325 -0.59700513 1.8499098 0
-4.4156489 0.59699273 1.8499599 0
-4.4064412 -1.5682228 1.1846101 0
-4.4392242 0.21383137 1.8781385 0
-4.4327092 1.3003906 1.3937082 0
-4.428997 1.3037723 1.4049146 0
-4.4349689 0.41810858 1.8573627 0
-2.6117358 3.9367194 -0.98930562 0
-4.4280243 1.8261269 0.59780622 0
-4.4334555 1.5586933 1.1031947 0
-4.3986292 -1.8351457 -0.78052175 0
-4.403966 -1.8150828 0.80265486 0
-4.410964 -0.68556845 1.8478556 0
-4.4341645 1.7501938 -0.78512704 0
-4.4209771 0.4868626 1.8870063 0
-4.436038 1.8405368 0.53467655 0
-4.4119663 -1.2936177 1.4897742 0
-4.4334888 1.8401694 -0.56272864 0
-4.4111533 -1.1262383 1.6225126 0
-4.2893381 -1.9964476 -0.9878633 0
-4.4308286 1.9301825 0.098070621 0
-2.5511951 3.9864779 -0.98361242 0
-4.4135785 1.0468274 1.6761949 0
-4.4190192 1.5694872 1.1861625 0
-4.4062767 1.7465814 0.96822107 0
-4.4250908 1.9292716 0.31668031 0
-4.4342189 1.9307207 -0.12153918 0
-4.416388 -0.5790624 1.8909564 0
-4.4168067 -1.04768 1.6768241 0
-4.3997931 -2.0156071 -0.11978483 0
-4.4392872 1.4304271 1.2996292 0
-4.3927016 -2.0143771 0.31699467 0
-4.4235229 1.1723728 1.5849385 0
-4.3935051 -1.9491299 0.59628534 0
-4.4271727 1.689343 1.004524 0
-4.4180703 -1.8379474 0.75194442 0
-4.4024434 -1.5465585 1.3002141 0
-4.4231896 1.2972823 1.4914341 0
-2.5608497 -3.993304 -0.98678064 0
-4.4064298 -2.0167584 0.098588705 0
-4.4162946 -1.747879 0.96910477 0
-4.4130187 -1.9273551 -0.56159043 0
-4.4312143 1.5578164 1.2029283 0
-4.420836 1.822827 0.80222332 0
-4.4120431 -1.6829164 1.1044579 0
-4.3981452 -2.0153213 -0.33964658 0
-4.4363689 1.931062 -0.34258133 0
-4.3937311 -1.4140921 1.4928367 0
-4.4182353 -0.77355886 1.8488064 0
-4.4299998 0.58244115 1.8941944 0
-4.415792 1.6845088 1.1046476 0
-4.4169979 -0.67315763 1.8964775 0
-4.4344983 0.6845572 1.8532939 0
-4.4330554 1.3927746 1.4064634 0
-4.4044275 -0.76430744 1.8991838 0
-4.4356976 1.1269412 1.6272855 0
-4.4096518 0.86191219 1.8463874 0
-4.4283924 1.4265207 1.3980095 0
-4.4101543 -1.6576929 1.1862404 0
-4.4064527 -1.1673363 1.6810145 0
-4.4100652 -1.4797474 1.4039166 0
-4.4111338 -0.86189097 1.8467293 0
-4.423151 0.67477888 1.8979464 0
-4.4162807 -1.8207361 0.9039346 0
-4.4186568 -1.2147621 1.6245856 0
-4.3959622 -1.9246473 -0.78261387 0
-4.4316902 1.9303193 0.53483617 0
-4.2814202 2.084126 -0.98966682 0
-4.4214506 1.5539958 1.3021204 0
-4.4120636 1.1689918 1.682117 0
-4.4505529 1.8364688 0.69887936 0
-4.4341731 1.8402679 -0.78750205 0
-4.4322858 0.77315652 1.8520517 0
-4.2834363 -2.0845056 -0.99014044 0
-4.4011278 -0.94998366 1.8442738 0
-4.4049082 -1.6798859 1.2044501 0
-4.4229941 1.2149484 1.6254296 0
-4.4015155 -1.8355615 0.96886361 0
-4.401937 -0.95001632 1.8444605 0
-4.2448673 2.166235 -0.98502481 0
-4.4150028 -1.2946093 1.5895646 0
-4.4335885 1.9306207 -0.56488913 0
-4.4290838 2.0206881 0.097383738 0
-4.4010553 -1.5460155 1.3999209 0
-4.4092865 -1.9267626 0.75218618 0
-4.4243932 1.8244599 0.90393484 0
-2.5152664 4.0534387 -0.98625469 0
-4.4466972 1.8420728 0.75346017 0
-4.4001498 -2.0156691 -0.56187165 0
-4.393661 -1.7449473 1.1855304 0
-4.4352503 2.0217576 -0.12293327 0
-4.4081006 -2.0170481 0.5346781 0
-4.4125109 -1.958524 0.69803369 0
-4.4133577 -1.8193942 1.0054545 0
-4.2581954 -2.168942 -0.98816466 0
-2.5226483 -4.0588179 -0.98870206 0
-4.4325552 1.6602693 1.1890092 0
-4.4031935 -1.5678964 1.40413 0
-4.4282589 0.77095264 1.9048953 0
-4.4108553 -0.063092351 2.0917611 0
-4.416451 1.9604714 0.69782901 0
-4.4021306 -1.9533932 0.80130982 0
-4.4303608 1.2996237 1.5922208 0
-4.4358273 1.4819653 1.4080119 0
-4.4131641 -0.86209792 1.9073424 0
-4.411911 -0.027179241 2.0956621 0
-4.4048114 -2.1073534 -0.12164533 0
-4.4353647 2.0217774 0.31623888 0
-4.4205008 0.94998366 1.8487463 0
-4.4184327 -1.3031669 1.6254027 0
-4.4114347 -0.24215978 2.0857508 0
-4.4275813 1.4262297 1.4978924 0
-4.3792901 -2.1025491 0.53444874 0
-4.4362621 2.0219331 -0.34439665 0
-4.4162116 -0.15213168 2.0899489 0
-4.4240422 0.95001638 1.8495641 0
-4.4132175 -0.11793584 2.0999923 0
-4.4031315 -1.2907331 1.6873159 0
-4.4167814 0.027952433 2.0969834 0
-4.4232006 1.3034401 1.6263311 0
-4.4114032 0.33127838 2.083184 0
-4.3982482 -1.3902794 1.6225772 0
-4.4099636 -0.2083233 2.1034446 0
-4.4265938 1.8391757 0.9710803 0
-4.4046021 -1.8153747 1.1066358 0
-4.4304309 1.9301193 0.75330806 0
-4.4132977 -0.33108795 2.083694 0
-4.4256687 1.9293633 -0.78846049 0
-4.3937769 -1.5431674 1.4992127 0
-4.4305658 1.6907842 1.2064006 0
-4.4227619 1.5545089 1.4026463 0
-4.4155889 -2.1093822 0.097252369 0
-4.4232078 0.86505407 1.9097595 0
-4.408 -1.6811991 1.305445 0
-4.3952489 -1.9245341 0.96948695 0
-4.4070849 -2.1077814 0.31645751 0
-4.4059868 -1.4184866 1.5947611 0
-4.4237809 0.15115118 2.091994 0
-4.2333879 -2.2532406 -0.98657036 0
-4.4416828 1.9729424 0.59252834 0
-4.3885007 -2.0893202 0.59212804 0
-4.402422 -0.39009863 2.1111593 0
-4.4297762 2.0208082 0.53506207 0
-4.4083014 -2.1080103 -0.34289908 0
-4.4152045 0.41981006 2.0819943 0
-2.470736 4.1143126 -0.98636258 0
-4.2374887 2.2541349 -0.98753941 0
-4.4307289 0.060228288 2.0971413 0
-4.404758 -2.0164683 0.75272226 0
-4.4154429 -0.30087942 2.1096478 0
-4.4269185 0.12031251 2.1037183 0
-4.4315348 2.0211132 -0.56691682 0
-4.4243283 0.21102732 2.1073608 0
-4.4393864 1.8313426 1.0061221 0
-4.4149852 -0.9588235 1.9142036 0
-4.4325891 0.23972684 2.0914564 0
-4.4154639 0.95897192 1.9143193 0
-4.4204988 0.30190629 2.1110301 0
-4.4094467 -1.9570094 0.90393615 0
-2.4779992 -4.1197662 -0.98879623 0
-4.4262481 -1.0383254 1.8502192 0
-4.4064188 -2.0167565 -0.78755271 0
-4.4302135 1.7496821 1.1900561 0
-4.4280548 1.0383513 1.8506365 0
-4.4253216 2.1112142 0.3161335 0
-4.4259224 1.8251619 1.1077292 0
-4.4038568 -1.8150327 1.2082045 0
-4.4225063 -0.5079816 2.082087 0
-4.4300866 -0.41852891 2.0859966 0
-4.4353881 2.1131091 -0.12436742 0
-4.3926716 -2.0915329 0.6960324 0
-4.4366851 2.1133533 0.096127391 0
-4.4253006 1.4254118 1.5981345 0
-4.4044785 0.68584704 2.0745363 0
-4.415669 -0.59699154 2.0787234 0
-4.4287491 1.6900123 1.3075504 0
-4.4303603 1.2996236 1.6927128 0
-4.411561 0.48466784 2.1191239 0
-4.4349403 1.9696099 0.80045891 0
-4.4164929 -1.1263913 1.8484039 0
-4.4275928 1.392383 1.6282959 0
-4.2133827 -2.3384743 -0.98639476 0
-2.4181156 -4.1689634 -0.98402488 0
-4.4274602 0.50762653 2.0834177 0
-4.4146199 -1.6582066 1.4074619 0
-4.40797 -1.0535855 1.9192867 0
-4.4167051 -0.48586696 2.1205392 0
-4.2181635 2.3395884 -0.98752797 0
-4.4473166 1.5723319 1.4111536 0
-4.4047017 -2.1986978 0.096913576 0
-4.4111404 -1.8369486 1.1891882 0
-4.4094925 -1.681833 1.4068336 0
-4.4140334 -2.1090894 -0.56666875 0
-4.4353361 2.1130996 -0.34627682 0
-4.4262476 1.9653133 0.90393662 0
-4.4162712 2.1095107 -0.56702936 0
-4.4304299 2.0209215 0.75408781 0
-4.4321709 0.3965854 2.119318 0
-4.4278975 0.59629071 2.0820055 0
-4.4010258 -2.1979513 0.31625903 0
-4.410923 -1.9577392 1.0067906 0
-4.418129 -0.68526053 2.0781975 0
-4.407269 -1.2142727 1.8470018 0
-4.4292636 1.1267569 1.8513536 0
-4.1823845 2.420975 -0.98389304 0
-4.4120059 -2.2001812 -0.12382257 0
-2.4288983 4.1773033 -0.98767745 0
-4.4178658 1.0568087 1.9216893 0
-4.402585 -2.1982679 -0.3443383 0
-4.4149365 -0.57870203 2.1258986 0
-4.396524 -1.1475198 1.9236436 0
-4.4357677 1.9309666 0.97307634 0
-4.3964949 -2.0935609 0.79994059 0
-4.3987641 -2.106215 0.75325024 0
-4.4107265 -0.77377385 2.0753665 0
-4.4326034 2.0212986 -0.79271865 0
-4.4120064 -1.420645 1.6968291 0
-4.4174223 0.57931918 2.126585 0
-4.419611 -1.4805692 1.6280973 0
-4.4203587 1.4806336 1.628243 0
-4.4190221 2.2016063 -0.12444896 0
-4.4008927 -1.7458841 1.4069891 0
-4.3977475 -2.1060236 -0.78898203 0
-4.4380827 1.560504 1.5059018 0
-4.4035864 -2.0162652 0.97152162 0
-4.4083595 -1.5488733 1.6026514 0
-4.4239631 1.6879795 1.4086719 0
-4.4312539 1.8398473 1.1916833 0
-4.4253621 2.202894 0.095808744 0
-4.4379163 2.1135852 0.53549004 0
-4.4398575 1.661109 1.4114854 0
-4.406209 -1.9554089 1.1095116 0
-4.4343462 2.1136405 0.58850002 0
-4.3867154 -2.2866738 0.09688592 0
-4.4143991 -0.67247277 2.1319871 0
-4.423583 1.424796 1.6991463 0
-4.4118032 -1.8186806 1.3109596 0
-4.4018869 -2.1981261 0.53515625 0
-4.395658 -2.0931172 0.90393758 0
-4.2022882 -2.4259157 -0.98862767 0
-4.4311786 1.2153001 1.8525267 0
-4.4067373 -1.9263579 1.1902974 0
-4.4097738 -1.6819525 1.5086663 0
-4.1605463 2.5055869 -0.98385048 0
-4.4216385 0.67438024 2.1339929 0
-4.4022727 -0.94998366 2.0724254 0
-2.3807302 -4.2354507 -0.9871459 0
-2.3814659 4.2360368 -0.98739803 0
-4.4037938 -0.95001632 2.0728331 0
-4.4082818 -2.199425 -0.56852216 0
-4.4458861 1.8343264 1.2114401 0
-4.4212422 -0.86174625 2.0776777 0
-4.3991814 -2.289392 -0.12433285 0
-4.4106402 -0.76603979 2.1375761 0
-4.4163561 -1.5692195 1.6290681 0
-4.4297209 1.557232 1.6064229 0
-4.4254413 1.749064 1.4109097 0
-4.4184518 1.5694301 1.6294775 0
-4.4430575 1.973622 1.0076261 0
-4.4402609 0.77292812 2.0832834 0
-4.4020395 -1.9533482 1.2122531 0
-4.3927169 -2.1050766 0.97196853 0
-4.4280214 1.1582799 1.9313281 0
-4.4379029 2.205441 -0.34876329 0
-4.4276075 2.1100657 0.79912174 0
-4.4421072 2.1177578 0.69342721 0
-4.4318461 1.8278812 1.3130193 0
-4.4288745 2.1118832 -0.79513884 0
-4.4356813 2.1131644 0.75521898 0
-4.1763411 -2.5097487 -0.98762143 0
-4.4015174 -2.2899013 0.31591988 0
-4.4072757 -1.8166021 1.4129653 0
-4.444736 2.2068288 0.31548047 0
-4.4079103 -1.2502146 1.9339502 0
-4.4027252 -1.835736 1.4092057 0
-4.4385953 2.0223379 0.97463012 0
-4.4024553 -2.2901058 -0.34664619 0
-4.4012747 -2.1980019 0.7543031 0
-4.4035602 -2.2449462 0.58596873 0
-4.4316654 1.6912513 1.5120103 0
-4.4040117 -1.6569865 1.6285102 0
-4.4029284 -2.0969739 1.0081043 0
-4.4417496 0.8614527 2.083173 0
-4.3971729 -2.0151527 1.1909254 0
-4.4113574 -1.3912191 1.850282 0
-4.4364457 -1.3041992 1.854769 0
-4.4367428 2.2052054 0.53577709 0
-4.4105306 -1.0381004 2.0748072 0
-4.4178357 -1.5525814 1.7065837 0
-4.4404049 1.9723108 1.1112895 0
-4.4290619 0.9499836 2.0796037 0
-4.4390826 1.3043504 1.8553789 0
-4.3968019 -2.2888732 0.53539574 0
-4.4166098 0.86311215 2.1462793 0
-4.4039631 -2.1985478 -0.7936213 0
-2.3332973 4.294148 -0.98714972 0
-4.425858 2.2952089 0.094786406 0
-2.3340058 -4.2947292 -0.98739529 0
-4.4095678 -1.6818649 1.611095 0
-4.394567 -2.2883859 -0.56929976 0
-4.4408746 1.9317772 1.1945415 0
-4.1479335 2.5927846 -0.98630846 0
-4.4388556 0.7739076 2.1454248 0
-4.42488 1.9646375 1.214036 0
-4.4364643 0.95001638 2.0815868 0
-4.4017282 -1.9531944 1.315515 0
-4.3867364 -1.9231827 1.4087756 0
-4.441864 2.2062457 -0.57394964 0
-4.4229989 1.3920537 1.8529766 0
-4.4062147 -2.2464538 0.69200838 0
-4.3881254 -1.7442303 1.6275029 0
-4.4281659 1.8261919 1.4156532 0
-4.3932104 -2.2390695 0.79837918 0
-4.4255362 -0.86573941 2.1487727 0
-4.4365358 2.1148024 0.90393889 0
-4.1572189 -2.5953739 -0.98853397 0
-4.4322844 1.5582352 1.709507 0
-4.4012222 -2.0960689 1.1122942 0
-4.4259911 1.6595143 1.6328106 0
-4.4404035 2.2983804 -0.12802404 0
-4.4072714 -1.3497975 1.9417095 0
-4.4288888 1.0383632 2.0797267 0
-4.4068966 -1.4794747 1.8508577 0
-4.426425 1.6890254 1.6141062 0
-4.4159279 -0.95911568 2.1535444 0
-4.4239616 2.2026095 -0.79758799 0
-4.1160569 -2.6746485 -0.98444045 0
-4.4346938 2.2971354 -0.35069758 0
-4.4334807 2.1127501 0.9755975 0
-4.4306526 2.26033 0.58379066 0
-4.4394145 2.2981648 0.31524289 0
-4.4040031 -2.3829062 -0.12654459 0
-4.3927751 -2.2879951 0.75483894 0
-4.3972025 -2.381321 0.31564224 0
-4.1209517 2.6760893 -0.98561847 0
-4.4437337 1.2630279 1.9427338 0
-2.2836051 4.3509574 -0.98665404 0
-4.4425149 1.8414701 1.4155729 0
-4.4172401 -1.8211763 1.5175376 0
-4.4101849 -2.3843472 0.094559669 0
-4.3990107 -2.3817425 -0.34870934 0
-4.4047174 -1.6798047 1.7133496 0
-4.4236608 1.1265965 2.0788336 0
-4.3960638 -2.2406895 0.9039396 0
-4.4048295 -1.0525625 2.1582947 0
-4.395637 -2.1056263 1.1927166 0
-4.4342833 2.02159 1.19555 0
-2.2884698 -4.3550658 -0.98836029 0
-4.4049778 -1.2141744 2.0746703 0
-4.4302077 2.2961574 0.5359925 0
-4.4439754 2.2066746 0.75658655 0
-4.4303341 0.96358091 2.1575859 0
-4.4293175 -1.1267585 2.0803499 0
-4.391726 -2.3800445 0.53565955 0
-4.4101701 -2.1998084 0.97505856 0
-4.4050288 -1.9548259 1.419682 0
-4.3891673 -2.3794482 -0.57163906 0
-4.430182 1.3583641 1.9473565 0
-4.4452205 2.1194093 1.0092204 0
-4.4044962 -1.5680273 1.8522053 0
-4.405551 -2.2907808 -0.79761755 0
-4.4252486 2.3878584 0.093749046 0
-4.4357109 1.969991 1.3190556 0
-4.4051633 -1.4498606 1.9495006 0
-4.4355903 1.4819449 1.8575068 0
-4.3961139 -1.1473796 2.1641204 0
-4.0922818 -2.7588 -0.98480511 0
-4.406301 -1.8161547 1.6195269 0
-4.4212761 1.0579195 2.1629293 0
-4.4421196 2.2987547 -0.57700825 0
-2.2310195 -4.4052019 -0.98541176 0
-4.3949962 -2.014775 1.4124432 0
-4.4318604 1.9303463 1.4160118 0
-4.4129572 -2.102294 1.2176847 0
-4.3835473 -2.3853388 0.68964529 0
-4.0989537 2.7608678 -0.98641765 0
-4.4420218 1.8325524 1.5213711 0
-4.4359775 2.3903592 -0.129417 0
-4.3989687 -2.3946903 0.58094585 0
-4.4292965 2.3888018 0.31506705 0
-4.4033799 -1.8358302 1.6328545 0
-4.4492769 2.2709055 0.68970299 0
-4.406929 -1.3025074 2.0763776 0
-4.3934922 -2.4733789 -0.1275025 0
-2.2382855 4.4115186 -0.98799145 0
-4.4044123 -2.24543 1.0098002 0
-4.388072 -2.4720333 0.31542671 0
-4.4336495 1.2154063 2.0823598 0
-4.4332223 1.6919124 1.7191846 0
-4.4264965 1.9654366 1.422482 0
-4.3988562 -2.4747105 0.09402895 0
-4.4351902 2.2048903 0.9772923 0
-4.4443636 1.7515149 1.638526 0
-4.4279122 1.5703812 1.8576384 0
-4.4357305 2.2973616 0.75714302 0
-4.4051223 -1.954872 1.5240862 0
-4.3931408 -2.2390296 1.1151712 0
-4.4511738 2.1225674 1.1149299 0
-4.4472942 2.2697797 0.79693317 0
-4.4326167 2.2966826 -0.80300212 0
-4.4067273 -2.0989892 1.3221395 0
-2.1775208 -4.4584718 -0.98410261 0
-4.4063005 -1.6572497 1.8548265 0
-4.4052758 -2.2907209 0.97627854 0
-4.3895354 -2.3889699 0.79668844 0
-4.0692897 2.8432727 -0.98565328 0
-4.4010711 -2.3822229 0.7563498 0
-4.069767 -2.8434281 -0.98576915 0
-2.1800189 4.4607072 -0.98500097 0
-4.4324722 1.8281687 1.6242614 0
-4.4352303 2.1141098 1.2194488 0
-4.441052 2.1141753 1.198391 0
-4.4478312 2.3931222 -0.35486448 0
-4.4254646 1.1574063 2.1724312 0
-4.4293594 1.3037931 2.0823977 0
-4.404635 -2.4761448 -0.35209286 0
-4.429944 2.3889527 -0.57827055 0
-4.4056873 -1.8158729 1.7238779 0
-4.408967 -1.5533926 1.9591665 0
-4.4030104 -2.3826747 -0.80106616 0
-4.4093695 -2.199646 1.1965883 0
-4.4118719 -1.391256 2.0792301 0
-4.3989835 -1.9251269 1.6346083 0
-4.391582 -2.4729047 -0.57547414 0
-4.4233189 2.4807827 -0.13019121 0
-4.4212289 1.6589665 1.8582954 0
-4.4479399 2.2701461 0.90394127 0
-4.4368315 1.8406512 1.6394241 0
-4.4485679 1.4668019 1.9602575 0
-4.4468784 2.3929 0.53664804 0
-4.4386916 2.0223546 1.419467 0
-4.4157929 -1.2530341 2.1784418 0
-4.401824 -2.106791 1.416101 0
-4.0375814 2.9248979 -0.98467326 0
-4.4342923 2.416111 0.57805777 0
-4.428947 2.2958825 0.97839808 0
-4.4379363 2.264466 1.0106988 0
-4.3884645 -2.3792841 0.97654867 0
-4.4115338 -2.4778574 0.53639507 0
-4.4270325 2.2032332 1.1988013 0
-4.4409075 2.4851489 0.091758251 0
-4.3971443 -1.3460112 2.1823072 0
-4.3996143 -2.395082 0.90394187 0
-4.4292622 2.4130607 0.68715632 0
-4.4054976 -1.4793543 2.0793839 0
-2.1308355 -4.5178475 -0.98553407 0
-4.4383392 2.1157589 1.3254817 0
-4.4133911 -2.1025243 1.428427 0
-4.3967953 -2.5678344 -0.12983078 0
-4.4348035 1.3928999 2.0853903 0
-4.4123497 -1.9584444 1.6304896 0
-4.4070406 -2.2469223 1.2221923 0
-4.3908329 -2.4727187 0.75693774 0
-4.4001203 -2.5687106 0.092743635 0
-4.0512629 -2.9295719 -0.98801124 0
-4.4432983 1.9737411 1.5300734 0
-4.4130936 -1.7474644 1.8589108 0
-4.4316406 1.2587025 2.1829515 0
-4.438797 2.3910162 0.75837982 0
-4.4195142 2.110121 1.418952 0
-4.391427 -2.0908725 1.5310905 0
-4.4388275 1.5655429 1.966609 0
-4.4365144 1.8300242 1.730269 0
-2.1386027 4.5250001 -0.98836327 0
-4.4350047 2.2628014 1.1174152 0
-4.4451952 2.4862132 0.31439936 0
-4.3920698 -2.4730258 -0.80310774 0
-4.3995132 -2.5685506 0.31481564 0
-4.4106965 -1.6573684 1.9687414 0
-4.4040461 -2.2904527 1.198246 0
-4.3995242 -2.5685534 -0.35429722 0
-4.4256554 2.4813628 -0.58103466 0
-4.423069 1.7487566 1.861233 0
-4.4469829 2.4866569 -0.35745031 0
-4.4233093 1.4808877 2.0841742 0
-4.3974648 -2.2414849 1.3277864 0
-4.3984914 -1.5674236 2.0797067 0
-4.4443321 2.3923066 -0.80931354 0
-4.4368887 2.4176855 0.79540086 0
-4.3879642 -2.5655077 -0.57855451 0
-4.4213605 1.3550658 2.1892347 0
-4.4313755 1.9678478 1.6339788 0
-4.0177522 -3.0106618 -0.98688674 0
-4.4465575 1.9326794 1.6439717 0
-4.3976665 -2.568064 0.53655088 0
-4.4448619 2.4861305 0.53699458 0
-4.4102812 -2.4015505 1.0117602 0
-4.4279413 2.4122596 0.90394282 0
-4.4402332 2.1167636 1.4319799 0
-2.0825591 4.5759473 -0.98670936 0
-4.4143639 -2.0181346 1.6405201 0
-4.4067068 -1.9556551 1.7353821 0
-4.407217 -1.8363832 1.8603492 0
-4.027524 3.0141573 -0.98928285 0
-4.3947783 -2.3921494 1.1188502 0
-4.4084539 -2.19946 1.41995 0
-4.4023619 -1.4487672 2.1934404 0
-2.0856919 -4.5789161 -0.98786581 0
-4.4326682 2.5772865 -0.13307637 0
-4.3983636 -2.5520473 0.68494117 0
-4.428627 2.4821005 0.75897849 0
-4.3894987 -2.6601446 0.092026949 0
-4.4393296 2.5790417 0.09061861 0
-4.4397368 2.3912354 0.98115468 0
-4.3961954 -2.2407644 1.4344442 0
-4.4224119 1.838573 1.8638935 0
-4.387167 -2.6594942 0.31460822 0
-4.3846245 -2.6587853 -0.35543096 0
-4.4464278 2.2692876 1.2253613 0
-4.4405432 2.2984109 1.2028327 0
-3.9883046 3.0931418 -0.98704326 0
-4.3983326 -2.6626079 -0.13213056 0
-4.4250479 2.2028301 1.4226317 0
-4.4312553 1.5707172 2.0885301 0
-4.3934464 -2.5669522 0.75829458 0
-4.4320536 2.1124246 1.5375564 0
-4.4413028 2.5795615 0.31406128 0
-4.4374857 2.0221455 1.6450815 0
-4.4044333 -2.4760947 0.97988868 0
-4.4123669 -1.7626369 1.9787364 0
-4.4021869 -2.3824828 1.2005095 0
-4.4484553 1.6733661 1.9782088 0
-4.4062572 -1.6572448 2.0843544 0
-4.4411693 2.5795262 -0.35958511 0
-4.4360604 2.4839456 -0.81191802 0
-4.3999596 -2.5530787 0.79445779 0
-4.4305487 2.2602713 1.3313401 0
-4.4034219 -2.1070919 1.6415043 0
-4.4075785 -2.0994408 1.6403608 0
-4.4241943 2.5750537 -0.58448863 0
-2.031662 -4.6316881 -0.98722923 0
-4.3964787 -2.3931804 1.2267356 0
-4.4330797 2.5773947 0.53719008 0
-4.3964868 -2.2888045 1.421011 0
-4.4355297 1.9699013 1.7414398 0
-4.4060159 -1.9262433 1.8631811 0
-4.0021491 -3.0983186 -0.99045563 0
-2.0395479 4.6393785 -0.99018085 0
-3.9529634 3.1733613 -0.98603165 0
-4.4050856 -1.5518134 2.2043419 0
-4.3983059 -2.5520098 0.90394425 0
-4.3904505 -2.0903544 1.7442274 0
-3.9552498 -3.1742539 -0.98659837 0
-4.4490795 2.4250779 1.0128179 0
-4.4393396 1.4631999 2.2040768 0
-4.40903 -2.571058 -0.81102479 0
-4.4215045 2.1104958 1.645081 0
-4.4308333 2.4140134 1.1208158 0
-4.3983884 -2.6626234 0.53699505 0
-4.3934255 -2.6612396 -0.58335745 0
-4.4337435 1.7720566 1.9841294 0
-4.3847327 -2.5646563 0.98013937 0
-4.4254274 1.9293251 1.8677187 0
-4.4023209 -1.863925 1.9862037 0
-4.4318366 2.3893938 1.204248 0
-4.4350424 1.6605552 2.0921183 0
-4.4327707 2.1128051 1.6450496 0
-4.4377031 2.4843535 0.98288774 0
-4.3960967 -2.3929489 1.3348379 0
-1.9785123 -4.6852684 -0.98720241 0
-4.437922 2.6736472 0.089392304 0
-4.4090886 -1.7469456 2.0880246 0
-3.9137936 3.2519071 -0.98434544 0
-1.9815445 4.6883116 -0.98835349 0
-4.4447832 2.5820506 0.68236804 0
-4.3989463 -2.0154603 1.8649461 0
-4.3962216 -2.4740565 1.2024283 0
-4.4383059 2.2646756 1.4401066 0
-4.4013453 -2.1980162 1.6445022 0
-4.3936725 -1.6501555 2.2116237 0
-4.4287806 2.295846 1.4262457 0
-4.4379764 2.578685 0.76070786 0
-4.4273639 1.5608783 2.2107868 0
-4.4333835 2.6723816 -0.36164623 0
-4.3846121 -2.2341869 1.6477132 0
-4.4024282 -2.5546744 1.0134995 0
-4.3853827 -2.7539208 -0.35873854 0
-4.4154625 -2.2517047 1.5449362 0
-4.4378347 2.5775595 0.79340923 0
-4.4489107 2.6767113 -0.13672435 0
-4.4353256 2.5779865 -0.81631064 0
-4.389895 -1.8338869 2.0860868 0
-4.4002585 -2.7582994 -0.13459897 0
-1.914964 -4.728128 -0.98346305 0
-3.9278231 -3.2576156 -0.9878422 0
-4.4226513 2.669389 -0.58816302 0
-4.400507 -2.6632142 0.75997198 0
-4.3988209 -2.3816981 1.4246089 0
-4.409306 -2.7609622 0.089573383 0
-4.4323287 2.6720877 0.53761005 0
-4.451817 2.6775219 0.31343675 0
-4.3918571 -2.7112577 0.68108034 0
-4.436655 1.7505164 2.0954723 0
-4.4077301 -2.7604985 0.31377745 0
-4.4045963 -2.6643543 -0.81493902 0
-4.4032564 -2.5552099 1.1232195 0
-4.4408541 2.5795112 0.90394568 0
-4.4377489 1.8801465 1.9951994 0
-4.3956451 -2.7569416 0.53740251 0
-4.3908701 -2.7555361 -0.58708286 0
-4.385747 -2.5438921 1.2316961 0
-4.451952 2.4268198 1.2312746 0
-4.4038239 -2.3976345 1.4444997 0
-4.4387083 2.2649043 1.5486946 0
-4.4250054 2.7655833 -0.1368559 0
-4.423172 1.6626542 2.2202082 0
-4.4276533 2.7663624 0.088571072 0
-4.3934088 -2.7123251 0.79253006 0
-1.935699 4.7495422 -0.99144995 0
-4.4360967 2.5781896 0.98478651 0
-4.4427137 2.1180797 1.7553742 0
-3.896255 3.3394098 -0.98835349 0
-4.4281645 2.6709266 0.76147676 0
-4.4221563 1.8385363 2.0948205 0
-4.4006991 -2.2897229 1.6480522 0
-4.4418263 2.206238 1.6525314 0
-1.8647101 -4.7845564 -0.98510265 0
-4.438457 2.4186363 1.3394649 0
-3.899591 -3.3408232 -0.98918998 0
-4.4109368 -1.9751303 1.9988613 0
-4.3945799 -2.6615615 0.98318958 0
-4.3971534 -2.5679288 1.2053962 0
-1.8687012 4.7887979 -0.98666322 0
-4.4126973 -2.1088378 1.8719068 0
-4.4032316 -1.7586112 2.2255034 0
-4.452251 2.0247066 1.8774362 0
-4.4388614 2.7696614 0.31321096 0
-3.8516407 -3.415544 -0.9858712 0
-4.4524536 2.4880149 1.2095423 0
-4.4400735 2.3913138 1.4313178 0
-4.4476552 2.5839071 1.0147545 0
-4.4194131 2.7639372 -0.59179544 0
-4.4008603 -2.8544455 0.088580132 0
-4.3979616 -2.7154562 0.90394688 0
-4.4011731 -2.8545425 -0.13711089 0
-4.4017529 -2.4754295 1.428534 0
-4.4358764 2.2632961 1.6574056 0
-4.406167 -2.2464266 1.7609763 0
-4.3935566 -2.8521817 -0.3631888 0
-4.4434485 2.6751883 -0.8227793 0
-4.4304299 2.7377884 0.67890096 0
-4.4062972 -2.3991344 1.5543182 0
-4.4333963 2.4155674 1.4485438 0
-4.3986788 -2.8537693 0.31345785 0
-4.3929234 -2.5485308 1.3422997 0
-4.4145842 -1.9276036 2.0963874 0
-4.4508452 2.7731888 -0.36711729 0
-4.4377799 2.7693431 0.53816915 0
-4.4364843 1.9872727 2.0053918 0
-4.442275 2.5804296 1.125385 0
-4.4037452 -2.7593255 -0.81986582 0
-3.8706737 3.4239311 -0.99067295 0
-4.4141049 -2.7623749 0.76208878 0
-4.4257107 1.7685168 2.2320852 0
-4.4402704 2.1140282 1.8783841 0
-4.4304719 2.6715698 0.9864496 0
-4.4040289 -2.1985612 1.8739202 0
-4.428205 1.9297659 2.1000829 0
-1.8172297 -4.8443003 -0.98818779 0
-4.3994651 -2.3818483 1.6517584 0
-1.8187935 4.8460107 -0.98880875 0
-4.4057541 -2.0813048 2.0084653 0
-4.4366255 2.5783291 1.2104082 0
-4.4461489 2.2996333 1.6570942 0
-4.4347239 2.740742 0.79136419 0
-4.402895 -2.7188494 1.0156317 0
-4.3961725 -2.8529923 -0.59235108 0
-3.8233962 -3.4988544 -0.98780489 0
-4.3977337 -2.3939412 1.6628706 0
-4.4063983 -2.8561618 0.53808308 0
-4.4303837 2.7671661 0.76297808 0
-4.4218507 2.8609514 -0.36682588 0
-4.4063764 -2.0167491 2.0981319 0
-4.4350891 2.8650548 0.086702108 0
-4.3951674 -2.7568009 0.98553455 0
-4.4397173 2.5787764 1.2361922 0
-4.427094 2.8625767 0.31293857 0
-1.7525847 -4.885242 -0.98474026 0
-1.7531941 4.8859282 -0.98498607 0
-4.4373932 2.4842765 1.43435 0
-4.3918357 -2.5665278 1.4305885 0
-4.4374671 2.8657918 -0.14043522 0
-4.4376898 2.2643261 1.7678063 0
-4.4110017 -1.8678999 2.2394028 0
-3.8344479 3.5039146 -0.99061108 0
-4.404943 -2.6644511 1.2094209 0
-4.3990932 -2.5525186 1.4536438 0
-4.3928199 -2.9486508 -0.13890821 0
-4.39498 -2.9493544 0.087367177 0
-3.7783427 -3.574461 -0.98575878 0
-4.3872609 -2.9468403 0.31315577 0
-4.4427719 2.421253 1.5603154 0
-3.7798672 3.5751858 -0.9861486 0
-4.3966055 -2.8531265 0.76258636 0
-4.4034104 -2.7192042 1.1274669 0
-4.4397693 2.7442122 0.90394831 0
-4.4310002 2.0937505 2.0149636 0
-4.4422336 2.7706542 -0.82766449 0
-4.4315352 2.3893237 1.6581593 0
-4.4240332 1.8738666 2.2432432 0
-4.4308705 2.8637471 0.53853035 0
-4.3946872 -2.8525321 -0.82342029 0
-4.4005861 -2.2896984 1.8774779 0
-4.3939238 -2.1854429 2.016809 0
-4.3819184 -2.9451001 0.53814614 0
-4.4440656 2.2066927 1.8833523 0
-4.3948398 -2.4737134 1.6550622 0
-4.3945379 -2.3920038 1.7729723 0
-4.4258342 2.6702766 1.2120838 0
-4.405118 -2.8909481 0.67573714 0
-4.433702 2.8646247 -0.59857416 0
-4.4012527 -2.1066835 2.1010695 0
-4.3962717 -2.714294 1.2389243 0
-4.4038773 -2.9522524 -0.36811823 0
-4.4457841 2.5826976 1.3481784 0
-4.3844404 -2.9459217 -0.59503841 0
-4.4422708 2.0229754 2.1078935 0
-1.7010739 4.9408622 -0.98685992 0
-4.4409142 2.7449996 1.0167074 0
-4.4329906 2.7679336 0.98898411 0
-4.4355078 2.4168477 1.6701338 0
-1.7026815 -4.9427247 -0.98751915 0
-4.3853083 -2.8496249 0.98705769 0
-4.3856416 -2.8767118 0.90394914 0
-4.4009919 -2.553746 1.5652237 0
-4.4031811 -2.8895321 0.7899611 0
-4.4072943 -1.9733989 2.2504549 0
-3.7469273 -3.6565278 -0.98748636 0
-3.7481008 3.6571062 -0.98778832 0
-4.4329362 2.8643875 0.76457977 0
-4.4332008 2.9618034 -0.14262378 0
-4.4371538 2.7424133 1.1293759 0
-4.4453163 2.5806189 1.439348 0
-4.3981709 -2.6625628 1.4355376 0
-4.3925366 -2.3802335 1.8802643 0
-4.4317451 2.9613295 0.31233907 0
-4.4365325 2.2975364 1.885972 0
-4.3966055 -2.7145236 1.3511884 0
-4.3881717 -2.9471369 0.76365745 0
-4.3875761 -3.0444629 0.086157799 0
-4.4087071 -2.7607861 1.2131238 0
-4.4430447 2.5809269 1.4597633 0
-4.4318514 2.8640513 -0.83098328 0
-1.6420069 4.9878454 -0.98619378 0
-4.4325399 2.9615884 -0.37181956 0
-4.4447494 2.9655652 0.084624052 0
-1.6442659 -4.99054 -0.98713601 0
-4.4350286 2.1130416 2.1102786 0
-4.4356575 2.4838457 1.6632373 0
-3.7029023 3.7324133 -0.98626089 0
-4.3922176 -3.0460486 0.31252551 0
-4.4269838 2.9069302 0.78927553 0
-4.3932886 -2.2966971 2.0285277 0
-4.3978286 -2.5681069 1.6601732 0
-4.4068999 -2.1991444 2.1073117 0
-4.4021044 -3.0494263 -0.14246935 0
-4.4343195 1.9862437 2.2584724 0
-4.3991804 -2.8866076 1.0178232 0
-4.4339557 2.9620495 0.53910136 0
-4.3980603 -2.9503579 -0.8298049 0
-4.404089 -2.555748 1.6778767 0
-4.4433184 2.2106779 2.0296147 0
-4.4407053 2.4199998 1.783145 0
-4.4374928 2.7426465 1.242425 0
-4.3989429 -2.0779474 2.2606473 0
-3.7168722 -3.7395504 -0.98988259 0
-4.4338527 2.7681873 1.2163422 0
-4.4509897 2.9244773 0.67309201 0
-4.4050593 -3.0504358 -0.3720715 0
-1.5848813 5.0371251 -0.98662269 0
-4.4264317 2.388134 1.8882992 0
-3.6596017 -3.8085306 -0.98549807 0
-4.4330487 2.6722884 1.4412725 0
-4.4236536 2.7331278 1.3542545 0
-4.3855786 -2.5437837 1.7867203 0
-4.4463062 2.5830355 1.5728097 0
-4.3959093 -2.8842168 1.1316316 0
-4.4030547 -2.7189596 1.4648285 0
-4.4343882 2.9123423 0.90395093 0
-4.3933721 -2.4733491 1.8854816 0
-4.4028196 -3.0496705 0.53906989 0
-4.3929601 -2.2880354 2.1085644 0
-4.3957767 -2.949614 0.9905802 0
-4.4034491 -2.855248 1.2158604 0
-4.4544048 2.9687099 -0.60669267 0
-4.4345708 2.9622498 0.76621485 0
-1.5186877 -5.0750365 -0.98344433 0
-4.4514365 2.8701217 0.99311471 0
-4.3884411 -3.055886 0.67173731 0
-4.4027848 -3.0496588 -0.60299492 0
-4.43437 3.0604489 -0.14545238 0
-4.4402633 2.2059205 2.1164341 0
-4.4031458 -2.7591493 1.4405096 0
-4.4302492 2.5726569 1.6829982 0
-4.3838921 -3.1416237 0.084659338 0
-4.440033 3.0623832 0.083252549 0
-3.6792202 3.8189099 -0.99062216 0
-1.600698 -5.0565481 -0.99333429 0
-4.3817449 -3.1408558 0.31215191 0
-4.430264 2.0933874 2.2700038 0
-4.4423289 2.5798318 1.6691184 0
-4.439446 3.0621827 0.31165445 0
-4.3961048 -2.6619866 1.6646254 0
-3.6210151 -3.8871412 -0.98625553 0
-4.3960857 -3.04737 0.76571345 0
-4.3983908 -2.7157516 1.577558 0
-1.5296876 5.0889463 -0.98819602 0
-4.4415922 2.9645369 -0.83870423 0
-4.3973408 -3.1464341 -0.14487702 0
-3.6271138 3.8904803 -0.98786068 0
-4.4017372 -2.8884768 1.2462869 0
-4.3944817 -2.4106319 2.0412378 0
-4.3903666 -3.1439397 -0.37415773 0
-4.4435692 2.9190533 1.0191047 0
-4.447093 3.064795 -0.37752539 0
-4.3959656 -3.0617249 0.78768623 0
-4.4444823 2.323782 2.0418992 0
-4.4293957 3.0587494 -0.6074487 0
-4.4019375 -2.189537 2.2747769 0
-4.4283371 2.4820285 1.8937988 0
-4.4281912 2.2957175 2.1182265 0
-4.383327 -2.945559 1.2168643 0
-4.3856335 -3.0537076 0.90395224 0
-4.4394975 3.0622005 0.5397464 0
-4.4021525 -3.0494425 -0.83665526 0
-1.4630368 -5.1261468 -0.98508132 0
-3.5751286 -3.9617467 -0.98537982 0
-4.395318 -2.3808818 2.114655 0
-4.4377131 2.9632733 0.99443889 0
-3.5768352 3.9627132 -0.98583257 0
-4.4445024 2.8679724 1.2211375 0
-4.4470549 2.7492235 1.4710732 0
-4.3785124 -3.0481827 1.0197043 0
-4.3923998 -2.7116311 1.6904988 0
-4.3661909 -3.2344372 0.083859682 0
-4.3995261 -2.5685539 1.8923061 0
-1.4716759 5.1373987 -0.98888242 0
-4.400537 -2.8875995 1.3608398 0
-4.4469457 2.7720408 1.447741 0
-4.3932495 -3.1449707 -0.60655153 0
-4.4378295 2.5775564 1.7984424 0
-4.4455028 2.9204664 1.1344948 0
-4.4020176 -3.1481068 0.53962374 0
-4.3992343 -2.8539414 1.4442587 0
-4.3971086 -3.0477195 0.99340725 0
-4.4308329 2.9097438 1.2488084 0
-4.4382238 3.0617652 0.76804709 0
-4.3849821 -2.8762295 1.4737434 0
-4.4278173 2.4288838 2.0500119 0
-4.3873868 -3.1428738 0.76693499 0
-4.4379711 3.094317 0.66881871 0
-4.4393797 3.1614707 -0.14878315 0
-1.4059334 5.1756272 -0.98642385 0
-1.4066527 -5.1765924 -0.98674643 0
-4.4354444 3.0608158 -0.84349382 0
-4.448554 2.6766119 1.6752095 0
-4.4373465 3.1607435 0.31112123 0
-4.442462 2.7460642 1.5850782 0
-4.403708 -2.7593145 1.6712582 0
-3.5370493 -4.0408168 -0.98686969 0
-3.5376258 4.0411544 -0.98702395 0
-4.4513607 3.165756 0.080904126 0
-4.3875136 -2.4718947 2.1183276 0
-4.3867817 -3.2421365 0.31146204 0
-4.4429779 2.2105041 2.2871256 0
-4.4320779 2.3894501 2.1247687 0
-4.3950648 -3.2452335 -0.14765936 0
-4.392612 -2.5246665 2.0536695 0
-4.4341455 2.9621112 1.2234268 0
-4.4043965 -2.3025742 2.2893343 0
-4.4273739 3.0580587 0.99620545 0
-4.4423208 3.097692 0.786322 0
-4.3912215 -3.2437966 -0.37846822 0
-4.3946743 -3.0607226 1.1365359 0
-4.3997593 -3.1472991 -0.84249413 0
-4.4513898 3.1657665 -0.38211524 0
-4.4400754 2.5792379 1.9019871 0
-4.4394145 3.161483 0.54031706 0
-4.3881922 -3.0446734 1.221283 0
-4.4010315 -2.7175682 1.8073111 0
-4.4389653 2.8662562 1.4508469 0
-4.3856349 -3.2417076 0.53991652 0
-3.4861016 4.1123424 -0.98520482 0
-4.3800311 -3.1402428 0.9946686 0
-3.4871988 -4.1130056 -0.98550069 0
-4.4392338 3.1614184 -0.61428666 0
-4.4360495 2.7416537 1.6992087 0
-4.40309 -2.6639345 1.8988631 0
-1.3484683 5.2248783 -0.98794854 0
-4.4423485 2.9181607 1.3656769 0
-4.4414701 3.0970321 0.90395427 0
-4.3990421 -2.9506776 1.4488707 0
-1.3520353 -5.2298098 -0.98957944 0
-4.3886347 -3.0560365 1.2526083 0
-4.3883452 -3.2410035 0.66636002 0
-4.3941665 -3.2448976 -0.61212492 0
-4.4442954 2.771261 1.6794822 0
-4.3961692 -2.8529916 1.6751218 0
-4.4222503 3.2553985 -0.38253564 0
-4.4068308 -2.8921995 1.5928776 0
-4.4382472 3.26138 0.079828024 0
-4.4435134 3.1629493 0.77005899 0
-4.4328151 2.4831402 2.1308346 0
-1.2855628 -5.266686 -0.98729217 0
-1.2861753 5.2675591 -0.98757792 0
-4.4414163 3.2625647 -0.1519888 0
-4.4312735 2.6717932 1.905618 0
-4.3921604 -3.2441475 0.76899326 0
-4.4342732 2.5482583 2.0647228 0
-4.3868666 -3.3427191 0.080821991 0
-4.3868866 -2.8776219 1.7055473 0
-4.3840914 -3.2411306 -0.84589946 0
-4.4436064 3.1629825 -0.85154605 0
-4.3873281 -2.6385126 2.0657272 0
-3.4517264 4.193994 -0.98831308 0
-4.4381132 2.743073 1.8157907 0
-4.4478745 2.9222002 1.4828527 0
-4.446528 3.2644763 0.31034863 0
-3.4553819 -4.1962767 -0.989308 0
-4.3948555 -3.3458374 -0.1507839 0
-4.4041338 -2.569768 2.1291423 0
-4.3736486 -3.3375599 0.54031825 0
-4.4064274 -2.4171724 2.3043673 0
-4.4570503 3.1091208 1.0220213 0
-4.3961253 -3.0618486 1.3703027 0
-4.4555383 2.3296313 2.3048372 0
-4.4413538 3.0969419 1.1392899 0
-4.4052534 -3.2549181 0.78471303 0
-4.395843 -3.3462229 0.31066585 0
-3.3923197 -4.2599926 -0.98489439 0
-1.221664 -5.3069377 -0.98643112 0
-4.4034138 -2.759228 1.9049959 0
-4.3937855 -3.3454196 -0.38321596 0
-4.4476786 3.0649951 1.2290013 0
-4.4464707 2.9661257 1.4567709 0
-4.4455314 3.2641034 0.54103267 0
-4.3843122 -2.9458797 1.6783943 0
-4.4365368 2.8655035 1.6833367 0
-4.3967209 -3.1462123 1.2263861 0
-1.2279189 5.3161287 -0.98941004 0
-4.4386644 2.915468 1.5984213 0
-4.4447236 3.1633821 1.0006795 0
-4.4318609 3.0895762 1.2564363 0
-3.4082308 4.2702475 -0.98926461 0
-4.390605 -3.0575655 1.4870267 0
-4.4069114 -3.2562823 0.90395629 0
-4.4065332 -3.0509391 1.4550221 0
-4.4314027 2.5769529 2.1366987 0
-4.3908477 -3.3442731 -0.61725175 0
-4.3868704 -2.8776097 1.8225789 0
-1.1552827 5.3432875 -0.98462057 0
-4.4504938 3.265959 -0.6216495 0
-4.3979955 -3.2463295 0.99933302 0
-4.4224286 3.255465 -0.85385525 0
-4.4369535 3.2608962 0.77149951 0
-4.4332495 2.4318581 2.312561 0
-4.3959608 -3.2472708 1.0229192 0
-4.3944902 -2.6615365 2.1330838 0
-1.1603246 -5.3509288 -0.98707366 0
-3.3477488 4.3353686 -0.98581696 0
-3.3483119 -4.335743 -0.98597312 0
-4.4451532 3.2877531 0.6629349 0
-4.3975663 -2.8846049 1.8329852 0
-4.4322586 3.3604364 0.30998349 0
-4.4448199 3.365339 0.077561617 0
-4.39431 -3.3456244 0.77099669 0
-4.3962803 -2.8530259 1.9096825 0
-4.3993301 -2.528471 2.3172152 0
-4.3923016 -3.2442591 1.1417906 0
-4.3871045 -3.4444969 -0.15334988 0
-3.2876539 4.400259 -0.98270345 0
-4.4381666 2.9151042 1.7159905 0
-4.4386458 3.3629293 -0.38912886 0
-4.4513235 2.7733295 1.9165258 0
-4.3902302 -3.344032 -0.85415351 0
-4.3860183 -3.4440548 0.31019282 0
-4.443841 2.6715913 2.0808449 0
-4.4476004 3.2897668 0.78343785 0
-4.4569397 3.3700695 -0.1566146 0
-4.3993444 -3.4494772 0.078142881 0
-1.09743 -5.3926444 -0.98726714 0
-4.4444904 3.0639062 1.4613752 0
-4.42382 2.6697149 2.1412425 0
-4.381144 -3.0422657 1.6837399 0
-4.3901591 -3.4457397 -0.3873632 0
-4.4464264 3.1639912 1.232868 0
-4.4481993 3.1022532 1.3764586 0
-1.1008933 5.3980603 -0.98898959 0
-4.4412723 3.2845592 0.90395761 0
-4.40171 -3.0661817 1.6070201 0
-3.3049212 -4.4121003 -0.98753726 0
-1.0245061 -5.4182382 -0.98266244 0
-4.3831387 -3.341264 1.0010834 0
-4.3971267 -3.2460043 1.2306423 0
-4.4005561 -3.1475842 1.4591804 0
-4.4472103 3.3662722 0.54169655 0
-4.3925858 -3.2444935 1.2610569 0
-4.3887663 -3.445173 0.54125881 0
-4.4464746 2.9661272 1.691102 0
-4.4094787 -2.7707195 2.0857291 0
-4.45014 3.2658267 1.0042036 0
-4.4328179 2.9066174 1.8410637 0
-4.4491262 3.3670199 -0.62716031 0
-4.3914099 -3.4378273 0.66032708 0
-4.4369993 2.9142513 1.8342781 0
-1.0330684 5.4320607 -0.98701906 0
-4.3918452 -3.4464259 -0.62338924 0
-4.4419317 3.2851019 1.0243068 0
-4.4364996 3.3620915 0.77337027 0
-4.4443369 3.0992568 1.4949791 0
-3.2492647 -4.4800453 -0.98595679 0
-4.3915663 -3.0583112 1.7240365 0
-4.405983 -2.7599843 2.1433113 0
-4.4400015 2.551502 2.3297391 0
-4.4338565 3.4635203 0.076190114 0
-4.4455576 2.8682997 1.921593 0
-4.3913212 -3.0038528 1.844378 0
-4.3917103 -3.2437727 1.3805892 0
-4.3915377 -3.4379389 0.78220522 0
-3.2583232 4.4864502 -0.988518 0
-4.3946295 -2.6427863 2.3314078 0
-4.3822789 -3.5453286 0.077042341 0
-4.4334884 2.7852385 2.092207 0
-4.4041152 -2.9523299 1.9183507 0
-0.96751165 -5.4694624 -0.98643291 0
-4.3813839 -3.2401183 1.4613633 0
-4.4376578 3.2611594 1.2359552 0
-4.3874254 -3.4446275 -0.86088705 0
-4.44315 3.4673018 0.30911624 0
-4.4451303 3.2877343 1.1449797 0
-4.4430137 3.1627705 1.4663224 0
-4.4050622 -3.4518039 0.77358055 0
-4.4300141 3.3595603 1.0054858 0
-4.3934875 -3.5500774 -0.1574083 0
-0.97265792 5.4780416 -0.98911357 0
-4.4560595 3.4725544 -0.15986294 0
-3.2004304 -4.5527415 -0.98658502 0
-4.4559832 3.3696961 -0.86787355 0
-4.3894582 -3.3437307 1.2340455 0
-4.3870182 -3.0547822 1.8426862 0
-4.387363 -3.5474827 -0.39183724 0
-4.4444699 3.063899 1.6967478 0
-4.4496183 3.1033547 1.6155455 0
-4.3921466 -3.1445761 1.6923225 0
-3.2089095 4.5589204 -0.98900712 0
-4.4435816 2.7710509 2.1538131 0
-4.394865 -2.8525872 2.1476359 0
-4.3996973 -3.5527084 0.30924499 0
-4.3990083 -2.8855052 2.0975447 0
-4.438971 3.2826655 1.26526 0
-4.402442 -3.4474497 0.90395975 0
-0.90158701 -5.5061364 -0.98591816 0
-4.44804 3.4692914 0.5423758 0
-4.3864985 -3.5471163 0.54190469 0
-4.3975053 -3.2485418 1.5015998 0
-4.4638991 3.4757445 -0.39713818 0
-4.4361305 2.9627578 1.9261241 0
-4.3929844 -3.4392006 1.0257583 0
-0.90530992 5.5125499 -0.98790514 0
-4.3838391 -3.5459895 -0.62826598 0
-4.4451838 3.4681292 -0.63250971 0
-4.3949556 -3.4476914 1.0054913 0
-3.1478801 -4.622767 -0.98644602 0
-0.83059835 -5.5337124 -0.98290265 0
-3.1499257 4.6243029 -0.98703647 0
-4.4428658 3.4827089 0.65714836 0
-4.4431219 3.098314 1.7347651 0
-4.4408445 2.6698372 2.3457563 0
