# .PCD v0.7 - Point Cloud Data file format
VERSION 0.7
FIELDS x y z intensity
SIZE 4 4 4 4
TYPE F F F F
COUNT 1 1 1 1
WIDTH 1450
HEIGHT 1
VIEWPOINT 0 0 0 1 0 0 0
POINTS 1450
DATA ascii
-1.6004925 3.7740431 -0.11170918 0
1.1209977 3.6260695 1.553519 0
0.82669091 3.6478951 1.6819482 0
1.9793855 3.5810142 0.28726101 0
1.165782 3.6382129 1.4933319 0
1.9041343 3.5891187 0.56426644 0
1.752924 3.6107285 0.84712005 0
1.8901634 3.6056678 0.50526059 0
1.6764233 3.6236413 0.94556546 0
1.7148854 3.6066144 0.94212246 0
1.8665838 3.5962427 0.65746653 0
-1.1856928 3.7513108 1.171277 0
1.7597437 3.6159637 0.82517195 0
-1.2599542 3.7468088 1.1102176 0
1.9806809 3.595458 0.099575043 0
1.9808252 3.5970652 0.0047636032 0
1.9804655 3.5930562 -0.18694627 0
1.9807899 3.596673 -0.090825617 0
1.9438722 3.6128926 -0.19081604 0
-1.3858254 3.7500565 0.94128275 0
-0.61992598 3.71717 1.6334672 0
-3.4059386 -2.0728152 -0.98647916 0
1.6944532 3.6102107 0.98565483 0
0.89217126 3.6603208 1.6383526 0
-1.5897131 3.7649395 -0.42233014 0
1.9068303 3.5896077 0.6036067 0
1.9144971 3.601285 0.50168645 0
1.9551014 3.5977809 0.3462323 0
1.2337202 3.6261446 1.4887171 0
1.9430759 3.6023149 0.3792727 0
-1.2972715 3.7475491 1.0828991 0
1.9437833 3.6117117 -0.28952068 0
1.9438052 3.6120031 0.28579569 0
-1.5984807 3.7723441 0.34934783 0
-1.5313356 3.764293 0.63000786 0
-3.4110188 2.0739229 -0.98787236 0
-0.20825267 3.7027586 1.7776365 0
1.8289657 3.6060376 0.75198901 0
-1.4130161 3.7551966 0.90392065 0
-1.4807158 3.7529178 0.79946411 0
1.3739065 3.6244831 1.3782613 0
1.9812313 3.6015944 0.19278455 0
1.5608149 3.6316092 1.1458974 0
1.9041545 3.5894513 0.65704954 0
0.96485198 3.6357949 1.6720407 0
1.6001139 3.6171727 1.141396 0
1.6766372 3.6151056 1.0411801 0
-1.0729172 3.7416711 1.3473496 0
1.7726252 3.6066332 0.90393102 0
1.4315002 3.630842 1.3181856 0
1.9811262 3.6004217 -0.28732824 0
1.7529109 3.6070449 0.94217968 0
1.7910362 3.6121569 0.84741104 0
1.9421374 3.5898485 0.56443989 0
-1.1835618 3.7404454 1.2598147 0
1.9805226 3.5936921 0.3793689 0
-1.4516804 3.7449296 0.92254627 0
-1.6842222 3.7617064 0.037835717 0
-1.1594884 3.7361405 1.2987788 0
1.9432849 3.6050909 0.47217584 0
-0.63803816 3.7421296 1.6097546 0
2.0189164 3.5956111 0.0044108629 0
-0.95354605 3.7352364 1.464535 0
1.7907124 3.5940578 0.93973422 0
-1.5952823 3.7696431 0.50197899 0
-0.28849006 3.7060807 1.7869129 0
1.6407182 3.621223 1.0987144 0
-1.5869801 3.7626314 -0.58069134 0
-1.6830487 3.7607436 0.1934396 0
-0.74450874 3.7250745 1.6078417 0
1.5032295 3.61903 1.2879071 0
-1.3082597 3.7603242 1.0827663 0
-0.85381603 3.7388835 1.5220947 0
1.8249574 3.6078489 0.82452321 0
-1.1148701 3.7375724 1.347446 0
2.0187557 3.5940685 -0.18803167 0
2.0191183 3.5975516 0.098863959 0
-3.3851523 -2.1454208 -0.98532653 0
1.8902462 3.6082366 0.66471052 0
-1.2136674 3.7524791 1.2176199 0
2.0189219 3.5956655 0.19298279 0
1.8288674 3.6029847 0.84610879 0
1.8669966 3.6051097 0.75205898 0
2.0194142 3.6003921 -0.092269421 0
1.6290181 3.6160104 1.1491108 0
1.4980612 3.6168144 1.3146775 0
1.0090152 3.6513317 1.6446464 0
1.2998502 3.6269429 1.487319 0
-0.97431278 3.7314107 1.4778969 0
-1.2961102 3.7424123 1.1722634 0
2.0186033 3.5926068 -0.28621262 0
-1.582881 3.7591696 0.65387261 0
1.7667046 3.5970256 1.0022893 0
1.9795059 3.5823567 0.56420946 0
-1.5326581 3.7688966 0.72125447 0
2.0187571 3.5940826 0.28638029 0
1.0320424 3.6369326 1.6694551 0
1.759715 3.6079233 0.98534536 0
1.6382945 3.6191227 1.1414423 0
1.7148049 3.6141188 1.0407948 0
-1.5285208 3.7544944 0.81298602 0
2.0561304 3.5861576 0.099751353 0
-0.70959663 3.7269423 1.6449571 0
1.6768471 3.6067233 1.137789 0
-1.6855443 3.7627909 0.34828639 0
2.0560811 3.5857415 0.19348586 0
1.9813423 3.6028311 0.4721911 0
2.018692 3.593457 0.37930882 0
-1.6981659 3.7731442 -0.12085634 0
-1.3821616 3.7467782 1.0899911 0
1.9426802 3.5970602 0.65794265 0
-1.4150238 3.7630246 0.9943552 0
-1.0716362 3.7339766 1.4360058 0
2.057234 3.5954595 0.0037629604 0
-3.4009166 2.1490955 -0.98966384 0
1.7529155 3.6083491 1.0394311 0
2.0573223 3.5962036 -0.092275918 0
2.0206275 3.6018364 0.34610021 0
-1.6851301 3.7624512 -0.43627626 0
-0.85222769 3.7241771 1.6095634 0
1.918606 3.6075432 0.70289731 0
-1.3601847 3.7538402 1.1176457 0
1.8287795 3.6002555 0.94112396 0
1.9561836 3.6210277 0.50557387 0
-1.2913585 3.7447596 1.2276309 0
2.0573411 3.5963621 -0.18954402 0
-1.0323367 3.7356977 1.4794178 0
2.0567515 3.5913925 -0.28702074 0
2.056819 3.5919602 0.28627002 0
1.1255393 3.6365523 1.6505141 0
-1.6467099 3.7563181 0.62820339 0
-0.3749752 3.7207434 1.7999234 0
1.7149103 3.6042976 1.1369567 0
1.9053781 3.6095409 0.75285506 0
1.5636998 3.6134274 1.3134265 0
-1.7016506 3.7760029 -0.28003752 0
1.3658346 3.6275632 1.4861009 0
1.5008568 3.6146336 1.3841028 0
1.2512076 3.6368852 1.5639329 0
1.9116883 3.597007 0.80376279 0
-1.4874024 3.7587309 0.95134115 0
-0.79493928 3.725724 1.6539855 0
1.9553673 3.6034939 0.66459656 0
-1.0635939 3.7296445 1.4864216 0
-1.4123015 3.7524095 1.0843768 0
1.867391 3.6135812 0.84802604 0
-1.1987882 3.738378 1.3615415 0
1.6943908 3.6160347 1.1489294 0
1.3777902 3.6322007 1.4754839 0
2.0948341 3.5889726 0.0040384531 0
1.9045506 3.5959539 0.84555376 0
-0.45341301 3.715019 1.8073492 0
1.098032 3.6447308 1.6689377 0
-1.5920119 3.766881 -0.74409795 0
-1.2560081 3.740638 1.3075249 0
-1.1851983 3.7487891 1.3505106 0
2.0569427 3.5930035 0.37924278 0
2.0945253 3.5866544 -0.18839264 0
1.6438258 3.626605 1.1968062 0
-0.9637382 3.746423 1.5255237 0
1.790933 3.6063907 1.0390732 0
-0.53070712 3.7051132 1.8139136 0
2.0952201 3.5918725 -0.092360795 0
-1.5844047 3.7604566 0.80678201 0
2.0205805 3.6010659 0.50528622 0
2.0201735 3.6076827 0.47234082 0
1.7528845 3.5997057 1.1356897 0
1.8904743 3.6153204 0.82532036 0
1.8667307 3.5993955 0.94124722 0
-3.379303 -2.2216237 -0.98858011 0
2.0564759 3.5890698 0.47208798 0
2.1313643 3.5755334 0.099825025 0
-1.5318112 3.765949 0.90392184 0
2.0960679 3.5982385 0.097666979 0
-1.6848538 3.7622244 -0.59799862 0
-1.6957901 3.7711954 0.50334477 0
-3.3823376 2.2223771 -0.98941791 0
2.0852256 3.5905039 0.34622097 0
2.0194144 3.6003947 0.5653522 0
1.9816043 3.6057529 0.65898061 0
2.0939727 3.582504 0.37934387 0
2.0951064 3.5910187 0.28606832 0
1.8250734 3.6143281 0.98621786 0
-1.298713 3.7539251 1.263268 0
1.9436679 3.6101799 0.75325274 0
2.0583074 3.5913582 0.49492538 0
-1.557739 3.7545745 0.92851591 0
-1.6484776 3.7618663 0.72000468 0
1.8288201 3.601517 1.0381675 0
-3.3438139 2.2903922 -0.98393476 0
-1.5278168 3.7520435 0.99479771 0
2.0965037 3.6015108 0.19167519 0
1.1651815 3.6429822 1.6660981 0
1.9116504 3.5969491 0.90393281 0
1.9548922 3.5932872 0.82361591 0
1.7761276 3.6123164 1.1015921 0
1.8896213 3.5888393 0.98328757 0
1.7597107 3.6067331 1.1474192 0
-1.4543943 3.7489173 1.1235833 0
-0.96152115 3.7302556 1.613205 0
-1.4119067 3.75087 1.1747386 0
1.2333527 3.6294444 1.6603436 0
1.3717933 3.6202834 1.5701349 0
2.0191386 3.5977464 0.65860009 0
2.1336219 3.5908115 -0.093194902 0
1.4312997 3.6337855 1.4863987 0
1.4979752 3.6092944 1.4804399 0
2.0203512 3.5973017 0.66445518 0
1.6289796 3.6175454 1.313818 0
1.6400328 3.6200356 1.294219 0
-0.88485289 3.7303278 1.6649504 0
2.0968568 3.6041625 -0.29175806 0
2.1325753 3.5837295 -0.28766745 0
2.0850537 3.5882208 0.50513887 0
1.9431887 3.6038136 0.8472116 0
-1.7922056 3.766608 -0.29025602 0
-1.7992165 3.7721932 -0.13043207 0
-1.0732 3.7433701 1.5277281 0
-1.1844397 3.7449214 1.4403491 0
2.1346812 3.5979817 0.001747489 0
2.1341774 3.5945714 0.191818 0
-1.6482265 3.7610788 0.8120327 0
1.9801773 3.5898426 0.84548783 0
-1.801399 3.773932 0.18818152 0
1.2500699 3.6344531 1.6597898 0
2.1337183 3.5914643 0.28576374 0
1.9821272 3.6115816 0.75381255 0
-1.8075314 3.7788172 0.028504729 0
2.1709914 3.5825806 0.0032765865 0
1.3002467 3.6228526 1.6567304 0
-3.3635421 -2.2955902 -0.98940122 0
2.0960433 3.5980546 0.47232985 0
-1.6991699 3.773968 0.65905309 0
2.1706467 3.5804582 -0.18954659 0
2.0944743 3.5862708 0.56508052 0
-1.3526845 3.7424729 1.3161099 0
2.0586536 3.6074255 0.5659461 0
-0.621665 3.7206047 1.828485 0
2.0642169 3.5998192 0.59684491 0
2.1698782 3.5757272 -0.28708041 0
2.0190265 3.5966706 0.75242722 0
1.8247591 3.5967677 1.1459515 0
1.9056276 3.6136384 0.94441736 0
2.1334934 3.5899429 0.37911928 0
-1.2980108 3.750819 1.3534672 0
2.1715903 3.5862689 0.097765446 0
-1.127856 3.7502372 1.5003529 0
2.1355948 3.6041644 -0.19371486 0
-1.586247 3.7620122 0.9608196 0
1.4975531 3.6262734 1.4837379 0
-1.1629922 3.7417972 1.4984958 0
-1.4920337 3.7627573 1.1047163 0
1.6944793 3.6077759 1.3116915 0
2.1720686 3.5892129 -0.094033122 0
2.0575814 3.5983891 0.65902829 0
1.7743762 3.6094742 1.2004573 0
2.132678 3.584425 0.47218323 0
1.9130752 3.5991192 1.0041621 0
2.1718502 3.5878694 0.19189227 0
1.8289005 3.6040108 1.1372077 0
1.7912159 3.6221988 1.1418271 0
2.0590622 3.5924387 0.69981241 0
-1.2960551 3.7490847 1.3796387 0
-1.4112062 3.7481387 1.2652063 0
2.1712353 3.5840836 0.28584456 0
1.8674662 3.615196 1.0416741 0
-1.8058684 3.7774925 0.34649169 0
-3.3304987 2.3648448 -0.98571205 0
-1.399116 3.7619493 1.2453861 0
1.6358149 3.6127303 1.391603 0
2.0200543 3.592428 0.8238467 0
-1.7934406 3.767592 0.5046308 0
-1.5307364 3.7622068 1.0862656 0
1.5637593 3.6119173 1.4797163 0
-1.6960037 3.7713706 -0.76628458 0
-1.68872 3.7653959 0.8140732 0
-0.97551131 3.7334754 1.6759601 0
-1.6491179 3.7638767 0.9039228 0
1.9437017 3.6106296 0.94433665 0
1.9804963 3.5933988 0.94158649 0
-1.7708764 3.7686725 0.62463057 0
-1.6436727 3.7467852 0.99546325 0
-1.1836674 3.740984 1.5305815 0
-3.3401699 -2.3675416 -0.98840225 0
2.1503341 3.58693 0.50521016 0
1.9552209 3.6003497 0.98501682 0
2.1724334 3.5914588 0.37898898 0
2.2099926 3.5839119 -0.19185317 0
-1.8085854 3.7796569 -0.45704132 0
1.9055781 3.6128249 1.0415998 0
2.1522171 3.6079233 0.34582186 0
2.0861382 3.6026285 0.66496789 0
-1.5559921 3.752085 1.1309953 0
2.2143021 3.5717781 0.34634531 0
1.8670334 3.6058993 1.1381154 0
1.9100213 3.5944679 1.1042407 0
1.9427221 3.5976164 1.0386791 0
2.2107444 3.588155 0.19129801 0
2.0584228 3.6054809 0.75403786 0
-1.0735953 3.7457442 1.6192594 0
-0.71117353 3.7299488 1.8416984 0
1.3741462 3.6249592 1.6683893 0
2.2099881 3.5838859 -0.2910347 0
2.1345255 3.5969269 0.5659256 0
2.0945065 3.5865142 0.75228059 0
2.0611045 3.5953627 0.80184603 0
2.0202 3.6079371 0.84895182 0
2.210197 3.5850654 0.28545213 0
-1.7696648 3.7652159 0.71806705 0
1.3652444 3.6347191 1.6583414 0
-1.2115457 3.7504685 1.5165617 0
-3.3062615 -2.4362967 -0.98474336 0
2.0566168 3.5902579 0.84680736 0
2.0181921 3.5886569 0.94137597 0
2.0971384 3.6062775 0.6601454 0
-1.5797286 3.7565074 1.1146197 0
-1.4103611 3.744843 1.3558688 0
-1.7993524 3.7723014 -0.62001872 0
2.247781 3.577692 0.0019173622 0
1.759724 3.6104677 1.3121696 0
2.2128727 3.6001697 -0.00058031082 0
-1.2570915 3.7423317 1.5083275 0
2.2127347 3.59939 -0.097306609 0
2.2130623 3.6012392 0.09510088 0
2.1731501 3.5958722 0.472489 0
1.8901033 3.6038039 1.1473248 0
-0.79148293 3.7193573 1.8493261 0
-1.4835413 3.7553742 1.2568483 0
2.1713166 3.584583 0.5655818 0
2.2103376 3.5858598 0.37897456 0
-3.312252 2.4380598 -0.98641658 0
2.1338437 3.5923133 0.65938222 0
1.8245875 3.5871761 1.3077774 0
2.248239 3.5800774 -0.19258505 0
-1.5315843 3.7651582 1.1778998 0
1.6290382 3.6152036 1.4799893 0
1.9805272 3.5937428 1.0385053 0
-1.6734056 3.774143 0.93578196 0
-1.7679424 3.7603018 0.81116688 0
1.9051331 3.6055202 1.1385617 0
2.2493885 3.5860655 0.096123576 0
2.056848 3.5892687 0.90393496 0
2.2494538 3.5864067 -0.096120119 0
1.5077562 3.6274171 1.5815096 0
1.7791214 3.6171744 1.3006461 0
1.6356971 3.6125262 1.4902775 0
-1.914602 3.7794917 0.021099806 0
2.0200467 3.5923026 0.98445725 0
1.954355 3.5817459 1.1442342 0
-1.9058504 3.7727222 -0.30501252 0
-1.6451192 3.7513256 1.0873256 0
-1.6880882 3.7648776 0.9706558 0
2.2150383 3.5788491 0.50517869 0
2.2500219 3.5893664 0.19057024 0
-1.0698767 3.7401192 1.6883538 0
2.0859008 3.5994747 0.82485318 0
-1.9150503 3.7798383 0.18330514 0
1.9425452 3.5952659 1.1365013 0
2.0564017 3.5884452 0.94215727 0
-1.3020875 3.7688506 1.4470572 0
2.1511309 3.595814 0.66489196 0
-1.8092515 3.7801876 0.66374457 0
-1.9078274 3.7742515 0.34512675 0
-1.9186149 3.7825956 -0.14275259 0
2.1716146 3.5864179 0.65937901 0
2.2484407 3.5811279 0.3789351 0
-1.4610186 3.758651 1.3277907 0
1.4310291 3.6377604 1.6578307 0
-1.2914829 3.744874 1.5311904 0
1.6945195 3.6040342 1.4771404 0
-1.1840789 3.743082 1.6224787 0
-1.3969662 3.7600257 1.3985865 0
2.2099946 3.5839224 0.56588697 0
2.2874076 3.5802152 0.00029826164 0
2.1315367 3.5767009 0.84624529 0
2.2507613 3.5932186 -0.29547656 0
2.2510557 3.5947518 0.28456426 0
2.2860003 3.573411 -0.29211777 0
2.2128975 3.6003094 0.47268152 0
1.4978509 3.6207311 1.6521878 0
-1.9056976 3.772604 -0.47104329 0
-1.5301256 3.7600813 1.2691963 0
2.0966313 3.6024685 0.84951782 0
2.1352026 3.6015093 0.75479901 0
-3.291245 -2.5105143 -0.9866432 0
1.9171305 3.6052957 1.2055728 0
-3.2935019 2.511214 -0.98727632 0
2.2892909 3.5893216 0.094773531 0
2.2886307 3.586129 0.19018745 0
-1.2985916 3.7533879 1.5364795 0
2.2859361 3.573101 0.37894452 0
-1.7703619 3.7672045 0.90392399 0
2.2810287 3.5819347 0.34604013 0
2.0588078 3.5920746 1.0059311 0
2.2899864 3.5926833 -0.098857164 0
2.0199263 3.60531 1.0420408 0
1.980921 3.598135 1.138113 0
1.5028641 3.6183529 1.6784978 0
2.2476978 3.5772583 0.56590211 0
2.2241914 3.6040351 0.48491704 0
2.3252561 3.5733356 0.00010752678 0
2.2103722 3.5860538 0.65991521 0
1.6315556 3.6053529 1.5882661 0
2.0564446 3.5888062 1.0391872 0
2.1724758 3.5917208 0.75431263 0
-1.472959 3.7461746 1.4096293 0
-1.5766232 3.7538846 1.2703996 0
2.2900133 3.5928137 -0.19735456 0
-1.8094475 3.7803438 -0.79143572 0
1.7781003 3.6155174 1.4004083 0
-1.356879 3.7488301 1.519953 0
2.2893004 3.5893667 0.2844491 0
2.1507692 3.5917814 0.82464886 0
2.2510884 3.5949218 0.47271001 0
-1.4135213 3.7571661 1.4491341 0
-1.7663355 3.7557166 0.99656761 0
2.2860379 3.5735934 0.47246408 0
2.2196074 3.5978572 0.59060812 0
-1.8072772 3.7786148 0.8228668 0
-1.9165173 3.780973 0.50646496 0
2.3264375 3.5786617 -0.097676873 0
1.5636665 3.6142757 1.6496398 0
-1.6659229 3.763797 1.1399987 0
2.2162371 3.5903604 0.66493666 0
-1.5275226 3.751019 1.3601594 0
-1.1643109 3.7439258 1.7004526 0
-1.6487024 3.7625728 1.1801021 0
-0.89063573 3.7406256 1.8671575 0
-1.8982139 3.7808475 0.6207664 0
1.890143 3.6050375 1.3115675 0
2.3628032 3.5649984 6.5326691e-05 0
2.0860419 3.6013477 0.98611569 0
2.3274918 3.5834143 0.18970728 0
2.097075 3.6057999 0.94649184 0
2.2814102 3.5851495 0.50541627 0
2.3289075 3.5897973 0.093697071 0
2.2179735 3.595655 0.69536769 0
-3.269742 2.582849 -0.98702276 0
2.2108669 3.5888469 0.75475383 0
1.7691793 3.6010418 1.4985073 0
2.3287373 3.5890303 -0.19837385 0
-1.5601933 3.7580721 1.3366456 0
-1.6927316 3.7686868 1.1296103 0
2.3276479 3.5841191 -0.29726183 0
2.1340563 3.5937514 0.94517243 0
-3.2732024 -2.583976 -0.98799789 0
2.0197778 3.6038833 1.1406503 0
1.7597469 3.6168535 1.4800463 0
-1.7930374 3.7672708 0.9808619 0
2.2097483 3.5845702 0.80003011 0
-1.2973511 3.7479014 1.627775 0
2.3642569 3.5711355 -0.19617993 0
1.9174089 3.6057198 1.3066773 0
2.0607066 3.5947931 1.1081922 0
2.0208473 3.6054475 1.1485476 0
2.0956669 3.595228 1.0417895 0
2.3254128 3.5740418 0.47261584 0
2.3292887 3.5915167 0.28389978 0
-2.0271125 3.7812042 0.013179898 0
2.1738424 3.6001351 0.85093999 0
-2.0154371 3.7724376 0.34365201 0
-1.9199858 3.7836559 -0.64354467 0
2.3279152 3.5853233 0.37858236 0
-1.9168041 3.7811949 0.66821098 0
1.9547471 3.5901692 1.3091738 0
2.280293 3.5757325 0.66454637 0
1.6290367 3.6152647 1.6493406 0
-1.4124029 3.7528048 1.5407743 0
-2.0295358 3.7830238 -0.15361685 0
2.2517312 3.5982709 0.661623 0
-2.0297694 3.7831993 0.17841649 0
2.28686 3.5775683 0.6604476 0
2.1715038 3.5857351 0.94474816 0
2.3654685 3.5762508 0.28425586 0
-1.900651 3.7872102 0.71500611 0
2.1325216 3.5833666 1.040261 0
2.3471348 3.5835383 0.34586823 0
-1.6479716 3.7602792 1.2724047 0
-1.3939459 3.757323 1.5537612 0
2.216136 3.58939 0.8249923 0
-1.8951378 3.7728169 0.80987549 0
2.2902174 3.5938008 0.56718802 0
2.4023383 3.564486 0.094643116 0
2.0935605 3.5794101 1.136467 0
2.057699 3.5993783 1.1405754 0
2.3682716 3.5880857 0.092821598 0
2.2494731 3.5865066 0.75533152 0
-0.98067665 3.7423728 1.8795278 0
-1.7699366 3.7659907 1.0898194 0
2.3688679 3.5906024 -0.10178274 0
2.3683851 3.5885644 0.18846846 0
-3.2427216 2.653358 -0.98613429 0
2.3655567 3.5766234 0.37858355 0
2.2117736 3.5939658 0.85098231 0
2.1511805 3.5963657 0.98616362 0
2.209172 3.5837932 0.90393746 0
2.0850928 3.5887401 1.1465988 0
-1.9084523 3.7747347 -0.8113749 0
2.3677197 3.5857549 -0.30008906 0
2.3273454 3.5827544 0.56702971 0
1.6353009 3.6118395 1.6895924 0
2.4052877 3.5761895 -0.0032542348 0
2.3645823 3.5725095 0.47274256 0
-1.6787181 3.7571912 1.2860641 0
-1.5300174 3.7597036 1.4537747 0
2.3468876 3.581682 0.50549901 0
2.4056399 3.5775864 -0.10102224 0
2.4035132 3.5691485 0.28414392 0
-3.250668 -2.6560726 -0.98838437 0
-1.8932648 3.7679276 0.90392518 0
-2.0371437 3.7887366 -0.32308954 0
-1.2633607 3.752136 1.7142382 0
-1.6448898 3.7506053 1.3640914 0
-1.4628367 3.7613227 1.5334363 0
-1.7716808 3.7663696 1.1479387 0
1.8252089 3.6218989 1.4813733 0
-2.0255637 3.7800412 0.50796902 0
2.3263113 3.5780923 0.66121566 0
2.4065993 3.5813928 0.18828404 0
1.76915 3.6009941 1.5992427 0
2.2845874 3.5665803 0.84889638 0
2.3703766 3.5815864 0.4782939 0
2.4072962 3.5841579 -0.20145994 0
2.0199058 3.589987 1.3098178 0
2.0641198 3.5996799 1.2110152 0
2.2890093 3.5879593 0.75645566 0
1.9196467 3.6091282 1.4086635 0
2.4048166 3.5743201 0.37845993 0
2.3654568 3.5762017 0.56714141 0
-2.0333996 3.7859254 -0.492356 0
-1.5857012 3.7615514 1.4317048 0
-1.4780099 3.7505655 1.5694568 0
2.2078633 3.5820298 1.0077713 0
-1.923238 3.7861717 0.83125532 0
2.2813845 3.584934 0.8252368 0
2.2515914 3.5975432 0.85268402 0
-3.2170086 -2.7242503 -0.98589993 0
2.2125692 3.5984566 0.94852233 0
-1.0721402 3.7438929 1.8923345 0
2.1732247 3.5963306 1.0446589 0
2.4436693 3.5696769 0.18846107 0
1.8901393 3.6049216 1.4778304 0
2.2159548 3.5876486 0.98586535 0
2.3678868 3.5784247 0.58539104 0
2.4079578 3.5867832 -0.30291688 0
-1.7984154 3.7715549 1.1429133 0
2.4440811 3.5712171 -0.20070249 0
1.6942514 3.6290147 1.6527121 0
2.4106357 3.5654914 0.50537384 0
-1.5272799 3.7501738 1.545311 0
-2.0247717 3.782654 0.61736584 0
2.1344399 3.5963483 1.1424851 0
-3.2230225 2.7264013 -0.98761129 0
2.3266177 3.5794744 0.75640452 0
-2.0226521 3.7778549 -0.66158485 0
1.7597044 3.6049745 1.6462078 0
-1.6693668 3.7685587 1.3480315 0
2.4466281 3.5807462 -0.0055984259 0
2.4465766 3.5805533 0.091368437 0
-1.4148788 3.7624605 1.6356347 0
2.3657625 3.5774918 0.66193593 0
-1.9042432 3.7714789 0.99192166 0
2.210422 3.5863364 1.0438216 0
-2.0211825 3.7740324 0.71349359 0
2.1507356 3.5914056 1.1478744 0
2.4143713 3.5907729 0.34557998 0
-1.7751048 3.7807369 1.184113 0
2.4820285 3.562705 -0.0043299198 0
2.4477773 3.5850449 -0.10448408 0
2.3653452 3.575197 0.69195724 0
2.4457893 3.5776079 -0.30308497 0
2.250674 3.5927634 0.94877815 0
2.4075816 3.5852909 0.4731375 0
2.4462769 3.579432 0.283059 0
2.3485711 3.5943239 0.66596007 0
2.4418581 3.5629017 0.47290957 0
-1.7674875 3.7590034 1.2758327 0
2.060564 3.594589 1.3133149 0
-1.3585541 3.7513688 1.7260616 0
2.4451077 3.5750577 0.37827063 0
-1.5578547 3.754739 1.5428839 0
2.345017 3.5676348 0.82443047 0
-1.898963 3.7828031 0.99822462 0
2.2070158 3.5808876 1.1116514 0
-1.8915231 3.7633803 1.0916567 0
-3.1877747 2.7938156 -0.98494649 0
1.9550481 3.5966365 1.4765086 0
-2.0359721 3.7878568 0.67338991 0
2.1728876 3.5942559 1.1435101 0
-2.019712 3.7705004 0.80885065 0
1.9170899 3.6052337 1.5101686 0
2.485158 3.5737741 0.090914965 0
2.4071734 3.5836713 0.56804085 0
2.4856861 3.5756426 -0.10467571 0
2.3272214 3.5821962 0.8527298 0
2.4849982 3.5732093 0.18720436 0
-3.1925397 -2.7955973 -0.98630953 0
-2.1518989 3.7886398 0.0040159225 0
2.4112227 3.5694654 0.66512656 0
-2.152328 3.7889526 -0.16617107 0
2.4861894 3.5774229 -0.20466167 0
2.28142 3.5852325 0.98646045 0
-2.1449952 3.7836089 0.34171784 0
2.4060211 3.5790989 0.66290891 0
1.7722871 3.6060846 1.7018867 0
2.0861118 3.6022761 1.3130755 0
-2.1561871 3.7917647 0.17282319 0
-1.1677682 3.7495067 1.9069567 0
2.4863005 3.577816 0.28258455 0
2.3686531 3.5896955 0.75878143 0
2.3696561 3.5806713 0.79784393 0
-2.1495643 3.7869387 -0.33723515 0
2.2108641 3.5888317 1.1437805 0
2.4790604 3.5792911 0.3456049 0
2.2906148 3.5957222 0.95086026 0
-1.6514461 3.7711847 1.4602685 0
1.8250198 3.6113403 1.6481013 0
2.2511075 3.595022 1.0474982 0
2.4868493 3.5797567 -0.30655742 0
2.3652341 3.5752618 0.85300505 0
2.5231407 3.5645907 0.18699765 0
-1.5282416 3.7535222 1.639612 0
-1.8829198 3.7730138 1.1568298 0
-1.5780668 3.7551038 1.5906072 0
2.4463892 3.5798519 0.56836367 0
2.404521 3.5731471 0.75785339 0
-1.7689555 3.7627132 1.3566208 0
2.2164829 3.5927207 1.1490862 0
1.909296 3.5933633 1.6105537 0
-1.6904571 3.7668209 1.4510717 0
-2.1434402 3.7824759 -0.50915366 0
2.4851496 3.573745 0.47329247 0
2.5263293 3.5752826 0.089327097 0
-2.0335712 3.7860541 0.83892667 0
2.328105 3.5861793 0.95057356 0
2.2884037 3.585032 1.0469198 0
-1.8004971 3.7732134 1.3064311 0
2.5238442 3.5669498 -0.30602688 0
-2.0232 3.7788787 0.90392685 0
2.4884548 3.5854359 0.37789536 0
2.3232291 3.5641966 1.0439012 0
-1.9064078 3.7731533 1.1565242 0
2.561594 3.55671 -0.0070217848 0
2.0634425 3.5987103 1.4170847 0
2.4791389 3.5797732 0.50580347 0
2.5269141 3.5772431 -0.20724434 0
2.0205457 3.6004941 1.4782095 0
-2.0392232 3.790298 -0.8417722 0
-1.8952136 3.7730153 1.1864991 0
2.5288081 3.5835941 -0.0095738173 0
2.5260763 3.574434 0.28217328 0
2.2117543 3.5872738 1.216347 0
2.4465699 3.5805285 0.66392159 0
2.3459253 3.5744565 0.98613691 0
2.5289772 3.5841613 -0.10861313 0
2.5248761 3.57041 0.37796986 0
-1.7729111 3.7744777 1.3714876 0
2.4854746 3.5748942 0.56865621 0
-2.1556273 3.791357 0.50991166 0
2.5629058 3.5608885 0.18628931 0
-1.6486502 3.7624087 1.553021 0
2.3654933 3.5763562 0.95033693 0
2.5640879 3.5646553 0.08921814 0
-2.1521978 3.7793589 0.61403537 0
2.4823151 3.5637183 0.6633327 0
-3.1764259 -2.8702693 -0.98941779 0
-1.6622226 3.7586811 1.5552793 0
2.4055791 3.5773454 0.8548429 0
2.2513859 3.5964723 1.1477642 0
2.4128652 3.5805805 0.82637787 0
-1.4632082 3.7618687 1.7415259 0
2.5244064 3.5688345 0.47340131 0
-3.1803808 2.8718128 -0.99055529 0
1.8904128 3.6134126 1.6490951 0
2.4455998 3.5768993 0.75956702 0
2.3769217 3.5898976 0.90394044 0
2.5666347 3.5727692 -0.10863775 0
-1.2632694 3.7519934 1.9211519 0
2.5656867 3.5697486 -0.2082094 0
2.0848515 3.5855348 1.4757721 0
2.4786956 3.5770447 0.66606104 0
-2.0244174 3.7791805 1.004231 0
2.54528 3.5766056 0.34545767 0
2.0549126 3.5864973 1.5188546 0
2.1523685 3.6096108 1.3155551 0
2.533314 3.5726824 0.46935892 0
-3.1339293 2.9345808 -0.98522019 0
-2.1476254 3.7855258 -0.68583429 0
2.5428801 3.5630577 0.50570202 0
2.3636687 3.5686529 1.0469909 0
2.4035141 3.5691519 0.9507314 0
-3.1361938 -2.9355023 -0.98587537 0
-2.1526694 3.7804065 0.71078742 0
2.2893286 3.5895033 1.1479208 0
2.5647893 3.5668898 0.37782478 0
-1.7696884 3.7652829 1.4647551 0
-2.1531539 3.7895546 0.67838013 0
2.5291495 3.5676951 0.57887197 0
2.2154789 3.5830791 1.3116052 0
1.9550772 3.5972602 1.645452 0
2.6043615 3.5615497 -0.10880786 0
2.2829075 3.5977724 1.151046 0
2.5679121 3.5768385 -0.31201619 0
-2.0282888 3.7911024 0.99952292 0
2.2110744 3.5863574 1.3209057 0
2.5408182 3.551419 0.66528201 0
-2.0206513 3.7727563 1.094296 0
-2.2723022 3.7892878 -0.0045748949 0
2.485378 3.5745528 0.76058424 0
2.4463513 3.5797105 0.85682857 0
1.9119468 3.5974007 1.7146323 0
2.3267012 3.57985 1.14749 0
2.5711985 3.5873089 0.28083599 0
2.5287833 3.5835111 0.56972301 0
-2.273016 3.7897923 -0.17826962 0
2.4118659 3.573818 0.98718548 0
2.3774955 3.5906267 1.0103319 0
2.5664101 3.572053 0.47366953 0
2.608479 3.5740395 -0.011909187 0
2.5256948 3.5731556 0.66518426 0
-1.8783922 3.7671173 1.3676343 0
2.6062107 3.5671582 0.28127933 0
-1.6859517 3.7631249 1.6142008 0
-1.901063 3.7882855 1.282696 0
2.6431725 3.5533657 -0.10971391 0
-1.6500144 3.7666905 1.6486378 0
2.5650589 3.567749 0.56948948 0
-1.7993302 3.7722838 1.4714122 0
2.6100347 3.5649374 0.3454529 0
-1.7659883 3.7547266 1.5579429 0
-2.1483674 3.7708542 0.90392804 0
-3.1066756 3.0048809 -0.98570025 0
-1.9095364 3.7755733 1.3233867 0
2.6112509 3.5824475 0.085364699 0
2.607892 3.5722587 -0.31412923 0
2.6103106 3.5795946 0.18346095 0
2.4794567 3.5817301 0.82737005 0
2.3469803 3.5823781 1.1498945 0
2.6100059 3.5786707 -0.21330434 0
2.6449623 3.5585439 0.086821318 0
-2.2842174 3.7977121 0.16719043 0
2.4847376 3.5722876 0.85730696 0
2.6443357 3.5567312 0.1844039 0
-2.000174 3.7838948 1.166733 0
2.3696156 3.5806198 1.116245 0
-3.1098604 -3.0062301 -0.98662698 0
2.4055126 3.577081 1.0511749 0
2.0200253 3.5919487 1.6449647 0
-2.1507931 3.7878339 0.84726429 0
2.6446414 3.5576158 -0.21125668 0
2.6076052 3.5713887 0.37752116 0
-2.1587234 3.793848 0.80706739 0
-1.5654154 3.7655146 1.7556338 0
-2.2801805 3.794858 0.33968639 0
-2.1501403 3.7873583 -0.86519754 0
2.526341 3.5643318 0.79584408 0
2.6474195 3.5656536 -0.012623727 0
2.1510005 3.5943582 1.4790578 0
2.5259585 3.574039 0.76191354 0
2.4471107 3.5825515 0.95538235 0
2.2092528 3.5839024 1.4256425 0
-1.3653805 3.7617152 1.938241 0
-2.284791 3.7981179 -0.35566729 0
2.3674102 3.5844488 1.1511292 0
2.5427456 3.5839772 0.68643713 0
2.2815022 3.5859268 1.313576 0
2.610342 3.5665376 0.50597548 0
2.5664444 3.5721626 0.66614449 0
-1.8981452 3.7806685 1.3772092 0
-1.7737212 3.7691076 1.5697403 0
2.6456695 3.5605905 0.37748718 0
2.5238848 3.5670855 0.85824525 0
2.6097102 3.5777736 0.47399616 0
-2.277741 3.7931333 0.51166129 0
2.0632801 3.5984778 1.6254485 0
-2.0341563 3.7864935 1.1738977 0
2.6494293 3.5714691 0.28034067 0
2.6858854 3.5555534 -0.013146818 0
2.4447758 3.5738168 1.0527236 0
2.6489558 3.5700989 -0.3171007 0
2.5643744 3.565568 0.7622993 0
2.5436213 3.5672424 0.8270601 0
2.0846171 3.5824234 1.6435938 0
-2.2816844 3.7959213 -0.53250819 0
2.3675754 3.5780292 1.222455 0
2.4056659 3.5776894 1.151804 0
-3.079608 -3.0753355 -0.98653138 0
-2.1522079 3.7793815 1.0004206 0
-2.1430926 3.7822225 1.0161679 0
-3.0838227 3.0771928 -0.98776555 0
2.6059766 3.5664482 0.6667279 0
2.4794917 3.5819461 0.98944426 0
2.688154 3.5618246 -0.21552217 0
2.6897459 3.5662258 0.084098697 0
-2.0307302 3.7969658 1.1915741 0
-2.0205474 3.7725065 1.2854686 0
2.6111302 3.5820808 0.57094407 0
2.4889202 3.5870826 0.95838642 0
2.6880884 3.5616438 0.28015065 0
2.5335402 3.5729532 0.90394294 0
2.6907082 3.568886 0.18204856 0
2.483825 3.5690591 1.054055 0
2.0515778 3.5817225 1.7269406 0
-1.7689598 3.7632043 1.6551237 0
2.5246873 3.5697765 0.95709515 0
-1.8968885 3.7773876 1.4725103 0
2.6925702 3.5740333 -0.11670297 0
2.346499 3.5787647 1.3137727 0
2.651145 3.5764334 0.47420537 0
2.4143608 3.5907013 1.1526845 0
2.7266803 3.5513229 0.084241867 0
2.2082171 3.5825064 1.5309942 0
-3.0397983 -3.1400704 -0.98390913 0
-1.9040089 3.7712977 1.4902816 0
2.2173505 3.601052 1.4820738 0
2.7281799 3.5552909 -0.015431523 0
2.6055932 3.5652854 0.76381648 0
2.6909437 3.5695372 -0.32071 0
-2.2796249 3.7944653 -0.71179497 0
2.6900733 3.5671303 0.37712109 0
2.6800094 3.5783999 0.34498358 0
2.363445 3.5727839 1.3285422 0
-1.4641469 3.7632477 1.953315 0
2.567673 3.5760767 0.86163664 0
-1.9934144 3.775347 1.3798604 0
2.6974802 3.5567172 0.46049869 0
-2.2878866 3.8003066 0.68444502 0
2.6512909 3.5768549 0.57135785 0
2.6887188 3.5633857 0.47420931 0
2.7305889 3.5616636 -0.11701131 0
2.7280335 3.5549033 0.27975583 0
2.7059002 3.566232 0.34724617 0
2.5300238 3.5687423 1.0121751 0
-1.6724143 3.7727726 1.771332 0
2.6476955 3.5664523 0.66789579 0
2.5437315 3.5678647 0.98905993 0
-1.8015509 3.7740531 1.6401305 0
2.6150784 3.5912144 0.66803932 0
2.6097717 3.5635679 0.82779419 0
2.4483323 3.587121 1.1571233 0
-2.3007522 3.8131139 0.60749698 0
2.7319276 3.5652053 0.18109965 0
2.6793339 3.575135 0.50635815 0
-2.2953262 3.8019352 0.70706534 0
2.483567 3.5681472 1.1547246 0
2.730315 3.5609391 -0.32220858 0
2.6752219 3.5552542 0.66680729 0
-3.058404 3.1485896 -0.98939228 0
2.1509225 3.5934904 1.6480098 0
2.6061125 3.5668612 0.86211193 0
2.281558 3.5863965 1.4803519 0
2.4786568 3.5768049 1.15207 0
-2.1390295 3.7792614 1.1865704 0
2.7339578 3.5705762 -0.22108543 0
2.525938 3.5739713 1.0578561 0
-2.0228834 3.7781179 1.382345 0
-2.4112253 3.799211 -0.19285697 0
2.7697077 3.5519369 -0.017305553 0
-2.4167714 3.8030143 -0.015633702 0
2.4117355 3.5729349 1.3144145 0
2.6911082 3.5699918 0.57171452 0
2.6476188 3.5662305 0.76557708 0
2.7287421 3.5567782 0.47434342 0
-2.4166298 3.8029175 0.16133964 0
-2.0395021 3.7905073 1.3452392 0
2.6872849 3.5594218 0.66847086 0
-2.2812777 3.7956336 0.85693645 0
2.73315 3.5684397 0.3768388 0
-2.2750134 3.7912047 -0.89298081 0
-3.0126891 3.2105491 -0.98531091 0
2.6032445 3.5581613 0.95951426 0
2.5696959 3.5825222 0.96202457 0
-2.2868309 3.7844324 0.90393007 0
-2.1640649 3.8057072 1.0983632 0
-2.4125099 3.800092 0.33773863 0
-1.8902004 3.7824962 1.5854757 0
2.530159 3.5689039 1.1205349 0
2.6980493 3.5573604 0.68266296 0
2.7742984 3.5635757 0.080731988 0
2.7743254 3.5636444 -0.12043333 0
2.5233259 3.5652113 1.1569407 0
2.7097044 3.5705309 0.57049215 0
2.2102845 3.5852928 1.6378126 0
-2.2979107 3.80726 0.8054136 0
-1.5602946 3.7582166 1.9668527 0
2.7735839 3.5617642 -0.22248352 0
2.5650153 3.5676095 1.0590918 0
-2.1570044 3.7900307 1.1946414 0
-3.0224185 -3.2151735 -0.98819745 0
2.34565 3.5723884 1.4789913 0
2.7728119 3.5598066 -0.32602787 0
-1.9030612 3.7935026 1.5716882 0
2.687819 3.5608985 0.76660562 0
2.7725272 3.5590851 0.37674356 0
-2.4100332 3.7983935 0.51360881 0
2.7487745 3.5827954 0.34465706 0
2.7761455 3.568258 0.27819443 0
2.7326407 3.5670919 0.57232702 0
2.7277436 3.5541363 0.66926491 0
-2.0219641 3.7759094 1.478843 0
2.8130412 3.5520635 0.080266118 0
2.67664 3.5621097 0.82881308 0
2.650094 3.5733919 0.86532032 0
2.7792654 3.5761678 0.17871296 0
2.7410934 3.5481637 0.66716743 0
2.8139756 3.5543368 -0.0202775 0
2.2167029 3.5948322 1.650068 0
-2.4281878 3.8108437 -0.37545758 0
2.8122897 3.5502357 -0.22335285 0
-2.2873368 3.7854745 1.0018837 0
2.8132586 3.5525928 0.17951512 0
2.8145645 3.5557694 -0.12193543 0
2.6994793 3.5589764 0.7933141 0
2.5450571 3.5753477 1.1536028 0
-1.7776828 3.7744229 1.7860229 0
-2.9798207 3.2783725 -0.98530245 0
-2.1534657 3.7821739 1.2912328 0
2.5635812 3.563041 1.1595411 0
-2.4180274 3.8038757 -0.55514097 0
-2.2773333 3.7928448 1.0303187 0
-2.9839325 -3.2803996 -0.98653078 0
-2.1063437 3.7774804 1.3913188 0
2.7751825 3.5658169 0.47478271 0
2.3799057 3.5936873 1.4386721 0
2.7488675 3.5832145 0.50675035 0
2.8104854 3.5550253 0.34488869 0
2.815361 3.5577073 0.27793956 0
2.5317767 3.5708413 1.2293017 0
-2.4288464 3.7958028 0.60455227 0
-1.9110138 3.7767162 1.6636426 0
2.4789665 3.5787122 1.3175271 0
-1.8988791 3.782584 1.66698 0
2.6490703 3.5704305 0.96462345 0
2.6145084 3.5882442 0.99309778 0
2.6899467 3.5667801 0.86643767 0
2.695539 3.5545237 0.90394557 0
2.7740715 3.5630002 0.57290924 0
2.8171396 3.5620339 -0.33101881 0
2.6093912 3.5768065 1.0642509 0
2.2074161 3.5814269 1.7440531 0
-2.4133348 3.8006577 0.68985081 0
2.7702098 3.55321 0.67052782 0
-2.0327172 3.7854128 1.5158906 0
2.7324424 3.5665669 0.76915896 0
2.8143716 3.5553005 0.47486794 0
-2.1468101 3.7849314 1.3613639 0
2.8578608 3.554456 -0.022983611 0
2.8189883 3.5665314 0.37632 0
-2.0215607 3.7749403 1.5760837 0
2.4126506 3.5791276 1.4826837 0
-2.9448218 3.3451242 -0.98494399 0
-2.5371418 3.7963543 -0.024035096 0
2.8578553 3.5544436 -0.22831798 0
2.54213 3.5588238 1.3157706 0
2.6475334 3.5659833 1.0647006 0
2.2825675 3.5949061 1.6520414 0
2.8133602 3.55284 0.57318449 0
-2.154129 3.7836468 1.3890398 0
-2.4008288 3.7920809 0.86534226 0
-2.9512796 -3.3484235 -0.9868871 0
-2.421298 3.8061187 -0.74017406 0
2.8619616 3.5640395 0.076586485 0
2.6903403 3.5678687 0.96682858 0
2.6074028 3.570775 1.1651106 0
2.8613653 3.5626457 0.17707598 0
2.6114402 3.5722601 1.15503 0
2.6785622 3.5714037 0.99260783 0
2.7316098 3.5643647 0.86836779 0
-2.294631 3.8005028 1.1007223 0
-2.0036221 3.788255 1.5999103 0
-2.4351759 3.8079443 0.70388842 0
2.8629205 3.5662804 -0.12745547 0
-1.6696894 3.7690046 1.9862156 0
2.8155394 3.5763619 0.50689387 0
2.533632 3.5730631 1.3385756 0
2.7461343 3.5708911 0.83083832 0
-2.5466256 3.8026605 -0.20687193 0
-2.2871161 3.7850196 1.1981814 0
2.861722 3.5634794 -0.33599687 0
2.9000225 3.5494788 -0.024932086 0
2.8640034 3.5688114 0.2764169 0
2.8611302 3.5620964 0.37610686 0
2.7755504 3.56675 0.77108693 0
-2.9050245 3.4093113 -0.98341668 0
2.9002881 3.5500753 0.17672193 0
-2.405951 3.795594 -0.92244506 0
-2.4337988 3.8053036 0.80403388 0
2.385361 3.6006148 1.5481443 0
-2.2799463 3.7946925 1.2061274 0
2.6883979 3.5624983 1.0670877 0
2.9016507 3.5531378 -0.12812519 0
2.3469002 3.5817769 1.6507041 0
2.8127847 3.5647318 0.66885352 0
-2.0185099 3.7676129 1.6727247 0
2.8552241 3.5482941 0.57381344 0
2.902739 3.555584 0.075535536 0
-1.8871536 3.778528 1.8020267 0
2.880229 3.5606263 0.34450471 0
2.8974633 3.5437274 0.37614703 0
-2.55902 3.8109021 0.15492105 0
2.7313619 3.5637088 0.96883619 0
2.7722478 3.558377 0.869802 0
2.8618422 3.5637605 0.47532463 0
2.8872805 3.5599732 0.33351088 0
-2.5528426 3.8067944 0.33564317 0
2.7101407 3.5710239 1.0149524 0
-2.9147568 -3.4144602 -0.98636687 0
-4.36866 -1.037501 -0.98552275 0
-2.0156503 3.7725978 1.6852734 0
2.478786 3.5776017 1.4846756 0
2.7429318 3.556453 0.99246907 0
2.939615 3.5380833 -0.025878549 0
2.8209343 3.5712647 0.67365098 0
2.6505795 3.5747967 1.1698325 0
2.6087317 3.5581496 1.3179913 0
-2.5571246 3.8096418 -0.39227533 0
-2.4331074 3.8039773 0.90393245 0
2.3724272 3.5841904 1.6538606 0
2.9057899 3.5624409 0.27584696 0
2.8797255 3.5586288 0.5068593 0
2.9041927 3.5588508 -0.33941191 0
2.9070477 3.565268 -0.23515099 0
-4.3579321 1.1247144 -0.98347878 0
-4.3785663 1.0376427 -0.98781002 0
2.8179483 3.5640013 0.77271867 0
2.8109341 3.5569193 0.83091402 0
-2.1422482 3.7816072 1.5356979 0
2.8902659 3.5631578 0.44793558 0
-2.1578507 3.7919104 1.488503 0
2.5327709 3.5720317 1.4479651 0
-2.288703 3.7882895 1.2971025 0
2.678884 3.5729592 1.1572273 0
2.859066 3.5572729 0.67381263 0
2.9453201 3.5504265 0.073952675 0
2.6886711 3.5632539 1.1703196 0
-2.8730035 -3.4775875 -0.98453259 0
-2.1077318 3.7791851 1.6112013 0
-2.2313013 3.7907093 1.4055412 0
-2.4098105 3.7982404 1.0440462 0
-2.8741021 3.4781892 -0.98486817 0
2.7323928 3.5664358 1.0714636 0
-2.553103 3.8069675 -0.57723689 0
2.4123662 3.5772021 1.6519303 0
-2.5604057 3.8118234 0.51591527 0
2.9449387 3.5449045 0.34448647 0
2.8903127 3.5632076 0.56236744 0
2.8797069 3.5518944 0.67715573 0
2.7754128 3.5664008 0.97240925 0
2.9062309 3.5634315 0.47562933 0
2.8165154 3.5605152 0.8727355 0
2.9475241 3.5551949 -0.23689294 0
2.9465981 3.5531914 0.27540505 0
2.8571434 3.5527797 0.77330959 0
2.9495335 3.5595427 -0.13310355 0
2.7123547 3.5735257 1.126235 0
-2.5440335 3.8009367 0.69553566 0
-2.4339395 3.8055727 1.0038383 0
-1.7771897 3.7737615 2.0042906 0
-4.3814092 -1.1253866 -0.98890114 0
2.9462433 3.552424 0.37565708 0
-2.5738249 3.8035684 0.59926033 0
2.9477997 3.5557914 -0.34349173 0
2.9520092 3.564899 0.17367172 0
2.9059358 3.5627687 0.57557178 0
2.8819728 3.5675442 0.66985774 0
2.7295659 3.5589571 1.1730409 0
2.5456359 3.5786154 1.4874897 0
-4.3665323 -1.2125225 -0.98618841 0
-2.2802286 3.7948921 1.3835616 0
2.9457083 3.5477831 0.50696552 0
2.9890316 3.5467534 -0.13412553 0
2.9898143 3.5483851 0.07185173 0
2.815846 3.558887 0.97399056 0
-2.2890582 3.789021 1.3962946 0
-4.3473887 -1.2990949 -0.98277509 0
-2.1578312 3.7918668 1.5875449 0
2.7058542 3.56618 1.236995 0
-2.8364596 3.5434575 -0.98456454 0
2.9054863 3.5617585 0.67579675 0
2.9897203 3.5481894 -0.23958021 0
2.8121448 3.562031 0.99503613 0
2.9926286 3.5542524 -0.031772792 0
2.7759275 3.5677059 1.0753579 0
-1.9981461 3.7813308 1.8182878 0
2.9876232 3.5438178 -0.34513521 0
2.8999813 3.549386 0.77503145 0
2.8853559 3.5579202 0.79042172 0
2.9869432 3.5424004 0.37551272 0
2.5351446 3.5748744 1.558599 0
2.7686365 3.549221 1.1743789 0
2.8612509 3.5623789 0.8757484 0
2.3777528 3.5909534 1.7649727 0
2.9477515 3.555687 0.57613897 0
2.9927008 3.5544026 0.27431822 0
2.8803868 3.5612519 0.83272505 0
-4.3602047 1.2998295 -0.98573864 0
-2.4044552 3.7945681 1.2222996 0
2.985924 3.5402751 0.47584605 0
-4.3844595 1.2132927 -0.99033093 0
2.9535732 3.5682826 0.47604775 0
-2.6806374 3.8013103 -0.22054815 0
2.7474105 3.5766451 1.1600726 0
2.9961922 3.561681 0.1722796 0
2.8773015 3.5493283 0.9039489 0
-2.5452042 3.8017151 0.8762821 0
-2.5630512 3.8135827 -0.76826024 0
-2.4380732 3.8135023 1.1042695 0
-2.5805254 3.8155682 0.70036197 0
-2.8502774 -3.5512822 -0.98881948 0
-2.689496 3.8070199 -0.035698414 0
2.6797104 3.576956 1.3242741 0
2.4797339 3.5834377 1.6563478 0
2.947474 3.5543888 0.67005312 0
3.033885 3.5443738 0.069919109 0
2.9479616 3.5561416 0.67688417 0
3.0352843 3.5471869 -0.033732891 0
-2.1412029 3.7808454 1.7136345 0
2.8605444 3.5607278 0.9776814 0
2.7031395 3.5631123 1.3481925 0
3.0113473 3.535032 0.50705469 0
-4.3507214 1.3868723 -0.98484731 0
3.0329373 3.5424685 0.27395451 0
-2.5794907 3.8137152 0.80225277 0
-2.4332423 3.8042357 1.2039788 0
3.0354676 3.5475557 -0.24408478 0
3.0331154 3.5428264 -0.35024726 0
-1.8843472 3.774873 2.0218511 0
2.6134171 3.5825598 1.4912252 0
3.0180364 3.5586927 0.34391606 0
2.8214798 3.5725915 1.0803332 0
-2.7034831 3.8160346 0.14843929 0
-2.8063531 3.613117 -0.98688686 0
-2.2924218 3.7959511 1.4970348 0
-2.8068619 -3.6134148 -0.98704493 0
-2.6966095 3.8116047 0.33349752 0
3.0405383 3.5577495 -0.14044076 0
2.9472103 3.5545158 0.77800047 0
3.0403533 3.5573778 0.17092192 0
2.9067528 3.5646048 0.87895417 0
3.0349565 3.5465279 0.37508011 0
-4.3643909 -1.3878522 -0.98801112 0
-2.5557051 3.8086977 -0.95766485 0
-2.5765824 3.8085072 0.9039346 0
-2.2726636 3.7895432 1.5612264 0
2.8804436 3.5614774 0.99696136 0
3.0765429 3.5366189 0.06840229 0
-2.1621122 3.8013713 1.6893187 0
-2.4274597 3.7931435 1.3033338 0
2.7445271 3.5636451 1.3243842 0
2.9959166 3.5611067 0.57747138 0
-2.2315063 3.7909539 1.6282907 0
2.813859 3.569268 1.1612861 0
2.5361438 3.5760713 1.6697795 0
3.0786018 3.5406141 -0.035903573 0
-2.7010226 3.8144486 -0.41176105 0
-2.1046238 3.7753685 1.8326001 0
2.675983 3.558934 1.4887004 0
2.8611841 3.562223 1.0816715 0
2.5458856 3.5800254 1.6584134 0
2.8877573 3.560482 1.0175588 0
2.9927783 3.5545638 0.67842972 0
2.9452398 3.5502529 0.8794018 0
-2.3603697 3.8047397 1.4204798 0
-2.7589474 -3.6726236 -0.98412347 0
-4.3507671 1.4746425 -0.98645139 0
-2.5724697 3.8011422 1.0052812 0
2.8197894 3.5684803 1.1842861 0
3.0816417 3.5465119 -0.14210147 0
2.9502752 3.5648677 0.83456802 0
-4.3549542 -1.475003 -0.98742163 0
-2.6930761 3.8093271 -0.60025227 0
3.0815318 3.5462987 -0.24863034 0
3.0811133 3.5454872 0.27267277 0
-2.55372 3.8073776 1.0593178 0
-2.7043052 3.8165643 0.51806211 0
-2.4043283 3.794481 1.403312 0
2.8556108 3.5491984 1.1832347 0
3.0418186 3.5603235 0.47658873 0
2.990798 3.550436 0.77982736 0
2.908752 3.569098 0.98292065 0
3.0162826 3.552489 0.67091334 0
3.0853925 3.5537899 0.16942179 0
3.0696146 3.5449457 0.43753481 0
-2.6859746 3.8047502 0.70186889 0
-2.2911448 3.7933202 1.597049 0
3.0774715 3.5528591 0.31867433 0
-2.7724752 3.680804 -0.98835945 0
2.9441407 3.5478749 0.98200488 0
3.0778956 3.5392437 0.47654498 0
2.8826542 3.5550382 1.1309438 0
3.0731754 3.5300853 0.57781911 0
3.0831122 3.5493653 0.3746562 0
-2.4272313 3.7927055 1.4039428 0
2.6099329 3.5644057 1.6574118 0
3.0819798 3.5384638 0.50745606 0
-4.3432803 1.5618734 -0.98660123 0
3.068162 3.5434825 0.55472648 0
3.0366344 3.5499012 0.67974746 0
2.7146003 3.5760634 1.4621844 0
3.1262336 3.5412745 0.065062046 0
-2.7256346 3.8141103 0.59331489 0
3.0885408 3.5604641 0.34354305 0
-4.349483 -1.5624969 -0.98804045 0
2.5327456 3.5720017 1.7805948 0
3.1248083 3.5386035 -0.25169784 0
2.9921503 3.5532548 0.88299751 0
3.089438 3.5616388 -0.36156237 0
3.0467911 3.5703199 0.57907557 0
2.7423401 3.5537846 1.4907479 0
2.8818169 3.5669267 1.1634817 0
2.9089079 3.5694482 1.0876074 0
2.9497609 3.5629432 0.99927473 0
3.123559 3.5362625 0.37453079 0
-1.9948192 3.7771237 2.0405216 0
2.8996658 3.5486767 1.1878281 0
-2.7274718 -3.7417479 -0.98663545 0
3.1307225 3.549686 -0.14707929 0
2.9861894 3.540828 0.98424792 0
-4.3297076 1.6484411 -0.98562694 0
2.8145671 3.5722568 1.3290591 0
-2.58079 3.8160427 1.1075335 0
-2.7252407 3.8134501 0.69707847 0
3.0709391 3.5462797 0.67116201 0
3.133492 3.5548759 -0.041942239 0
3.1278098 3.5442278 -0.36220652 0
-2.7013526 3.8146615 -0.79511106 0
-2.733882 3.7457504 -0.98866045 0
-2.2893414 3.7896044 1.6974678 0
3.0185509 3.5605128 0.83578455 0
3.1319723 3.5520277 0.27113116 0
3.039778 3.556221 0.78310549 0
3.1248987 3.5387728 0.47691882 0
3.1358068 3.5592134 0.16695285 0
-4.3400202 -1.6496272 -0.98802352 0
-2.5525603 3.8066065 1.2428069 0
2.9494665 3.5593977 1.0893617 0
-2.4279327 3.7940507 1.5053611 0
2.675437 3.5562937 1.6587121 0
2.8874269 3.5601294 1.2452376 0
3.0857294 3.5510371 0.67185545 0
3.0767589 3.5370386 0.78305554 0
3.1717634 3.5367653 -0.14867824 0
-2.5761499 3.8077321 1.2089434 0
-2.3963337 3.7889984 1.5845854 0
3.0852385 3.5534904 0.68194866 0
3.1739078 3.5406487 -0.043015957 0
2.7136779 3.575021 1.5749793 0
-2.7268538 3.8161533 0.80049038 0
3.1760082 3.5444527 0.061803222 0
3.0146594 3.546747 0.99947 0
-2.7048616 3.8169229 0.88869762 0
-2.3547268 3.7982023 1.6448836 0
3.0403686 3.5574086 0.88694096 0
3.128089 3.5447514 0.57983649 0
-4.3251424 1.7360719 -0.98703611 0
2.9483213 3.5575583 1.1646929 0
3.1568928 3.5532906 0.34331369 0
-2.6905632 3.8077075 -0.98775268 0
2.9459925 3.5518813 1.1937375 0
-2.6913142 -3.8081918 -0.98799205 0
2.8798304 3.5590446 1.3295765 0
-2.2274432 3.7861078 1.8525736 0
-2.2873363 3.7999175 1.7484245 0
-2.5703793 3.7973976 1.3100238 0
-4.2968426 -1.8204769 -0.98320425 0
3.1776984 3.5475137 -0.25933158 0
3.1798029 3.5513248 0.16572285 0
3.0808022 3.5562139 0.78729486 0
3.1750751 3.5427628 0.3740021 0
2.992332 3.5536342 1.0923743 0
-4.3002863 1.8209732 -0.98400748 0
3.2150302 3.5272508 0.061298847 0
3.1758265 3.5441236 -0.36832064 0
3.0356927 3.5480077 0.98972583 0
3.084321 3.5463145 0.83619666 0
3.0684237 3.5437462 0.9039526 0
2.8112731 3.5583503 1.4953327 0
2.8841915 3.5566781 1.3591361 0
3.1559639 3.5503314 0.50803208 0
3.1733751 3.5396843 0.47733641 0
-2.8618469 3.8256555 -0.049304724 0
-2.4909167 3.8163431 1.4354842 0
-2.8532729 3.8203015 0.33110714 0
3.1829429 3.5570114 0.26962709 0
-4.3426108 -1.7383347 -0.9911027 0
-2.8601971 3.8246253 -0.24069893 0
-2.7299528 3.8213477 0.9039371 0
-2.8650842 3.8276768 0.14096093 0
2.7057583 3.566072 1.6867137 0
3.221242 3.5381293 -0.046338916 0
-2.6920724 3.8086805 1.0736184 0
-2.8518286 3.8193996 -0.43235046 0
2.7425079 3.5545418 1.662019 0
3.0847497 3.5525422 0.88942885 0
-2.4306402 3.7992442 1.6082294 0
3.1346049 3.5569611 0.68422365 0
3.1535738 3.5427163 0.67247891 0
3.1281853 3.5449317 0.78684676 0
-2.6486936 -3.8705308 -0.98758662 0
3.2243662 3.543601 0.16440308 0
-2.850924 3.818835 0.52024448 0
3.225553 3.5456793 -0.15530866 0
2.991725 3.5523686 1.1990764 0
3.2239056 3.542794 0.2692256 0
3.082335 3.539655 1.0009518 0
-2.7284899 3.8188958 1.007458 0
3.2257094 3.5459533 -0.26444489 0
3.0718586 3.5472059 1.0203156 0
3.0383132 3.5532761 1.0969596 0
-4.2956901 -1.9087287 -0.98599172 0
3.0820651 3.547334 0.99368119 0
3.180275 3.5521798 0.5814836 0
3.2232614 3.5416658 -0.37396985 0
3.0163226 3.5526302 1.1667962 0
-2.5559702 3.8088741 1.429306 0
3.174392 3.5415258 0.68469763 0
-2.5742073 3.8042531 1.4132946 0
3.2259479 3.5470035 0.34304893 0
3.1266203 3.5419989 0.89103031 0
3.2267399 3.5477579 0.37348449 0
3.2221699 3.5397546 0.47775459 0
3.2579706 3.5263178 0.30576622 0
-2.119297 3.7933867 2.0647964 0
2.8853197 3.5578818 1.4740565 0
-2.8565097 3.8223228 -0.62843144 0
-2.6003881 -3.9289374 -0.98561871 0
3.2673101 3.5322661 -0.15712899 0
3.0766277 3.5367842 1.097559 0
-2.8783989 3.81687 0.58754718 0
3.1538503 3.5435975 0.83774948 0
-4.2738004 -1.9937522 -0.98422265 0
3.1734259 3.5397761 0.78894079 0
3.2711506 3.5387735 0.056615591 0
-2.4286604 3.7954462 1.7102518 0
2.9513354 3.5688345 1.3349118 0
-2.8536072 3.8205104 0.70972991 0
3.2684479 3.5341942 0.26844335 0
3.2687173 3.5346503 -0.26717323 0
3.2261262 3.5475447 0.50836086 0
-4.3156457 1.9118967 -0.9906565 0
3.2720387 3.5402787 0.16256046 0
3.2161353 3.5291862 0.68554461 0
3.2736919 3.5430801 -0.051187932 0
-4.2813282 1.9950581 -0.98598647 0
-2.7302971 3.8219242 1.1112556 0
3.125879 3.5406101 0.99647951 0
3.038362 3.5533745 1.2048039 0
2.8105447 3.5552757 1.6662855 0
3.2256424 3.545836 0.58235788 0
2.8829796 3.5715396 1.5022216 0
3.2677693 3.5356367 0.42492282 0
3.2712519 3.5389454 -0.37979567 0
3.2717624 3.5398104 0.37320983 0
-2.8812904 3.8214154 0.69295096 0
3.0823274 3.5396302 1.1677346 0
3.1738138 3.5404787 0.8943851 0
3.1505954 3.5332277 1.0026498 0
3.2253051 3.5450537 0.67374706 0
-2.4136415 3.8008678 1.7763436 0
2.7158959 3.5775275 1.8038821 0
-4.258584 -2.0798273 -0.98430204 0
-2.854825 3.8212707 -0.82584798 0
-2.7249599 3.8129787 1.2144678 0
-2.6104131 3.8118136 1.4476225 0
3.0821769 3.5575984 1.1374874 0
-2.5597491 -3.9925261 -0.98641956 0
3.2724659 3.5410028 0.47821426 0
3.2596221 3.5192385 0.68670213 0
-4.2641578 2.0808764 -0.98561156 0
3.2670748 3.5318673 0.58281493 0
3.1241169 3.5373077 1.1027586 0
2.8839114 3.5563793 1.5891595 0
-2.487412 3.8123977 1.6639509 0
-2.3557143 3.7993467 1.8740902 0
3.2950397 3.5394518 0.34278798 0
3.3151808 3.5283496 0.26744616 0
3.2708139 3.538532 0.54484248 0
-2.8506765 3.8186803 0.89955246 0
-2.7091889 3.8197119 1.2646997 0
3.3200047 3.5362628 0.053794265 0
3.0815027 3.5462422 1.2083211 0
-2.2230902 3.7809155 2.079936 0
-2.5828223 3.8196824 1.5188763 0
3.3222806 3.5399961 -0.054727793 0
-2.8831215 3.8242934 0.79842293 0
3.3159757 3.5296533 -0.38382494 0
3.3165855 3.5306537 0.37294447 0
3.3116746 3.5225978 0.4782908 0
3.2255652 3.5457008 0.79270971 0
-2.5512772 3.8057535 1.616396 0
3.2938681 3.536062 0.50854921 0
3.3241341 3.5430367 0.16000891 0
3.0201437 3.5661466 1.3379545 0
-2.9953718 3.8155923 0.32903683 0
2.9494307 3.5617087 1.5038805 0
3.2703984 3.538137 0.66479015 0
3.2249186 3.5438817 0.83967757 0
3.3236649 3.5422671 -0.2752068 0
-2.7233129 3.8102186 1.3182034 0
2.8780608 3.5520236 1.669735 0
3.3279266 3.5492575 -0.16602242 0
3.1784778 3.5489249 1.0027781 0
3.0793049 3.529495 1.3343203 0
-2.5758214 3.8071444 1.6207104 0
-3.0166097 3.8284349 -0.060968161 0
3.0845027 3.5599408 1.2548027 0
-2.8845739 3.8265758 0.90393949 0
2.8776083 3.5496557 1.7037458 0
3.3154135 3.5287313 0.5839771 0
-4.2557201 -2.1684391 -0.98758161 0
3.3655086 3.5271778 0.15928221 0
-4.2563581 2.1685688 -0.98773181 0
3.2264576 3.5472634 0.89940476 0
-3.0159121 3.8280134 -0.25720656 0
-2.5226917 -4.0588498 -0.98871648 0
-2.8758812 3.8129127 1.0091417 0
3.1523862 3.5389335 1.1708765 0
3.1290693 3.5465882 1.2143233 0
3.3685479 3.5320067 -0.16733003 0
3.2728879 3.5405045 0.78435826 0
-3.0251336 3.8335898 0.13365221 0
3.2718897 3.5400262 0.79496288 0
3.0138435 3.5438616 1.5038509 0
3.3644972 3.5316131 0.34251285 0
-3.0123048 3.8258319 -0.45453924 0
3.3743939 3.5412946 0.049752116 0
3.2983236 3.5489533 0.67516482 0
3.3668649 3.5293326 0.37250185 0
3.1791415 3.5501275 1.1114209 0
3.360826 3.5214632 0.5086987 0
3.2243128 3.5420439 1.0064526 0
3.2241011 3.5431364 1.0061393 0
-4.233849 2.2533412 -0.98667932 0
3.3776436 3.5464573 -0.060215473 0
-2.7250371 3.8131082 1.4230106 0
-2.9990921 3.817842 -0.65158892 0
3.0806754 3.5560861 1.371839 0
3.3667049 3.5290787 0.4788928 0
2.9445906 3.5436022 1.6720309 0
3.3756194 3.5432417 -0.2817148 0
-3.0165014 3.8283696 0.52279401 0
3.3765705 3.5447526 0.26502109 0
-2.7082667 3.8191175 1.4551649 0
-2.8644595 3.827287 1.0927157 0
-2.5730658 3.8022096 1.7242966 0
3.37286 3.5388572 -0.39394832 0
-4.2417717 -2.2550688 -0.98855138 0
3.2725942 3.540225 0.90395665 0
3.2943821 3.5375493 0.84109688 0
-2.5350394 3.7949562 1.8024149 0
