# .PCD v0.7 - Point Cloud Data file format
VERSION 0.7
FIELDS x y z intensity
SIZE 4 4 4 4
TYPE F F F F
COUNT 1 1 1 1
WIDTH 1429
HEIGHT 1
VIEWPOINT 0 0 0 1 0 0 0
POINTS 1429
DATA ascii
-1.2885289 4.2660542 0.34727108 0
1.4804912 4.1374793 0.81840169 0
-0.29923391 4.2019992 1.4949613 0
0.80090857 4.1573658 1.4352317 0
1.7092874 4.1281552 0.14763176 0
-4.2636619 -1.1220149 -0.7424314 0
0.64371896 4.1814828 1.4458046 0
-4.2949586 1.1229111 0.53114295 0
1.3873992 4.1463423 0.93508041 0
-4.2678547 -1.2945364 0.32060111 0
-1.1618962 4.2761416 0.60075295 0
-4.2623978 -1.0068989 0.90392256 0
1.3424779 4.1346579 1.0496199 0
-4.2846274 0.22028539 1.2625468 0
-4.2861772 1.0363201 -0.74644947 0
-4.2778606 -0.33029389 1.2626529 0
-0.91034842 4.2623119 1.003732 0
1.023975 4.1719832 1.2449045 0
1.5429413 4.1405807 0.69269228 0
-4.2805128 1.0116832 0.81169498 0
-4.2797408 -1.2952176 0.10952294 0
-4.2700963 -1.2946649 -0.31387526 0
-4.2687168 -0.44018522 1.2628319 0
0.95686042 4.1678061 1.3132911 0
-4.2952924 1.2094616 -0.31644124 0
-4.2805185 1.2952622 0.10948205 0
-4.2693391 -0.89236033 0.99522698 0
1.7093086 4.126183 0.25923395 0
1.7092286 4.1336317 -0.078566015 0
1.5726371 4.1286359 0.70419514 0
1.7093409 4.1231742 -0.30692607 0
1.6638603 4.1251416 0.48113954 0
0.066431046 4.2142816 1.5007401 0
-1.1974428 4.2603488 0.6577599 0
-4.2701778 -0.77770936 1.0855281 0
-0.86725307 4.2512722 1.0923057 0
1.0076311 4.1585135 1.3077323 0
-1.1118329 4.2581511 0.80801797 0
1.3463321 4.1461711 1.0091271 0
-4.2702923 0.44036677 1.2629802 0
-0.79882765 4.2539577 1.1368334 0
1.6181718 4.1301284 0.59249234 0
-1.36408 4.2525067 -0.29251575 0
1.3232496 4.1438603 1.0532703 0
1.4701205 4.1369119 0.8713882 0
-4.2716885 -1.1275747 0.71831012 0
1.7547394 4.1178985 0.036728978 0
1.176692 4.1381707 1.2365689 0
0.55777466 4.1778564 1.508034 0
1.2033584 4.1376948 1.2155678 0
-4.2691221 -1.0134383e-05 1.3503845 0
-0.17745781 4.2160225 1.4977901 0
-0.90838003 4.2440853 1.1027853 0
0.72102988 4.1778545 1.44207 0
-0.71496105 4.2485132 1.2253494 0
-0.05532074 4.2204442 1.4997635 0
1.7091925 4.1369991 -0.19382465 0
1.1994609 4.1539044 1.1759627 0
-0.3475337 4.2199159 1.4656849 0
0.69046855 4.1960177 1.4122553 0
-4.2637672 -0.55088526 1.2637048 0
1.7093123 4.1258354 0.37026238 0
-1.1818893 4.2592826 0.73880672 0
-0.66292143 4.2373309 1.3000674 0
-4.2682562 -0.21934493 1.3510194 0
-1.2864227 4.2649355 0.49813604 0
0.93764782 4.1488762 1.4153588 0
-3.0430331 -3.1415515 -0.98486245 0
1.7547647 4.1249614 -0.077166975 0
-0.60983658 4.2385821 1.3280606 0
-4.284636 1.2090037 0.53101659 0
-1.1926599 4.2549648 -0.75884104 0
-4.2754726 1.0151234e-05 1.3511271 0
-4.2542963 -1.2077 0.74031544 0
-1.1586256 4.2564955 0.80348253 0
-1.032331 4.2466345 1.003715 0
-4.2816114 1.2953248 -0.3152914 0
-1.3766217 4.2658353 -0.13333046 0
-4.2547555 -1.2077198 -0.74129736 0
-4.2613969 -1.2941663 -0.52692586 0
-4.2656713 -1.3807752 -0.10137403 0
-4.2766781 0.66532689 1.1755672 0
1.6319387 4.1372471 0.58002079 0
-4.2787356 1.1224465 -0.74536276 0
-4.2549696 -0.43860051 1.3516757 0
-4.2720232 0.21956131 1.3514605 0
-0.88806653 4.2467031 1.1409159 0
-4.2876058 1.2091312 -0.53039742 0
-4.2582111 -1.0359198 -0.96002102 0
-4.28228 0.89538378 0.9955368 0
0.063718319 4.1921444 1.598196 0
1.7547657 4.1252789 -0.19151479 0
-4.2773275 1.010842 0.90392303 0
-0.25348783 4.2207351 1.5031345 0
-4.2675705 -1.1263597 0.81126702 0
1.6638502 4.125546 0.59217525 0
0.30790019 4.1812239 1.602447 0
-4.2851095 0.7807492 1.0862384 0
-1.3787007 4.2680449 0.18693161 0
1.5276928 4.1180706 0.92863405 0
-4.2676883 -1.2465098 0.6230514 0
-4.2849998 1.131502 0.717664 0
1.073781 4.1556001 1.3172045 0
-4.2816467 -0.6661908 1.17592 0
0.68396115 4.1720753 1.5116541 0
1.4331914 4.1510091 0.93506432 0
-0.63039231 4.2320523 1.360836 0
-4.2688646 0.3295176 1.3520136 0
-4.2645078 -0.89123148 1.0863998 0
1.6182234 4.1288204 0.70402575 0
1.4863815 4.1396461 0.90394044 0
-0.94391608 4.250021 1.099751 0
-4.2840862 1.1225997 0.74171615 0
-4.2840781 -0.94998401 0.95303512 0
1.3427477 4.137898 1.1140091 0
1.2468793 4.1516337 1.1736901 0
1.5434874 4.1267147 0.87019849 0
1.7547879 4.1314754 0.14735556 0
-1.0824857 4.2553964 0.94389343 0
-0.78745389 4.2462506 1.2335 0
-0.41520834 4.2216196 1.4759459 0
-4.2655396 -1.0360247 0.95146716 0
-4.2851701 0.95001596 0.95313072 0
1.8000381 4.1152253 0.036997557 0
-1.035769 4.2647734 0.95682573 0
-4.2659988 1.0360312 0.95150733 0
-4.2829657 0.95001596 -0.96559405 0
1.1042771 4.1556191 1.3015471 0
-4.2899103 1.2958006 0.32021546 0
0.95220315 4.1517463 1.4292321 0
-1.1569321 4.2463236 0.90393293 0
1.7092957 4.1273799 0.48116446 0
1.3878285 4.1424875 1.0500929 0
-4.2638941 -1.3806479 0.32057333 0
1.5726098 4.1291442 0.81661201 0
-4.2836537 0.11002912 1.3522682 0
1.525763 4.1464124 0.81907821 0
-0.54116011 4.2361202 1.3992593 0
-4.2749991 1.381444 0.10948002 0
1.7094389 4.1140456 0.59152985 0
-0.33860159 4.2197218 1.509022 0
-4.2880774 0.94998395 0.95338511 0
-4.2771692 0.5528211 1.2649696 0
-4.2754736 -1.381478 0.10945511 0
1.7092091 4.1354537 -0.42788768 0
-4.2663121 -1.0079327 0.99580908 0
-1.3867111 4.2765579 0.026081443 0
-0.90754724 4.2363758 1.2019396 0
-0.69900036 4.2365341 1.3336911 0
1.2947949 4.143867 1.1702991 0
1.6301644 4.1337209 0.68837345 0
-0.78463936 4.2326627 1.3003654 0
-1.2868462 4.2670941 0.59981728 0
0.87392223 4.1713881 1.4354401 0
-0.42249537 4.2135158 1.5141065 0
1.800133 4.120533 -0.076542795 0
-4.2765293 -0.33017898 1.3529131 0
-0.056814671 4.2044702 1.598083 0
1.6158705 4.1408463 0.6925832 0
1.8001018 4.1187882 -0.19034779 0
-1.1972525 4.2601347 0.81307197 0
-4.2708068 -1.3811433 -0.31464577 0
-4.2640662 -1.2453271 0.7170223 0
1.7547718 4.1269603 0.37024558 0
1.1525369 4.1518898 1.2981281 0
1.7548037 4.1358738 0.25873458 0
1.2498703 4.1426816 1.236079 0
1.754792 4.1325998 -0.30906475 0
-4.2773461 1.2950804 -0.52945614 0
0.1876626 4.2013664 1.6024673 0
-4.2774057 -1.2950838 0.53096581 0
-4.2730808 1.3813064 -0.31492567 0
-4.2504144 -0.77368599 1.2660415 0
1.800193 4.1238804 0.14797735 0
-4.2656107 -1.0125065e-05 1.4402578 0
-4.2535329 -1.1217248 -0.95936656 0
1.0517365 4.1775351 1.3101494 0
1.6638769 4.1244783 0.70351756 0
-4.2648854 -0.10949045 1.4403768 0
1.4794986 4.1495137 0.93417323 0
-1.0198927 4.2458372 1.1069055 0
-0.4196713 4.2275624 1.4981904 0
1.201 4.1448383 1.2940025 0
-4.278492 0.77940208 1.1771719 0
-4.2681417 -1.1265281 0.90392363 0
-4.2879801 1.3823745 -0.10333079 0
-1.294657 4.2727566 -0.61373115 0
0.33295918 4.1790462 1.6537879 0
-4.2688208 0.10960341 1.4409301 0
-4.2653098 -0.21917565 1.4410999 0
-1.3742287 4.2632918 0.50511086 0
-3.0093884 -3.2089803 -0.98433173 0
-4.287724 1.1323059 0.8107785 0
0.8121444 4.1674409 1.5160041 0
1.7547652 4.1250992 0.48112178 0
1.6277554 4.1289334 0.7963407 0
-4.2605691 -1.3804095 -0.52767426 0
-4.2869601 1.2956314 0.53113282 0
1.8002471 4.1269045 0.259179 0
1.80019 4.1237164 -0.3071264 0
1.7547926 4.1327686 -0.4271245 0
1.8452932 4.1128559 0.14884281 0
-4.3008308 -0.11052212 1.3542776 0
-4.2533383 -1.4662549 0.32063949 0
1.6163826 4.1204019 0.86944115 0
1.800114 4.1194715 0.37036788 0
-1.4642951 4.2627058 0.18403661 0
-4.2840652 -0.78053671 1.1775699 0
-4.2625446 -0.89077276 1.1777456 0
0.55764675 4.1773262 1.6103027 0
-4.2820315 1.2088917 -0.7466042 0
-1.116755 4.263854 0.96318305 0
-4.2838492 1.0362868 -0.96594071 0
-0.17746329 4.2159386 1.5983992 0
-1.2938673 4.271893 0.6615926 0
1.6180861 4.132308 0.81674051 0
-4.2701969 0.21945642 1.4417882 0
-4.2632356 -0.32903191 1.441916 0
-3.0706801 3.1542103 -0.99301004 0
1.4862807 4.1394305 1.0103235 0
-0.79020357 4.2363043 1.3399062 0
-4.2599621 -1.2940841 0.74083877 0
-0.98528337 4.2525735 1.1470253 0
-0.5120151 4.2182889 1.5218053 0
-4.2670956 -1.1221132 0.95176494 0
1.4333525 4.1493483 1.0505028 0
-4.2569766 -0.94998407 1.1624525 0
1.3953822 4.1613026 1.0547411 0
0.16991019 4.1915641 1.667064 0
1.3887491 4.1342225 1.16538 0
-1.3906944 4.2807913 0.34586966 0
-0.70986915 4.2416811 1.3734875 0
-1.2841158 4.2531714 0.80303812 0
-4.2713342 -0.55197823 1.3552806 0
-0.49146652 4.2339678 1.4900699 0
-0.55390954 4.2239804 1.4973805 0
1.8455462 4.1207104 -0.076751053 0
-4.2643433 -1.2454175 0.81051731 0
-4.2828913 -0.66640711 1.2671647 0
-4.2700005 -1.4676894 -0.10234964 0
1.2480888 4.1438341 1.291714 0
-1.2878048 4.2719827 0.70114076 0
-4.2603827 -1.4668614 -0.31419748 0
1.6640077 4.1192613 0.81495786 0
-1.3847606 4.2744851 -0.46161002 0
-4.2803745 1.0164243e-05 1.4423335 0
1.4804933 4.1374536 1.0473812 0
-4.2880611 1.0136768 0.99633336 0
-4.2710381 -1.4677787 0.10933113 0
-4.2642355 1.2943289 0.741063 0
-4.2866859 0.44225651 1.3554089 0
-1.2785273 4.255115 0.81750631 0
1.8456324 4.1233883 0.035855293 0
1.8001572 4.1218815 -0.4243378 0
-0.29875064 4.2154679 1.597321 0
-4.2894888 1.2092122 0.74216151 0
0.43625641 4.1990957 1.6093924 0
1.7093461 4.122694 0.70329034 0
-1.1806071 4.2569995 0.94816589 0
1.5724163 4.1327462 0.93052363 0
1.0253344 4.1623054 1.4291844 0
-1.1890767 4.2509313 0.96783948 0
-4.2701497 1.3810964 -0.52919555 0
-4.2754698 0.55257559 1.3557692 0
-1.2857001 4.2629604 -0.77712309 0
-4.2941809 0.89816439 1.0878203 0
-0.87178969 4.257009 1.2452261 0
-4.2824745 1.1307571 0.90392411 0
-0.66339016 4.2466564 1.4010031 0
-4.2640548 -1.3675945 0.62054884 0
1.1017646 4.1467252 1.4242213 0
1.6888089 4.1360741 0.6922648 0
-4.2883668 0.66735917 1.2676837 0
1.8456397 4.1236153 -0.19150746 0
-1.4677727 4.2662973 -0.3054359 0
0.64687395 4.1667604 1.6338162 0
-4.262918 -0.66293454 1.3563476 0
-1.0344241 4.2618976 1.1043241 0
1.3981093 4.1212492 1.2307653 0
-4.2654552 -1.1257355 0.99652898 0
-1.2878332 4.2714677 0.74211442 0
-4.3003664 1.2571794 0.62064815 0
-4.2664332 -0.95001596 1.1636136 0
-1.4767306 4.2755485 0.02070725 0
-0.54111052 4.2338128 1.4991918 0
0.68354428 4.1705418 1.6143644 0
-4.2956672 1.3829256 0.32001734 0
1.7744293 4.121521 0.57639027 0
-4.2738333 -1.009919 1.0881577 0
-1.2823167 4.2439976 0.90393353 0
-1.47615 4.2749486 -0.14257801 0
-4.2712259 -1.2947296 -0.7453419 0
-4.2548809 -1.364305 0.7156322 0
1.3229409 4.1476021 1.2358212 0
-1.0755351 4.2425933 1.1511614 0
-0.94100332 4.2464437 1.2520452 0
1.5268395 4.1306033 1.0453773 0
0.24699557 4.202064 1.6643009 0
-1.3770998 4.2663431 -0.62558949 0
-4.2782207 -1.3816749 0.53107727 0
-4.2783961 0.89447641 1.1788845 0
1.800231 4.1260104 0.48114622 0
-0.078089237 4.2005858 1.6869729 0
1.8906795 4.1138668 0.036805868 0
0.94128823 4.15976 1.5204873 0
-0.6621604 4.2221818 1.4981678 0
0.064313173 4.1969976 1.7004819 0
1.6890739 4.1113849 0.86853862 0
1.2947923 4.1438861 1.2898984 0
1.4692559 4.153007 1.0531731 0
-1.1038871 4.2489452 1.1159005 0
-4.2538567 -1.0358574 1.1621449 0
-4.2436481 -1.5518577 0.32066905 0
0.0024935007 4.2063389 1.6821508 0
-4.2810535 0.33056939 1.4444304 0
1.3385583 4.1657929 1.1739831 0
0.56602609 4.184248 1.6417994 0
1.6283824 4.1301799 0.90394199 0
-0.78441572 4.2422934 1.3839836 0
1.845834 4.1296449 0.25897563 0
-4.2552977 -1.5530288 -0.10176247 0
-4.2554021 -1.5530393 0.10973203 0
1.0773019 4.1652017 1.4225624 0
0.48623765 4.1931677 1.6480494 0
1.7548037 4.1358423 0.59266376 0
-3.0315447 3.219511 -0.99090493 0
-4.2953501 1.2555416 0.71549022 0
0.40617478 4.1999998 1.6540961 0
1.8905411 4.1108932 0.2598654 0
1.8456235 4.1231112 0.37028444 0
-1.4737635 4.2724843 0.34497333 0
-4.2595348 -0.89006966 1.2691951 0
0.30918097 4.1882892 1.7057848 0
-4.2812152 0.7799564 1.2689774 0
-1.1601036 4.2653732 1.0045938 0
1.8458078 4.1288304 -0.3085705 0
1.4342098 4.140501 1.1657348 0
-1.3787985 4.2681489 0.6644758 0
1.8909001 4.1186051 0.14818311 0
-4.2680402 1.0131512e-05 1.531534 0
-4.2753811 -0.44095337 1.4451928 0
-4.2581968 -1.4666733 -0.5283742 0
1.4850674 4.1368365 1.1166885 0
-4.2891479 1.4693377 -0.10403097 0
0.1872561 4.1986871 1.7039447 0
-0.78532672 4.2413573 1.4013045 0
0.082233906 4.2128105 1.6778059 0
-0.60434175 4.2264671 1.5305533 0
-4.2901659 1.4694254 0.108325 0
1.5431836 4.1344314 1.0504725 0
1.845593 4.1221609 -0.42471766 0
-0.056709051 4.2055993 1.6996446 0
1.2146062 4.1658435 1.3228033 0
1.7547666 4.1254978 0.70352137 0
0.80028439 4.160748 1.6255288 0
-0.88577271 4.2421732 1.3474798 0
-4.2618623 -1.4669888 0.53090978 0
-4.2666216 -0.55129755 1.4459689 0
-4.2873411 1.2529266 0.80995476 0
-0.90927458 4.2523675 1.303282 0
-0.63172221 4.233891 1.5116415 0
1.8912739 4.1266346 -0.077973604 0
-4.2708578 -1.2475445 0.90392482 0
-0.54072833 4.216054 1.597132 0
1.890584 4.1118155 0.37045062 0
1.9356765 4.1070147 -0.075247824 0
-4.2920833 1.1228287 -0.96827018 0
-4.2630653 -0.77626145 1.3588219 0
-4.2623305 -1.3805358 0.74125421 0
-1.416141 4.2733192 0.59752464 0
-4.2929821 1.3827331 0.53133559 0
-4.2854943 1.4690232 0.32007611 0
-4.2705088 -1.2083967 -0.96399915 0
1.617764 4.1404843 0.93141389 0
-4.2824025 0.66632217 1.3586602 0
-0.41965175 4.2302947 1.5993307 0
-1.1578588 4.2518892 1.1047263 0
-4.2745867 -1.2085719 0.9526906 0
0.72097361 4.1781368 1.6329231 0
1.8905001 4.1100116 -0.42193824 0
-4.2758408 -0.10980488 1.5330756 0
-0.85750556 4.2389464 1.3937461 0
1.8456601 4.1242471 0.48113525 0
1.9359423 4.1113796 0.036812663 0
1.800315 4.130703 0.59241998 0
-2.9857612 3.281301 -0.98707712 0
-4.2595301 -1.5534543 -0.315081 0
-2.9858847 -3.2813621 -0.98711407 0
-1.5626774 4.2679415 0.015912771 0
1.1749918 4.1534357 1.4238398 0
-4.2775984 0.10985532 1.5333645 0
1.7092443 4.1321788 0.81644428 0
-0.17768979 4.2124352 1.699132 0
-4.2671447 -1.1262341 1.0893171 0
1.3407631 4.1482792 1.2894392 0
-4.2672057 -0.32937449 1.5337288 0
-4.2677126 -1.3809216 -0.74573874 0
1.7783082 4.1287079 0.6853919 0
1.4803689 4.1389618 1.1644287 0
1.7547314 4.1156621 0.81439626 0
-1.4736311 4.2723475 0.50642323 0
-4.2968855 1.0160073 1.0892692 0
1.8911706 4.1244159 -0.30796421 0
-4.3022738 1.1231205 0.954844 0
1.0713207 4.1488905 1.5250924 0
1.8915155 4.1318259 -0.19345319 0
1.388518 4.1362977 1.2847438 0
-4.2892942 0.44255716 1.4471617 0
1.57214 4.1378884 1.0462554 0
-4.2950974 1.2960978 -0.74998963 0
-1.0345087 4.262516 1.2048357 0
-4.2823133 -1.0169387e-05 1.5338807 0
1.3554283 4.1671662 1.2215614 0
1.9066347 4.1169529 0.33721018 0
-4.2779727 0.55293715 1.4475813 0
0.43512011 4.1937118 1.7113547 0
-4.2552772 -1.2938155 -0.96147454 0
-1.2796755 4.256371 0.97578323 0
-4.2927542 1.3778852 0.6184175 0
1.3442377 4.1413369 1.3253438 0
1.2082099 4.1498361 1.4263604 0
-4.2780604 -1.0110354 1.1808312 0
-4.2641172 -0.66314304 1.4480925 0
1.7616185 4.139739 0.69244313 0
-4.2829332 1.2514875 0.90392518 0
-0.29881859 4.2135792 1.6982017 0
-0.90744734 4.2354507 1.4019465 0
-1.3730178 4.2620049 0.82357025 0
-4.2640424 -0.43964636 1.5350289 0
-1.2831786 4.2634497 0.95310593 0
1.8001831 4.1233306 0.70337439 0
-0.69556952 4.2292485 1.5384841 0
-4.2818899 0.22012813 1.5348496 0
-4.2789025 1.036216 1.1652203 0
-0.25169849 4.2161021 1.7042375 0
-1.1886334 4.2504325 1.1249204 0
-4.2812243 0.89513719 1.2712755 0
1.4818242 4.1299033 1.222816 0
1.8455889 4.122036 0.59202528 0
1.9363799 4.1185656 -0.19134712 0
1.6161982 4.1277657 1.0493658 0
1.7736089 4.1200008 0.79495716 0
-4.2976446 1.1352328 0.99731123 0
0.81546271 4.1783977 1.6215949 0
1.9350146 4.0961471 0.48071778 0
-4.3000779 1.4702787 -0.31908941 0
-1.3902161 4.2741694 0.74496353 0
-4.2840738 -0.22025357 1.5352092 0
-1.5628116 4.2680759 -0.31618536 0
0.95220172 4.1517558 1.6176109 0
1.9360613 4.1133323 -0.30596501 0
-1.4830153 4.2820387 -0.47585958 0
-0.78445435 4.2303243 1.5004194 0
1.9806117 4.1009078 0.14925158 0
-1.5698683 4.2751584 -0.15066028 0
1.663492 4.1398444 0.93107939 0
1.6304207 4.1342301 1.0116816 0
1.61814 4.1309381 1.0444899 0
-4.259737 1.0109479e-05 1.621603 0
-4.2799668 0.77970225 1.3608387 0
1.8909482 4.1196389 0.48108602 0
-0.17103863 4.2265015 1.6998987 0
-0.70696926 4.2377901 1.5244164 0
1.4701629 4.1361241 1.2324233 0
0.87420976 4.1696949 1.6245859 0
-4.270678 -1.2474859 0.99748731 0
-1.3822203 4.2717853 -0.79644501 0
-4.2734671 -1.3709694 0.80937064 0
-4.2651443 -1.4928346 0.6174041 0
-4.2558541 -1.5530849 -0.52927619 0
-4.2686386 -1.2945813 0.95254755 0
-4.2900581 1.2092366 -0.96851659 0
-1.4173815 4.2788053 0.69958413 0
-4.2821417 1.381956 -0.74855065 0
1.9811543 4.1081147 -0.075910985 0
1.7615392 4.1175942 0.86905909 0
-4.2862267 1.4690863 -0.53283006 0
-4.2662492 -1.1220889 1.1638935 0
-4.2877865 1.5562948 0.10802627 0
-2.9437356 3.3445694 -0.98461723 0
-4.2743511 1.2486851 0.99757743 0
-4.2638874 -0.1094618 1.6226807 0
-4.2896934 1.0141079 1.181673 0
-1.0328026 4.2612348 1.2656281 0
1.9065487 4.1142855 0.51414311 0
1.9367354 4.1244025 0.25902855 0
-4.2787147 1.5553828 0.32005394 0
-0.41975737 4.2155733 1.698087 0
1.5261385 4.1408973 1.1640811 0
0.56118429 4.1919913 1.7162766 0
0.94140196 4.1601 1.6250141 0
-4.2480564 -1.6390508 0.32042956 0
-4.2664614 -1.0079721 1.2724822 0
1.9371357 4.1309729 0.14688563 0
-4.2552094 -1.2424353 1.0903931 0
-4.2761555 0.44104266 1.5370336 0
-1.5686522 4.2739377 0.34379458 0
-4.2807899 1.5555915 -0.3177045 0
0.80723476 4.1512299 1.7210269 0
1.4342544 4.1400399 1.2844718 0
-4.291018 1.5566196 -0.10490328 0
-4.294322 1.3784473 0.71368158 0
-4.2602229 -1.64045 -0.10301036 0
1.5727224 4.1270471 1.1602356 0
-4.2985563 1.2096018 0.95478964 0
-1.0331454 4.2525735 1.3047085 0
1.7092514 4.1315198 0.92963147 0
-0.98340082 4.2489839 1.3555229 0
-4.2890396 1.3824505 0.74265754 0
1.2485325 4.156486 1.4229488 0
-4.2635779 -1.3674235 0.90392566 0
-4.2890596 1.1327 1.0903821 0
1.834258 4.1276116 0.69184852 0
-1.5789814 4.2843041 0.17901719 0
1.9815365 4.1131916 -0.19090122 0
1.9209578 4.1066108 0.57230592 0
1.9363048 4.117331 -0.42455506 0
-4.2677679 -0.55146307 1.5380034 0
0.68564188 4.1782589 1.7195959 0
-4.2641721 -1.4671876 0.74170756 0
1.7547376 4.1174078 0.92737055 0
-4.295414 1.4698772 0.5314976 0
-4.264492 -1.4672151 -0.74643373 0
1.4810219 4.1310458 1.2809517 0
-4.2924595 0.33155358 1.5378962 0
1.9367502 4.1246452 0.37018371 0
-0.3407886 4.2251515 1.713728 0
-4.2703767 -1.1271876 1.1825013 0
1.8001856 4.1234689 0.81541467 0
1.339898 4.1313205 1.4302802 0
1.6637553 4.1293335 1.0438929 0
-4.276463 1.4972636 0.61655438 0
1.8456571 4.124155 0.70354617 0
-0.94195247 4.2476096 1.4075086 0
-4.2854834 0.66685784 1.4511414 0
1.9353304 4.1013331 0.59116006 0
-4.2699771 0.21944378 1.6247189 0
-1.1840177 4.2630734 1.1598017 0
-4.2706299 -0.21948127 1.6248422 0
-1.4165885 4.2752981 0.8018986 0
-1.1588981 4.2581325 1.2058384 0
-1.5665421 4.2718201 -0.48582017 0
-4.2763038 -0.89398754 1.3632739 0
-1.479923 4.2788453 0.6685406 0
-4.2601366 -0.9500159 1.3765652 0
-4.2610707 -1.6405475 -0.31641483 0
-1.4827652 4.2817807 -0.64501178 0
1.6280575 4.1295342 1.119293 0
1.979146 4.1143093 0.33720648 0
-4.2714949 -0.77797753 1.4521055 0
-4.2725773 -1.6418709 0.10833824 0
2.0264201 4.1054058 -0.076072812 0
2.026274 4.1037774 0.14867294 0
1.9814528 4.1120811 0.37034953 0
-4.2747917 -1.5549885 0.53127718 0
-4.269927 -1.4947059 0.71284521 0
1.8913999 4.1293426 0.59250236 0
-1.2891228 4.2787032 1.0054359 0
1.3228211 4.149055 1.4202201 0
1.9819131 4.1181946 -0.30780417 0
-4.2626948 -1.3805618 0.95251286 0
-4.2789822 0.55308294 1.5398664 0
-4.2650499 -0.94998407 1.3773434 0
1.9812624 4.1095519 -0.42329383 0
-1.4139452 4.2636056 0.90393484 0
-4.2712212 -0.32972097 1.626442 0
-4.2826457 0.11000019 1.6262164 0
1.6182826 4.127317 1.1598086 0
1.9828982 4.131279 0.033983231 0
1.9349132 4.0944815 0.70131576 0
1.6888833 4.1291389 1.0493748 0
-4.284339 1.0126939 1.2742093 0
1.9823583 4.1241083 0.25888145 0
1.7774386 4.1270967 0.9039439 0
-1.5460515 4.2739568 0.59535146 0
-1.5711236 4.2764177 0.50766635 0
-4.2737045 1.2484741 1.0913 0
-4.2663441 0.66353023 1.540668 0
1.5269551 4.1289029 1.2794552 0
-4.2795396 1.5554658 -0.53304654 0
-4.2928443 1.2959687 0.95466876 0
-1.2740574 4.2477379 1.1636486 0
1.7093267 4.1244974 1.0427942 0
-1.1143734 4.2610946 1.2758813 0
-4.2603154 -1.490945 0.80867779 0
-0.78797793 4.246933 1.5394661 0
-4.279017 1.4684656 -0.74926758 0
1.5430157 4.1386924 1.2322931 0
1.071686 4.1498866 1.6305151 0
-4.2655516 -1.3807666 -0.96513391 0
-4.2908854 1.1227944 1.1669197 0
1.208477 4.1505051 1.5322027 0
-4.2509146 -1.6393795 -0.52996272 0
-4.2864232 0.89635187 1.3644891 0
-1.1562898 4.2424645 1.305501 0
-4.2921114 1.2959267 -0.96999228 0
0.41144967 4.1796846 1.8457718 0
-4.2545786 -1.2422292 1.1838341 0
0.25146699 4.1866693 1.8589437 0
-1.2859685 4.262619 1.1062837 0
1.0244217 4.1688032 1.6190672 0
-4.2701283 -0.66418815 1.5412996 0
-4.290143 -1.0190164e-05 1.6273317 0
-4.2773905 0.33025333 1.6276088 0
-2.9674444 -3.3566816 -0.99175084 0
1.9066191 4.1164675 0.69135964 0
2.0709634 4.095386 0.03740716 0
-0.79495454 4.2460299 1.5497808 0
-0.54099035 4.2282238 1.7006345 0
-4.2545385 -1.5529525 0.74162245 0
-4.2716708 -1.2084466 1.164938 0
-4.2647381 -1.0075169 1.3651671 0
-4.2659473 -1.3682731 0.99829519 0
-4.2850876 1.3751361 0.90392637 0
-1.4936867 4.2756381 0.74785185 0
-1.4703069 4.2689142 0.82988477 0
-4.25246 -1.7266573 -0.10325152 0
-0.66357231 4.2502828 1.6034806 0
1.7547212 4.1128259 1.040494 0
1.100754 4.1547523 1.6135254 0
2.0276408 4.1190147 0.035032392 0
-4.3030605 1.3815807 0.80863976 0
1.3969768 4.1378822 1.4169724 0
-4.2707024 -0.44041407 1.6284356 0
1.8001423 4.121048 0.92802429 0
-4.2536016 -1.7268051 0.10878515 0
-1.0796537 4.2501798 1.3628674 0
-1.3883042 4.2709818 0.95834792 0
1.8902844 4.1053791 0.81355071 0
-4.2658153 -1.1258417 1.2753878 0
-0.90829229 4.2432737 1.5038536 0
-4.2570267 -1.5532026 -0.74654162 0
1.8912609 4.1263566 0.70389569 0
-4.2912149 1.1333358 1.1840215 0
-2.9122953 3.4131579 -0.98562074 0
-4.2889514 1.643754 -0.10554034 0
-1.6688738 4.277873 -0.15953672 0
1.8457732 4.1277561 0.81608117 0
-0.7847631 4.2342296 1.6021318 0
2.0276232 4.1188202 -0.19272804 0
0.56824958 4.1745515 1.8344584 0
2.0266452 4.107914 0.37035716 0
1.845072 4.1059918 0.92581844 0
0.32940245 4.1919799 1.8546319 0
2.0271063 4.1130562 -0.3074795 0
1.9819351 4.1184878 0.48116255 0
-4.2908082 1.4694808 0.74310863 0
-0.43287945 4.2382712 1.7246132 0
1.8341869 4.1236377 0.86965609 0
1.9268515 4.1168194 0.68250334 0
-4.2606854 -1.6405032 0.5311923 0
-2.9147906 -3.4144781 -0.98637724 0
-1.0236032 4.2502627 1.4199886 0
1.4871199 4.1412244 1.3308151 0
1.6638424 4.1258531 1.1591325 0
-4.2767043 1.3815662 -0.96771526 0
0.80276048 4.1473298 1.814584 0
-4.2818532 0.94998401 1.3800049 0
-4.2498546 -1.7263198 -0.3163259 0
2.0276151 4.1187272 0.25896764 0
-1.4783223 4.2771921 -0.81527328 0
-4.2824883 0.95001596 1.3801055 0
2.0264935 4.106225 -0.42340171 0
0.48818135 4.185216 1.8421841 0
-4.2919855 0.78214896 1.4550455 0
1.6254523 4.1243567 1.2268553 0
0.16736364 4.1998854 1.8687778 0
2.0713573 4.0991702 0.25976658 0
-1.6653953 4.2744803 0.34258747 0
-1.546556 4.2759228 0.6983043 0
-4.285048 1.6433051 0.31977952 0
-1.4133747 4.2610826 1.0056322 0
-1.6759202 4.2847452 0.0078355074 0
2.0722082 4.1073399 -0.07707721 0
1.9794872 4.1216373 0.51432145 0
-4.2559361 -1.4664786 0.95251453 0
-0.86273241 4.2455559 1.551487 0
-4.2677894 -0.55146623 1.6305854 0
1.7615489 4.1202908 1.0482564 0
1.7753344 4.1231976 1.013015 0
-4.2968254 1.6446595 0.10705912 0
-4.2985148 1.5573733 0.53169334 0
-1.034024 4.2589803 1.4064779 0
-1.386806 4.2766585 0.9865551 0
-0.51857138 4.2333126 1.7313437 0
-4.2921886 1.5034168 0.71173227 0
-4.2519016 -1.6148946 0.71150863 0
-1.5713854 4.2766805 -0.65850925 0
0.0040074587 4.2018547 1.8826883 0
0.94193935 4.1617074 1.7306128 0
-4.2617741 -1.4915158 0.90392685 0
-4.2598472 -1.3660858 1.0924652 0
2.0716145 4.1016388 -0.30584705 0
-4.2703266 -1.0360932 1.3782768 0
-4.2880449 1.3823792 0.95473647 0
-1.6705098 4.2794685 -0.3295809 0
-4.2671394 -1.6213671 0.61388063 0
0.084647536 4.2053089 1.876802 0
-4.2852774 0.44209415 1.6311998 0
-0.66251087 4.2291589 1.7016315 0
1.9817789 4.1164103 0.59211385 0
-1.678091 4.2868624 0.17523026 0
2.0516841 4.1117601 0.337183 0
-4.2596593 -1.7275898 0.32004094 0
2.0727754 4.1127872 0.14749587 0
1.9353806 4.1021562 0.81345272 0
-1.2850399 4.257884 1.2073956 0
-4.2755051 1.2490621 1.1853745 0
1.7093608 4.1213188 1.1578977 0
1.1747267 4.1558151 1.6117573 0
-4.2812939 -0.89515352 1.4569697 0
-0.079476357 4.2045078 1.8906674 0
1.6183792 4.1248608 1.2770593 0
0.72195029 4.1732378 1.8254836 0
2.0713496 4.0990949 -0.42265952 0
-1.2984524 4.2769074 1.1396804 0
2.0273206 4.1154456 0.48117471 0
2.0732136 4.1169934 -0.19322944 0
-0.93520427 4.2393227 1.5623388 0
1.6158366 4.1421967 1.2324765 0
1.9789571 4.1102505 0.69118321 0
1.9810923 4.1072917 0.70270848 0
-1.2014039 4.2648077 1.2875693 0
-4.2726431 -1.2948109 1.1655884 0
2.0710011 4.0957484 0.48090601 0
-0.16244054 4.2032533 1.8979132 0
-1.5787811 4.2841029 0.67236781 0
0.64265668 4.1864395 1.833251 0
-4.2901149 1.0142193 1.3682363 0
-4.3007398 1.6451097 -0.32131767 0
-4.289288 1.5022818 0.80795455 0
-4.2813153 1.0362505 1.3800175 0
-1.4654346 4.2638826 0.99208653 0
1.3438773 4.1405053 1.5382218 0
-0.89136267 4.253212 1.559377 0
-4.2899361 1.1329585 1.2777367 0
-1.4119005 4.2545629 1.1071284 0
1.8001646 4.1222954 1.0424294 0
-4.2805543 -0.77982187 1.5465095 0
-4.2834473 0.55372787 1.6335661 0
-4.2926655 1.3778534 0.9989568 0
-4.2677064 -0.66376704 1.6338954 0
1.5715921 4.1480885 1.2838595 0
2.1174703 4.1032209 -0.077222466 0
1.469824 4.1424322 1.4169943 0
-4.2709575 -1.4677718 -0.96795774 0
2.0513773 4.1067228 0.5141288 0
-1.5946355 4.2702017 0.75042892 0
-0.24610972 4.2016301 1.9054332 0
1.2074307 4.1478863 1.6381917 0
-4.2552981 -1.6398836 0.74215007 0
-4.2850437 1.5560191 -0.75201511 0
-4.2855015 1.6433573 0.53162825 0
-0.60903573 4.2368164 1.7405734 0
-4.2834396 1.7306701 -0.10598451 0
2.0729327 4.1142964 0.37016833 0
-1.1069944 4.2525449 1.4328647 0
1.7547346 4.1165752 1.156765 0
-2.8777604 3.4801919 -0.98598576 0
-4.2931976 0.89793462 1.4586883 0
1.7730274 4.1189237 1.1219783 0
0.87580013 4.160327 1.8145995 0
1.5436683 4.1221228 1.4123833 0
1.2491367 4.1502519 1.6087003 0
-1.6713331 4.2802715 0.50895727 0
1.9315071 4.1248832 0.79306793 0
-4.2695355 -1.1269394 1.369467 0
-4.3067737 1.2099549 1.1692522 0
-4.249949 -1.5524912 0.95269203 0
-4.2523451 -1.8140643 -0.10427815 0
-4.2584758 -1.640249 -0.74863458 0
-4.2694392 -1.1221803 1.3784289 0
-1.5654285 4.2707024 0.83582819 0
-1.375052 4.2641668 1.1464515 0
2.1181142 4.1086488 0.14741659 0
-4.2812128 1.4991221 0.90392745 0
-1.5486779 4.2841973 0.80097723 0
-1.6737852 4.2826633 -0.5021221 0
-4.2885818 0.78145605 1.5478563 0
2.1615107 4.0896578 0.036795735 0
2.0273333 4.1155882 0.59226716 0
-1.4913507 4.2718668 0.96310687 0
-4.2816725 1.4686942 0.95477438 0
-4.2888207 1.7313671 0.10692406 0
2.1181407 4.1088719 -0.19262725 0
-1.5676699 4.2729516 -0.83123958 0
-4.2728081 1.0096483 1.4596989 0
-4.2641068 -1.4924285 0.9992708 0
-4.2428513 -1.6110504 0.90392768 0
1.6638584 4.125217 1.2767625 0
-4.2597799 -1.618241 0.80757141 0
-1.5445318 4.2680302 0.90393579 0
-4.2507124 -1.2075461 1.3759484 0
2.1188176 4.1145768 0.034414768 0
-2.8832378 -3.483191 -0.98765898 0
1.9807782 4.1031189 0.81394935 0
-4.26159 -1.3804827 1.164911 0
-4.2950721 1.5570272 0.74375737 0
1.3239512 4.1353531 1.6037312 0
-4.2786121 0.66566312 1.6359808 0
2.1235194 4.0991654 0.33731723 0
-4.2811871 1.4686525 -0.97032809 0
1.8910851 4.1225815 0.92873085 0
-1.0333223 4.2538633 1.5074697 0
-4.2626481 -1.7279769 -0.53351045 0
-4.283915 1.7307317 0.31961393 0
1.4880811 4.1432796 1.4386718 0
-4.2853928 1.3752456 1.09373 0
-4.2766171 1.1223859 1.3795664 0
-4.2843871 1.7307928 -0.3206014 0
2.0264397 4.1056237 0.7028892 0
-4.2970476 1.644685 -0.53731763 0
-4.2782087 -1.0110747 1.4604843 0
1.907114 4.1318326 0.87053263 0
1.6888186 4.1351748 1.2311578 0
-4.2742105 -0.89349842 1.5494814 0
1.9356419 4.1064463 0.92655754 0
-4.2654295 -1.3680875 1.1874058 0
-4.2668271 -1.7285182 0.5314852 0
-0.98358703 4.2493391 1.5669208 0
-0.7850883 4.2383418 1.7048483 0
1.6280534 4.1295257 1.3355801 0
2.1188498 4.1148481 0.2586745 0
-1.1856065 4.2659025 1.3731594 0
1.8342384 4.1265192 1.0491171 0
-0.9093349 4.2529273 1.6071 0
2.0868211 4.1164761 0.45247459 0
-1.6799963 4.2818031 0.59236586 0
1.0762577 4.1623545 1.7390995 0
2.1622181 4.0949707 0.25942421 0
1.8456886 4.1251311 1.0432022 0
-1.7758224 4.2852459 0.0015041828 0
-4.2577438 -1.8148422 -0.31875908 0
2.1189747 4.1159024 -0.31033033 0
-1.6765788 4.2699065 0.69698679 0
-4.2806349 0.8949995 1.5505662 0
2.163435 4.1041079 -0.078271151 0
-4.2810936 -1.2508867 1.2802165 0
-4.2711878 0.777915 1.6385279 0
-4.286541 1.629608 0.70975661 0
-4.3001342 1.2963865 1.1689694 0
2.1172957 4.1017494 0.48109961 0
2.1180408 4.1080298 -0.42642385 0
-4.265141 -1.5540183 -0.96847045 0
-4.2654533 1.2081795 1.3782854 0
-4.2711186 -1.8167697 0.1072365 0
-2.834898 3.5425732 -0.98408365 0
2.163352 4.1034842 -0.19268584 0
-1.7769284 4.2862945 0.17151678 0
-1.289892 4.2675447 1.29948 0
-1.7699785 4.2797074 0.34120822 0
-1.2865818 4.2657461 1.3098114 0
0.94958627 4.1686206 1.8136234 0
-4.3039389 1.6369981 0.61108553 0
-4.2629709 -1.1250025 1.462733 0
-4.2762518 -0.77894598 1.6395016 0
-4.2912855 1.1333566 1.3721185 0
2.0847287 4.1130805 0.56605065 0
2.1192093 4.1178784 0.37001681 0
1.9062803 4.1059508 1.0468137 0
-4.2683673 0.092809856 1.8343494 0
-4.2609482 -0.9500159 1.5928254 0
2.1624961 4.0970578 0.37028301 0
-4.2543535 -1.3641158 1.28128 0
-4.2720742 -0.083092511 1.8288269 0
-1.6739879 4.2828608 -0.6763525 0
1.0260146 4.1574631 1.807672 0
-0.70412564 4.2474174 1.7520056 0
1.8908163 4.1168065 1.0419304 0
2.1238098 4.1030235 0.51415026 0
-1.1562932 4.2424855 1.5084827 0
-4.2758126 1.5550911 0.95496631 0
2.1644604 4.1118088 0.14663589 0
-4.2692723 -0.25850922 1.8229823 0
-0.33933759 4.221549 1.9195647 0
2.0518918 4.1151729 0.69164586 0
-4.2907104 1.2540265 1.2811613 0
-1.7752271 4.2846818 -0.34210968 0
-1.1619623 4.2765379 1.4107533 0
2.2067399 4.0856342 0.25958419 0
-4.2524161 -1.7455133 0.70902908 0
-4.2870488 1.5014056 0.99984503 0
-4.2698951 -1.8165934 0.31965327 0
-4.2655435 -0.94998401 1.5937185 0
-4.2854118 1.3821905 1.1678436 0
-4.2672782 -1.4936695 1.094877 0
-4.2763019 0.082483232 1.829813 0
1.9359136 4.132515 0.90394628 0
1.9793817 4.1193714 0.86969209 0
-4.2755847 -0.17034733 1.8268991 0
-4.2683468 -1.0084699 1.5531106 0
-4.2728996 0.25809205 1.8238254 0
-4.2518592 -1.8139942 0.53142858 0
-1.6782095 4.2869782 0.67617822 0
2.0805535 4.1063056 0.67925704 0
1.7744348 4.121531 1.2314992 0
1.7615756 4.1277313 1.2299376 0
-4.2822995 1.8183811 0.10664439 0
-0.42332721 4.2154989 1.9266217 0
-0.9073391 4.2344484 1.7062626 0
-1.3951485 4.282392 1.17487 0
1.7091991 4.1363869 1.2795377 0
-4.2688842 -1.7530731 0.61004782 0
-1.4146223 4.2666006 1.2098649 0
1.3967743 4.1408567 1.6037362 0
2.0703363 4.0893669 0.81324983 0
-4.28584 1.6293103 0.80691302 0
2.0724044 4.1092253 0.70359063 0
1.800369 4.1337204 1.1608362 0
2.2086844 4.0987954 0.034878969 0
2.0742316 4.1267691 0.59308743 0
-4.2590327 -1.7275087 -0.75080061 0
-4.2657881 -0.43267322 1.8181596 0
-4.2905822 1.7315953 0.53190327 0
-0.79166842 4.2393026 1.759058 0
-4.2807045 0.16968417 1.8280911 0
-4.2754722 0.18300623 1.8396692 0
-4.2510257 -1.901638 -0.10531116 0
-4.2819009 -0.0065395832 1.8341682 0
-1.7890282 4.2977614 -0.17186469 0
-4.2700496 -0.27134961 1.8423572 0
2.1646838 4.1134863 -0.311095 0
-1.0307121 4.2587414 1.5826516 0
-4.295217 1.6444745 0.74425602 0
-1.4690659 4.2676325 1.1571302 0
-4.2767825 -0.18325299 1.8399773 0
-4.2884488 1.8192673 -0.1074695 0
2.0273356 4.1156144 0.81594825 0
-4.2837901 0.0068395734 1.83461 0
1.9358261 4.1094713 1.040976 0
-2.8508968 -3.5516326 -0.9890101 0
2.2088134 4.0996675 -0.19318038 0
-4.2724376 0.27183455 1.8429198 0
-4.2912102 1.3773316 1.189322 0
1.3469769 4.1476593 1.646976 0
1.845557 4.121047 1.1581726 0
-1.0329983 4.2515011 1.6093407 0
-1.2833657 4.263772 1.3805442 0
2.1638288 4.1070647 -0.4276998 0
1.9292667 4.1210022 1.0147197 0
-4.2762012 0.95001596 1.5957901 0
-4.2762275 -1.2492979 1.37446 0
-4.2840886 -0.095537007 1.8380332 0
-1.6643078 4.2734203 0.84214532 0
-1.5480263 4.2816567 1.0068343 0
-4.2972851 1.6447124 -0.75622809 0
-4.2783184 -0.34465694 1.822928 0
-1.2024307 4.2659631 1.4497108 0
-1.6638064 4.2729311 -0.84954846 0
2.2097588 4.1060658 -0.079598844 0
-4.2962995 1.7323358 -0.53888482 0
1.9819567 4.1187739 0.92900395 0
-4.2879696 1.5563133 -0.9737674 0
1.1003428 4.1580186 1.8051906 0
-4.2734976 -0.89333183 1.6435969 0
2.2098057 4.1063828 0.14655411 0
-1.7749724 4.2844405 0.51031184 0
1.7547837 4.130281 1.2778578 0
2.1636949 4.10606 0.48127544 0
-1.7749767 4.2844448 -0.51654196 0
-4.2852597 1.8188076 -0.32217252 0
-4.2599025 -1.6404132 -0.96940506 0
-4.2600884 -1.9030768 0.10713077 0
-1.5988178 4.2767425 0.9684763 0
-4.2661386 -1.8160521 -0.53594917 0
-4.2712851 -0.36150426 1.8469253 0
2.2074804 4.0906458 -0.42496997 0
1.6279349 4.1292906 1.4443414 0
-4.2602034 -1.4909011 1.1900797 0
2.1191025 4.1169791 0.59283781 0
-1.0839622 4.2581162 1.5776119 0
1.8340139 4.1139712 1.2278814 0
1.2110134 4.1568527 1.7472138 0
2.1622908 4.0955162 0.59200454 0
-4.2776737 0.43165004 1.8209138 0
-4.2653518 -1.0360219 1.593801 0
2.2522304 4.0827508 0.25936818 0
1.6157217 4.1467867 1.4167242 0
-4.2610507 -0.60585356 1.8142095 0
1.6889857 4.1196055 1.4111867 0
-4.2836046 1.6283609 0.90392888 0
1.4702599 4.1343188 1.6011982 0
-1.5758836 4.2811952 1.0031066 0
-4.2707076 -1.2946999 1.3798027 0
2.0513315 4.1059732 0.86885929 0
-1.2861149 4.2633657 1.4118268 0
-4.2786965 -1.468438 1.1678543 0
1.8906364 4.1129403 1.1567118 0
-4.2687526 -1.641431 0.95516133 0
-4.2726521 -0.51872426 1.8181772 0
-4.256269 -1.0052801 1.64554 0
-4.286778 1.2527426 1.3757577 0
-4.2564163 -1.902494 -0.32020926 0
2.209084 4.1014991 0.37009311 0
-4.2779021 -1.7299528 0.74389887 0
-4.2867169 1.7612592 0.60867608 0
2.0826292 4.1096735 0.79157126 0
-4.268919 0.45141917 1.8509598 0
2.1180122 4.1077895 0.70390749 0
-4.2821078 1.4687316 1.1682749 0
2.2100904 4.1083093 -0.31136948 0
-4.2584434 -0.5398553 1.8533854 0
-4.2626877 -1.1249189 1.5573688 0
1.4923463 4.1523976 1.5483193 0
-4.2620473 -1.2446679 1.4676015 0
-4.2799706 0.36339813 1.8489776 0
-4.2705407 -1.6228119 1.0005577 0
-4.2849627 0.89601058 1.6458151 0
-4.2709732 -0.45189804 1.8514466 0
1.7716849 4.1164355 1.340698 0
-1.6826086 4.2908974 0.80001009 0
-4.2572393 -1.3651507 1.3767486 0
-4.2619143 -1.9033666 0.31956422 0
2.0271065 4.1130576 0.92868948 0
-4.2936645 0.34311426 1.8264887 0
-4.2933445 0.94998395 1.5991225 0
-4.2696853 0.60535866 1.8162065 0
-4.2942667 1.0153157 1.557518 0
-0.88510561 4.2408557 1.7689862 0
-4.2493176 -1.813628 0.74300909 0
-4.2817883 1.7304562 -0.75526083 0
-4.2799854 0.51819861 1.8198745 0
2.1244745 4.1118526 0.69173074 0
-4.2766237 1.0361834 1.5959921 0
-4.2974524 1.1351762 1.4677875 0
-1.38465 4.2743673 1.3129785 0
-1.1560102 4.2407851 1.6106336 0
-1.8807621 4.2875509 -0.0053424835 0
-2.8088183 3.6145599 -0.9876523 0
-1.8790603 4.285984 -0.17895555 0
2.2555981 4.1034846 -0.080307543 0
2.1967583 4.1045165 0.51428092 0
-1.2837048 4.260778 1.4613838 0
-2.8098516 -3.615165 -0.98797321 0
2.255228 4.1012068 -0.19485873 0
2.1984496 4.123373 0.33678854 0
2.1623826 4.0962048 0.70338678 0
-0.5182693 4.2326207 1.9408479 0
1.9817041 4.1154189 1.0427353 0
1.8003458 4.1324205 1.2785621 0
1.1740338 4.1620378 1.8039341 0
2.2094629 4.104063 0.48135209 0
-1.4966593 4.280437 1.1811528 0
-4.2798505 1.6427073 -0.97404075 0
1.928875 4.1203237 1.1255774 0
1.341421 4.1348357 1.7528281 0
-4.2713518 -1.7542059 0.80604756 0
2.256074 4.1064143 0.14593101 0
-4.2659631 -1.554101 1.1672747 0
-4.3019495 1.507236 1.0966125 0
-4.3081851 1.8221116 0.31897807 0
2.256639 4.1098938 0.032629967 0
-1.5487127 4.2843332 1.109973 0
1.2494762 4.1467485 1.7977653 0
-4.2577767 -1.814847 -0.75285995 0
1.845461 4.1180658 1.2750196 0
-4.289134 1.819366 0.5320859 0
2.0717983 4.1034055 0.9278506 0
-4.2887006 1.8193035 -0.53955948 0
-4.2876363 1.6436027 0.95682442 0
-1.1180768 4.2653856 1.5991759 0
-1.6808562 4.2847967 0.90393734 0
-4.2580156 -1.7480837 0.90392959 0
-4.2911167 1.2958697 1.3830407 0
1.9794837 4.1215639 1.049083 0
1.5433168 4.1310463 1.5996592 0
2.2083549 4.0965643 0.59239471 0
-4.2901101 1.7628168 0.70709825 0
1.3244172 4.129703 1.7914224 0
2.2548437 4.0988407 0.37001657 0
-4.2716746 -0.69155324 1.8156686 0
-4.2675242 -1.380908 1.3801785 0
-1.8874729 4.2937307 0.16701722 0
-4.2978692 1.7325392 0.74495411 0
-0.60467863 4.2272096 1.9489355 0
-1.7804444 4.2896261 0.68013692 0
2.2992554 4.0877986 -0.19372159 0
2.2558227 4.1048675 -0.31220239 0
1.9362692 4.1167459 1.1581545 0
-4.2578182 -1.8820648 0.60686648 0
2.0827432 4.1098585 0.90394783 0
-4.2587485 -1.9028642 -0.53685051 0
-4.2723503 -1.1222637 1.595521 0
-1.1880188 4.2497406 1.6083684 0
2.3004537 4.094564 -0.080103695 0
2.2692335 4.0992527 0.33708847 0
-1.3864162 4.2678342 1.3893938 0
-4.3019409 1.3811791 1.2860017 0
1.485595 4.1379647 1.6548827 0
-4.2540684 -1.9903295 -0.10684526 0
-4.2918582 1.9081204 0.10544503 0
-4.2458644 -1.6387987 1.1659353 0
-1.4181187 4.2820659 1.3138402 0
-1.8175035 4.2924175 0.58886886 0
-4.2810926 1.0118363 1.6503773 0
-4.2928834 1.9082831 -0.1090191 0
-1.2852583 4.2589979 1.5140014 0
-4.2559319 -1.9906528 0.10659361 0
2.2552271 4.1012011 -0.42972565 0
-4.2836952 1.9068245 -0.32360059 0
-2.7612286 3.6740029 -0.98483777 0
-4.2670016 -1.4935613 1.2866302 0
1.8905314 4.1106849 1.2735188 0
-4.2932901 1.6324748 1.0011337 0
2.1190031 4.1161418 0.81717873 0
-4.2845469 1.7602631 0.80570996 0
-1.1844621 4.2638645 1.5880332 0
2.2462099 4.1065049 0.44527292 0
-4.2503147 -1.7445487 1.0012732 0
-1.785207 4.2941399 -0.69666779 0
1.6281962 4.1298099 1.553803 0
-4.294054 1.5041467 1.1926231 0
-4.2586999 -1.243575 1.5625315 0
-4.2885466 1.2533202 1.4715209 0
-1.8887131 4.2948732 0.33951306 0
-4.2592926 -1.1239173 1.6521065 0
-1.5721588 4.2774568 1.1696827 0
2.3019891 4.10323 0.032504559 0
-4.2909803 1.1332666 1.5622187 0
-4.2590823 -1.2079058 1.593539 0
-4.2694163 -1.9045577 0.53196824 0
-1.8885794 4.2947497 -0.35631758 0
1.6163849 4.1203122 1.5966392 0
1.761577 4.12815 1.412797 0
-1.4705875 4.2692041 1.3237867 0
-1.546474 4.2756028 1.2126408 0
1.9068186 4.1226611 1.2295461 0
-4.2718172 -1.7291646 0.95635915 0
-4.2789555 -1.626386 1.0977178 0
-4.2917709 1.9081066 0.3190366 0
-1.6735179 4.2824025 1.0117331 0
-4.2896633 0.5476051 1.8608119 0
2.1630375 4.1011233 0.81602442 0
-1.4136558 4.2623267 1.414788 0
2.3428323 4.0728841 -0.3084352 0
-4.2879996 1.5563161 1.1699941 0
-4.2756028 0.7776432 1.8158636 0
1.3977339 4.1267629 1.7891617 0
2.1245477 4.112824 0.86989236 0
-4.2895298 0.690786 1.8197944 0
-4.2791014 -0.63682419 1.863555 0
2.0278635 4.1214976 1.0446506 0
-4.2772012 -0.77759743 1.8162329 0
2.3441839 4.0799251 0.25867331 0
2.2093248 4.103128 0.7045579 0
1.8338914 4.1071243 1.4088612 0
-4.2672024 0.72604245 1.8662941 0
-0.69597435 4.2301083 1.9599042 0
-4.2627645 -1.8845097 0.70581007 0
2.3032503 4.1103506 0.14490056 0
-1.8179069 4.2936835 0.69402003 0
-4.2917066 1.3775095 1.3810303 0
2.3455889 4.087245 0.14621639 0
-1.8830526 4.2896605 -0.53258544 0
2.345983 4.0892973 -0.080592036 0
2.0720229 4.1055617 1.0423954 0
-1.0353527 4.2686691 1.7155969 0
-4.2769918 -1.7298348 -0.97582674 0
-1.7757761 4.285202 0.84989011 0
-4.2919884 1.122826 1.5993397 0
-4.2817702 1.7304538 0.95723712 0
-4.2824917 1.4996223 1.2881837 0
2.3403132 4.0816731 0.33725607 0
2.1614203 4.0889797 0.92725384 0
-4.2523437 -1.9018472 0.7438581 0
-4.2641859 -1.9920845 -0.32295287 0
-1.7123182 4.287539 0.9746778 0
2.1185656 4.1124535 0.93009484 0
2.2575805 4.1156902 0.48168135 0
2.346864 4.0938878 0.032632589 0
-4.2366514 -2.0756986 -0.10667485 0
-4.2661643 -1.9924278 0.3192364 0
-4.2594719 -1.4906149 1.382143 0
2.1980543 4.1189642 0.69241917 0
-4.2688332 -1.6220868 1.1941061 0
-1.8895435 4.2956381 0.51190662 0
-0.98807287 4.2578921 1.7833734 0
2.303647 4.1125898 0.25737536 0
2.2500656 4.1123776 0.55988693 0
-4.2962756 1.3829691 1.3847442 0
-1.6834941 4.2939792 1.0079398 0
2.3023152 4.105072 0.36977065 0
-2.7797704 -3.6852157 -0.99064386 0
2.2077894 4.0927377 0.81576908 0
2.0846205 4.112905 1.016413 0
-4.2764797 1.2493801 1.5656066 0
-4.2707505 -1.4677539 1.3817697 0
1.9789108 4.1092558 1.2278738 0
-4.291472 0.64008373 1.8665085 0
1.9334426 4.1282353 1.2373333 0
-2.7181635 3.7359354 -0.98369503 0
-4.2923827 1.8198342 -0.75965619 0
-1.8158965 4.287374 0.79919016 0
-4.2515521 -1.9898932 0.5319047 0
2.3471458 4.095356 -0.19685566 0
-1.2806592 4.25911 1.5965028 0
2.3012342 4.0989704 0.48152113 0
1.9827263 4.1289959 1.1617048 0
-1.6781697 4.275445 1.111156 0
2.2705853 4.1122317 0.51453924 0
-1.3811314 4.270628 1.4783478 0
-4.2874169 1.7311853 -0.97825372 0
1.7792754 4.1305003 1.4526484 0
-4.2773256 -0.86380661 1.8158343 0
2.0268071 4.1097193 1.1581059 0
2.2567358 4.1104889 0.59350455 0
-4.2612829 -0.94998407 1.8119881 0
-4.2581854 -1.2939823 1.594203 0
-4.2803378 -0.72970527 1.8694425 0
-4.2818298 1.208883 1.5979648 0
1.6221764 4.117847 1.6617129 0
-4.2557163 -1.81455 -0.97361135 0
2.0526419 4.1274877 1.0502913 0
-4.2614002 -1.8838354 0.80495977 0
-0.78532052 4.2263088 1.9693408 0
-1.4110782 4.2509251 1.5165439 0
2.1960797 4.0969515 0.86902285 0
2.3449824 4.084085 -0.42940474 0
1.4820286 4.1303401 1.7629361 0
-1.1578946 4.2521038 1.7159758 0
-4.2806935 0.86375839 1.816612 0
-4.263576 -1.9036305 -0.75655842 0
-1.9874055 4.2883554 -0.1890015 0
2.1170869 4.0999885 1.0422883 0
-4.2473688 -1.8769001 0.9039309 0
-1.9887683 4.2895746 0.16323292 0
-4.2630157 -1.8156021 0.95662129 0
-4.2803154 -1.373425 1.4758973 0
-1.8123803 4.2763371 0.90393817 0
-1.7847745 4.2937303 -0.87677777 0
2.3050175 4.120326 -0.31762213 0
-2.7254634 -3.7404935 -0.9860009 0
-4.2889953 1.996388 0.10483503 0
2.3033171 4.1107273 -0.43439913 0
-4.2858009 1.1317385 1.6573138 0
-1.8814955 4.2882261 0.68395686 0
-4.280015 1.8930361 0.70491433 0
-4.2687902 -0.8196035 1.8725972 0
-4.2509041 -2.0783815 0.10603476 0
-4.298027 1.9090998 0.53247392 0
-1.5464973 4.2756948 1.3160737 0
2.1235116 4.0990615 1.0474 0
-1.6078434 4.2908573 1.1895077 0
1.9368808 4.1267896 1.2784941 0
-4.2824793 1.627883 1.1951435 0
-4.2988486 1.7668283 0.9039309 0
-4.2919755 1.9969051 -0.11021119 0
-1.4909334 4.2711935 1.3984649 0
-4.2657104 -0.0039693117 2.0559974 0
2.2498438 4.11204 0.67480075 0
2.2556467 4.1037846 0.70523572 0
-4.2624369 -1.9917812 -0.53973442 0
1.4704318 4.1311183 1.7891426 0
-1.6649218 4.2740188 1.1797445 0
-4.305934 1.6378454 1.0990841 0
-4.3003316 1.9094656 -0.54351908 0
-4.2643514 0.092113316 2.0595083 0
-4.3081326 1.822104 0.74612331 0
2.2692933 4.0998268 0.69178104 0
-4.2569437 -1.5531943 1.3808496 0
-4.2593889 -1.2437999 1.6588264 0
-4.2638855 -1.7507782 1.0994186 0
-1.2862542 4.2640753 1.6182213 0
-4.2732477 -0.95001596 1.8147502 0
-4.28789 1.4692295 1.3844943 0
-4.2631307 0.18068308 2.0634098 0
2.3922477 4.0871058 -0.19699711 0
-4.2716198 -0.083158016 2.0540676 0
-4.2892933 1.3766441 1.4772382 0
-4.3008652 1.9033417 0.60350955 0
2.3486083 4.1029744 0.36966002 0
2.2536864 4.0917158 0.81650877 0
-2.0010171 4.3005352 -0.013896167 0
-4.2597294 -1.0359415 1.8117714 0
-4.2780561 0.95001596 1.8158605 0
2.34691 4.0941277 0.48158264 0
-1.0828915 4.2561436 1.7933235 0
-4.2741666 0.0053117871 2.0582917 0
2.2080734 4.0946593 0.92917252 0
1.6888212 4.1349273 1.5997138 0
-4.2938662 1.6443192 1.1718681 0
-4.2919145 1.9968944 -0.32640833 0
-4.2751026 -0.1704098 2.0518231 0
-4.280262 0.94998401 1.81637 0
-4.264678 -1.3678179 1.5700803 0
-4.2541294 -2.0789886 -0.32363665 0
-4.256897 -1.4896075 1.4785478 0
2.3027418 4.1074796 0.59375262 0
2.1621675 4.0945911 1.0423417 0
-4.2848778 1.5005561 1.3853331 0
2.3931921 4.0916715 0.25756741 0
-4.2948494 1.9974036 0.31872821 0
-4.2782884 0.082196951 2.0558729 0
-4.2641978 -1.7281777 1.1695018 0
2.3943744 4.0973883 0.14451146 0
1.9821266 4.1210294 1.2777779 0
-1.7748508 4.2843251 1.0208664 0
-4.2931967 1.7642336 1.002373 0
-4.2660084 -0.43265426 2.0418696 0
-1.9961348 4.2961664 0.33810949 0
-1.2919445 4.2697897 1.6310027 0
-1.8150845 4.2789245 0.97905684 0
-1.4664381 4.2649188 1.490993 0
-4.2731781 -1.623932 1.291764 0
-1.678036 4.2749791 1.215013 0
-4.2673726 0.43253684 2.0422363 0
2.3954794 4.1027308 0.030400634 0
-4.2604151 0.35913402 2.0722148 0
2.0869715 4.1167197 1.1292093 0
1.7746694 4.1219654 1.5623455 0
2.0263927 4.1051006 1.2744992 0
1.9327204 4.1269846 1.3488917 0
-4.2802405 0.25724781 2.0503659 0
2.0514562 4.1080189 1.2282946 0
-1.8946848 4.3003726 -0.71611965 0
-4.2737808 1.5548868 1.3835297 0
-4.2708344 -0.27150899 2.0701089 0
-4.2771192 -0.18331629 2.0672238 0
-4.2606101 -2.021476 0.60224891 0
2.3430471 4.1047192 0.5145489 0
-4.2844114 0.169204 2.0543382 0
-4.2898636 0.8258062 1.8776689 0
-4.2713451 -0.91430157 1.8794851 0
-2.6816392 -3.8019562 -0.98490798 0
-1.576685 4.2819991 1.3400133 0
2.3963635 4.1070046 -0.084902823 0
-2.6818385 3.8020847 -0.9849714 0
-4.2832623 -0.25690031 2.0511808 0
2.25138 4.1143794 0.78937256 0
-1.9508216 4.2820854 0.69256926 0
-4.2651072 -2.0810552 0.31897914 0
-1.5448737 4.2693629 1.4191861 0
-4.2803044 -0.34445727 2.0478792 0
-4.2900081 1.8194919 0.95900726 0
-2.0009174 4.300446 -0.37009835 0
-4.2845058 1.9956093 -0.54328197 0
-1.8138804 4.281045 1.008532 0
-4.246829 -2.0776145 0.53209603 0
-1.7058349 4.2777133 1.1947086 0
-4.2640152 -1.3806565 1.5964181 0
-4.272284 1.889215 0.90393174 0
-4.2855577 -0.095791757 2.0652752 0
2.3022108 4.1044822 0.70597792 0
-4.2922859 1.9081883 -0.76220894 0
1.9068903 4.124886 1.412668 0
2.1173089 4.1018605 1.1584656 0
1.761559 4.1231227 1.5969281 0
-4.2832775 1.7596803 1.1004133 0
-4.2591429 -0.44914061 2.077189 0
-4.2829866 0.34418768 2.0486016 0
2.0739777 4.124332 1.1625144 0
-4.2572284 -1.6171572 1.3874896 0
-4.2572389 -1.1218309 1.8116224 0
-4.2580771 -1.9027575 0.95733571 0
-4.277308 0.9161498 1.8809264 0
2.3480198 4.0999098 0.59379303 0
-4.2577181 -1.8820156 1.0028074 0
2.4396029 4.0888743 -0.083530068 0
2.3948178 4.0995312 0.3695612 0
-4.2511005 -2.0784185 -0.54040945 0
-1.8777854 4.2848096 -0.89335775 0
2.2437518 4.1027613 0.9039501 0
2.4147844 4.0915308 0.336923 0
-4.2798576 0.27334172 2.072576 0
-1.3844712 4.2645917 1.6076765 0
2.2537532 4.0921268 0.92988491 0
-4.2951422 1.2961004 1.6013982 0
-1.958452 4.3038559 0.58498466 0
-4.2635345 -1.9919715 0.74521065 0
-4.2640171 -0.60568357 2.0380218 0
2.4404554 4.0927181 0.030445576 0
-4.2830315 1.3743989 1.5732858 0
-4.2583561 -1.9028018 -0.97726452 0
-1.9936974 4.2939854 -0.54907531 0
2.3944507 4.0977564 -0.43558919 0
2.3965111 4.1077185 -0.31874555 0
-4.2448711 -2.1662357 -0.10890168 0
2.2694089 4.1009374 0.8699888 0
-1.3708501 4.2597013 1.643399 0
2.3937426 4.0943327 0.48174608 0
-4.268527 -1.7529089 1.1977859 0
-1.8871789 4.2934604 0.85750556 0
-4.2644935 -1.9921379 -0.75955343 0
-1.9986293 4.2983985 0.51334882 0
1.5429281 4.1409183 1.7908626 0
-4.289176 1.2535256 1.6647303 0
-4.3050499 1.9102147 0.74665487 0
2.4408882 4.0946698 0.14389122 0
-4.2973824 1.8205547 -0.98333013 0
-4.2621646 -2.0223007 0.70291007 0
-4.2566051 -1.3649232 1.6657248 0
-4.2919054 1.6318868 1.2936645 0
2.3011305 4.0983834 0.81829107 0
2.0826452 4.1096997 1.2415688 0
-4.28019 -0.36344594 2.0776379 0
-4.2893248 1.7314324 1.1726127 0
-4.2904878 2.0858328 -0.11146766 0
-4.2500792 -2.0158894 0.80379415 0
2.3424718 4.0998697 0.69220781 0
-4.2563276 -1.8146381 1.1699834 0
-1.2857828 4.2616725 1.7220478 0
2.1968777 4.1058483 1.0489712 0
-4.2901487 1.036377 1.818795 0
-1.6768675 4.2709117 1.3188365 0
-4.2829313 -0.51798737 2.0445919 0
2.0722077 4.1073356 1.2762794 0
-1.5967522 4.2735119 1.4077036 0
-4.2809091 1.3818676 1.5997105 0
-4.2737803 0.60512394 2.0406423 0
-4.2743902 0.45269459 2.0813839 0
-4.2702041 -1.0087132 1.8858361 0
-1.8124549 4.2765713 1.1130207 0
2.4420416 4.0998702 -0.20145154 0
-4.3052559 1.9992087 0.53285611 0
2.1159365 4.090292 1.2730377 0
2.209692 4.1056142 1.0457487 0
-4.3071861 1.9064655 0.80377233 0
-4.2873521 2.0852425 -0.32778752 0
-2.6366515 3.8625233 -0.98371184 0
1.929363 4.1211691 1.4602525 0
2.3484783 4.1022978 0.70652461 0
2.4405184 4.0930018 0.36950552 0
2.4849296 4.0805926 0.14423048 0
-4.2582202 -2.168947 0.10474706 0
-0.8919158 4.2543049 1.9887781 0
1.9792234 4.1159701 1.4114895 0
-1.953712 4.2903323 0.79810846 0
2.4418874 4.0991745 -0.31901199 0
2.4397845 4.0896935 -0.4360221 0
