# .PCD v0.7 - Point Cloud Data file format
VERSION 0.7
FIELDS x y z intensity
SIZE 4 4 4 4
TYPE F F F F
COUNT 1 1 1 1
WIDTH 1458
HEIGHT 1
VIEWPOINT 0 0 0 1 0 0 0
POINTS 1458
DATA ascii
5.5438986 4.0223289 -0.70255649 0
4.2536497 5.4140873 0.067164779 0
4.5432005 5.1280432 0.68927956 0
4.448287 5.2251444 0.570382 0
-4.8321862 4.4440064 2.078886 0
5.7030382 3.8530278 0.22617126 0
5.6966314 3.849016 0.39680517 0
5.3017101 4.274262 1.0236018 0
5.7562184 3.7671659 0.3175993 0
5.3454113 4.2198076 1.0230196 0
5.4034071 4.1781225 -0.88194573 0
5.1676321 4.4360437 1.0256855 0
5.7096553 3.8499639 -0.11905819 0
4.2815399 5.3950186 -0.022121251 0
4.3257895 5.3320518 0.54425669 0
5.7052326 3.8446119 -0.33797961 0
-4.8249278 4.4250617 2.1412668 0
5.3930807 4.1728997 0.976004 0
4.3320398 5.3472576 0.30685627 0
5.6809301 3.8627677 0.51119113 0
5.7723718 3.7556248 -0.17712182 0
5.6801376 3.8621817 -0.52614117 0
5.1322451 4.4341373 1.2068365 0
4.2239628 5.4422979 -0.023261487 0
5.5211186 4.0437517 -0.79144669 0
5.6965275 3.8340771 -0.55723464 0
4.4904661 5.1789985 0.68998659 0
4.7314262 4.8998604 1.0338199 0
4.9998436 4.6175432 1.070296 0
3.248096 5.9954772 -0.9850688 0
4.6806645 4.9550371 1.0027065 0
-3.7300315 5.7083831 -0.98406672 0
6.7945595 -0.57608539 -0.9881748 0
3.1801593 6.0321598 -0.98943055 0
4.4250412 5.2105436 0.86613703 0
5.4912105 4.0694757 -0.88086867 0
5.7303238 3.8119369 -0.35161388 0
-4.8251939 4.5464568 1.8813574 0
5.7082663 3.8482831 0.31705201 0
5.764092 3.7764218 0.10049748 0
4.2796206 5.3916569 0.33642173 0
4.6433372 5.0205164 0.86295652 0
4.4370451 5.2296157 0.69071317 0
5.6437497 3.9225659 -0.52753288 0
5.5779858 -3.9601681 0.85220242 0
4.2951155 5.3620777 0.57047093 0
5.7010307 3.8395269 0.53414953 0
5.4513531 4.1272268 -0.88269377 0
5.5935316 3.9723721 0.68222082 0
6.8057275 -0.50072652 -0.98534393 0
4.6105461 5.0271053 1.0056791 0
4.5372591 5.1191773 0.86478162 0
-5.9580789 -3.4584773 0.28431928 0
4.4908514 5.1795912 -0.73870575 0
4.25492 5.4173069 0.30622494 0
4.3316112 5.3357239 -0.56417751 0
4.3795214 5.2742939 -0.74351883 0
5.5620022 4.0092955 0.73579657 0
5.4749756 -3.9512584 1.4020884 0
4.4443274 5.2209196 0.73742318 0
4.2804642 5.3931341 -0.38466609 0
5.6334934 3.9147494 -0.70349085 0
4.5881739 5.0665102 -0.91507232 0
5.5393639 4.0186629 0.85274827 0
4.2851658 5.4013677 0.15706134 0
4.4362216 5.2283072 -0.74138665 0
-5.8094501 -3.4641109 1.3503044 0
4.838201 4.8064284 1.032829 0
5.6962261 3.874083 -0.3530463 0
4.3110075 5.3800368 0.23323917 0
5.4993343 4.0762372 0.85323524 0
4.3731937 5.2639141 0.86771774 0
5.7751746 3.7575767 0.33994317 0
5.7683921 3.7814763 -0.11776817 0
4.2774315 5.3878222 0.51490116 0
5.4575586 4.132544 0.85362136 0
4.920125 4.6843176 1.202214 0
5.0099287 4.5851336 1.2148502 0
5.5850964 3.9800546 0.75325465 0
5.6600018 3.930474 -0.34264773 0
5.3414593 4.2565465 0.9794004 0
-4.8115225 4.9138403 0.5594095 0
4.4853773 5.1711645 0.86607826 0
5.7428007 3.820893 -0.17878377 0
5.5832286 3.9642842 0.85278559 0
5.6386313 3.9186649 0.68236828 0
5.5683374 -3.9585478 0.97012877 0
5.7722087 3.6508834 -0.98617399 0
6.8113775 0.50234562 -0.98691881 0
4.4771729 5.1940823 0.77813244 0
-5.9700642 -3.4623811 0.00055241585 0
4.5369658 5.1187391 -0.91892242 0
5.7657518 3.778373 -0.33652133 0
4.5811958 5.0564127 1.0385861 0
4.3287306 5.3308425 0.6922884 0
5.4369402 -3.9324768 1.615725 0
5.74473 3.822278 0.16756546 0
5.3999548 4.1750779 1.024348 0
4.3858728 5.2847123 0.69175553 0
5.5508833 4.0018802 0.9040159 0
5.8215508 3.7072318 -0.11588955 0
-5.6408844 -3.4726181 1.9425025 0
5.7311106 3.8125019 -0.52846152 0
5.5853486 3.9803784 -0.78927922 0
4.4014001 5.2616534 0.77978992 0
5.113935 4.4810753 1.1988518 0
4.3100882 5.3789978 0.40166736 0
5.2813225 4.3167081 1.0710442 0
5.8354168 3.6892447 -0.12042642 0
5.0207005 4.5863152 1.2010305 0
6.8216224 -0.4269467 -0.98413658 0
5.1274147 4.4571919 1.2366009 0
-4.7970033 4.9050603 -0.78487122 0
-4.8233509 4.6685829 1.6209507 0
5.2063818 4.3760018 1.1972396 0
6.8095231 0.5806064 -0.99236333 0
4.5975103 5.0800209 0.86491525 0
5.7867556 3.7656412 0.16748071 0
0.034157753 6.834856 -0.98907065 0
5.7592931 3.7707803 -0.55593926 0
5.7730889 3.7561245 0.51141238 0
5.8272457 3.7078941 -0.005431056 0
4.5757875 5.0619588 1.0700667 0
4.7258787 4.9223137 1.0702903 0
5.4463329 4.1229253 1.0244443 0
-4.8441343 4.1455069 2.6572452 0
4.4760752 5.1568441 1.0416451 0
-4.8330851 4.3098021 2.4045053 0
5.4619904 4.1146445 0.97540748 0
5.7046566 3.8540413 0.56574035 0
5.6443377 3.9109547 0.75233996 0
-4.8306723 4.5406795 1.9411323 0
5.0793571 4.5223045 1.2126198 0
-4.7952275 4.9039865 0.82615674 0
-4.8209877 4.7988286 1.206372 0
4.4305253 5.2192574 -0.92597353 0
5.546031 4.0240531 -0.8845067 0
4.6743112 4.9418406 1.210062 0
4.2298717 5.4529982 0.3359133 0
5.8264151 3.7127864 0.10088801 0
5.7782516 -3.6577842 -0.98829162 0
5.630908 3.9127789 0.85332811 0
5.8221459 3.7044504 -0.35382009 0
4.639111 5.0145841 1.0384665 0
5.5723853 -3.9557719 1.0233936 0
4.2333126 5.4592295 0.15574777 0
5.5319223 4.0126472 1.023859 0
5.7380495 3.8174827 0.51153135 0
4.8537245 4.7617302 1.2360437 0
5.4911242 4.0694041 1.024406 0
4.9501619 4.6659694 1.2197497 0
5.5886173 3.9685142 -0.88415909 0
4.225337 5.4447856 0.51532292 0
4.4875374 5.17449 -0.9240973 0
5.5205498 4.0430002 0.97344327 0
4.6930995 4.9674301 1.0376599 0
5.5758977 3.96825 0.971205 0
4.8795252 4.7453403 1.2054892 0
5.1655893 4.4339638 1.1991823 0
4.4420471 5.2184877 0.90401423 0
5.839839 3.6918404 0.22305393 0
4.2339778 5.4604349 -0.20693159 0
5.6865172 3.8669009 -0.70664704 0
4.5445437 5.1104431 1.0098152 0
5.8238873 3.7099001 -0.33482063 0
4.17558 5.5076308 0.15496206 0
5.0734873 4.5402021 1.201282 0
5.8246288 3.7107465 0.31756461 0
4.2306156 5.4543452 -0.38925362 0
4.1730423 5.5028749 0.33562136 0
5.8265824 3.7074463 0.33969796 0
4.8847132 4.7389164 1.2236247 0
5.8319368 3.7110622 -0.18005896 0
4.11726 5.5558615 -0.027632236 0
4.8315034 4.7980828 1.2071638 0
5.7020607 3.8407733 0.75139809 0
4.7303705 4.8984642 1.2098594 0
4.176403 5.5091729 -0.20881808 0
4.1817183 5.5007076 0.30532718 0
4.3785686 5.2727308 -0.93082273 0
-4.8074627 4.784431 1.3577027 0
5.9284782 3.5619767 -0.11271226 0
4.8173704 4.8102741 1.2273798 0
4.2578249 5.4246712 0.54531312 0
5.7906804 3.7683744 -0.35543627 0
5.6484275 3.9160511 -0.78707707 0
5.834878 3.7130482 0.16695964 0
3.3242822 5.9865813 -0.98876369 0
5.8213515 3.7039139 0.51159179 0
5.7327857 3.813704 0.68306386 0
5.6780863 -3.9530089 0.096234083 0
5.8196335 3.7050421 0.53370297 0
5.0015507 4.6189895 1.2368631 0
4.2858086 5.402493 -0.57093197 0
5.2116017 4.3891582 1.2074327 0
4.3276653 5.3290372 0.8705548 0
5.3496037 4.2236133 1.1971016 0
5.8215833 3.7040701 -0.5308488 0
4.2806034 5.3933778 0.69385648 0
0.12129629 6.8487544 -0.98668528 0
5.4224987 4.164494 1.0716071 0
5.8787193 3.6383269 0.31788266 0
4.1799965 5.5159068 -0.02708602 0
4.1579018 5.5182152 0.40122271 0
5.7839365 3.7636781 -0.53136688 0
4.9831686 4.6498022 1.2045999 0
5.6958828 3.8738289 0.68335664 0
5.6749592 -3.9491127 -0.34558207 0
4.330584 5.3437157 0.78232026 0
5.2631812 4.3338971 1.199024 0
5.871016 3.6522522 0.33958554 0
4.7855015 4.8539333 1.209583 0
6.8382144 0.43144554 -0.98874283 0
5.8519659 3.6989579 0.049778223 0
4.171957 5.5008416 0.51573825 0
4.304224 5.3723702 0.73701334 0
5.7748628 3.7573595 0.68315971 0
5.8849969 3.6452916 -0.11552483 0
4.5395398 5.1225801 1.0424252 0
5.6766572 -3.9512284 0.31600714 0
5.8853097 3.6456392 0.10146904 0
5.6234612 3.9071035 1.0246983 0
5.8214273 3.7070906 -0.5547328 0
-5.9692616 -3.4621196 0.5672859 0
5.8372025 -3.592262 -0.98602176 0
-3.6666322 5.7909408 -0.98543954 0
5.8720098 3.6529026 -0.35587591 0
4.1201782 5.5615234 -0.21130401 0
4.3373108 5.3453822 -0.7525804 0
4.4741244 5.1872311 1.0133889 0
5.5623507 -3.9478948 1.1946671 0
5.3093104 4.2813621 1.1986034 0
4.9642687 4.6282187 1.3760431 0
3.3936229 5.9556112 -0.98655486 0
-5.3572869 -3.4838836 2.6687863 0
5.6400352 3.9197347 -0.88706005 0
-5.8073921 -3.4627807 1.4996018 0
5.7746997 3.7572458 -0.70842302 0
4.2303357 5.4538388 -0.57435477 0
5.6846476 -3.9537351 0.16599953 0
4.1774516 5.511138 -0.39314163 0
5.43999 4.1174898 1.1967199 0
4.6321926 5.0048728 1.214242 0
6.8474493 0.35582501 -0.98597312 0
5.7077608 3.8559854 0.73488522 0
5.8460579 3.6954901 0.39343774 0
5.7749963 3.7892396 0.53430641 0
5.9174547 3.5980949 -0.1812467 0
5.4717455 -3.9491048 1.568594 0
5.3959022 4.1768599 1.1986122 0
4.9177341 4.6815071 1.3779745 0
5.8397179 3.595053 -0.98688912 0
4.2260809 5.4461331 0.69486809 0
5.6805859 -3.95064 -0.35834622 0
5.2777367 4.3241653 1.2052441 0
5.3376522 4.2510376 1.2019598 0
5.683939 -3.9603021 -0.12512302 0
5.2784138 4.314518 1.238085 0
4.6087952 5.0234556 1.2391653 0
5.8816786 3.6592329 0.16647887 0
5.8815479 3.6591473 -0.18160188 0
5.5649171 -3.9541585 1.1890867 0
4.1810598 5.4989657 0.54604018 0
4.6817236 4.9571657 1.2357824 0
4.7221403 4.9187584 1.2365065 0
5.8840332 3.6607742 -0.0072855949 0
4.7533488 4.8900275 1.2324009 0
5.7394276 3.8184719 -0.70993435 0
5.7094917 3.849766 -0.78458118 0
5.5548468 4.0045238 1.0720358 0
5.1102991 4.4772663 1.3735416 0
5.8773508 3.6368082 0.5334816 0
5.8701024 3.651654 0.51179528 0
4.5740681 5.0602264 1.2361863 0
5.6858726 3.8664241 -0.88830459 0
5.6850863 -3.9540694 0.33919382 0
5.3290615 -3.9335973 2.0490913 0
4.98773 4.6072803 1.4024723 0
4.1220489 5.5651531 0.33507216 0
-5.9784474 -3.4651115 -0.57144767 0
4.0598259 5.6069117 -0.39809066 0
5.6923246 -3.9595864 -0.0086840391 0
5.8418398 3.6930146 0.56416643 0
5.6750612 -3.949239 0.5353483 0
5.9181747 3.5985518 0.33940148 0
5.6908941 -3.9584959 -0.18370843 0
4.1719179 5.5350003 0.23073387 0
5.6445808 3.911258 0.97102118 0
5.7644668 3.7768619 -0.78058743 0
4.4417744 5.2181964 1.0705187 0
4.0043001 5.663271 -0.031645 0
4.1158028 5.5530343 -0.58088493 0
5.6920042 3.87096 0.85540569 0
5.8892365 3.649996 -0.33465087 0
5.4127598 4.157588 1.2388244 0
5.1603384 4.4286184 1.3735144 0
5.8224678 3.7046676 -0.71065271 0
6.8574853 -0.35839266 -0.98874879 0
4.4371939 5.2298522 1.0466256 0
5.0680323 4.5343213 1.3759885 0
3.464633 5.9301462 -0.98617649 0
4.1683564 5.4940944 -0.76341975 0
5.6758556 -3.9502289 -0.56943256 0
4.127564 5.5758533 0.15296447 0
4.2572565 5.4232302 0.78475022 0
5.0213633 4.5870509 1.3774314 0
4.3817034 5.2778726 1.0480499 0
5.965663 3.5446823 -0.0078750849 0
5.9293633 3.6056497 -0.0080063939 0
5.9120274 3.5946517 -0.53390819 0
4.851923 4.7601128 1.4023404 0
-5.8801222 2.5405622 2.6723528 0
4.4037943 5.2672491 1.0173442 0
4.1238995 5.5687428 -0.39728183 0
4.1633883 5.524786 0.56872439 0
4.3032093 5.3712239 0.90401483 0
5.4615583 4.1140561 1.1970885 0
5.5972548 3.9752948 1.0272758 0
5.1374698 4.4424381 1.4348707 0
-4.8245544 4.8027449 1.3583417 0
-4.8236704 4.533422 2.0906577 0
6.8658252 0.28269249 -0.98603082 0
4.108386 5.5881352 0.30433989 0
5.7363567 3.8162675 0.85572362 0
4.1789417 5.5139308 -0.57985413 0
5.9305148 3.6063805 0.16582811 0
4.2816935 5.3952866 0.87354815 0
4.334981 5.3414345 -0.94060206 0
5.8980489 -3.5291708 -0.98475099 0
0.20622468 6.870059 -0.98637366 0
4.1743946 5.5054088 0.69630587 0
5.6736698 -3.945369 0.684677 0
4.1038008 5.5754585 0.54682469 0
5.7344289 3.8148837 -0.89068604 0
5.9795876 3.5298893 -0.1269877 0
4.0692377 5.625833 0.15200865 0
5.4530201 -3.948863 1.7038593 0
5.7058945 3.8548167 0.90401733 0
4.7788119 4.8453488 1.3856196 0
5.3003736 4.2730131 1.3718829 0
5.8688588 3.6508398 0.68411803 0
4.0702648 5.6278977 -0.031397521 0
5.7734919 3.7874715 0.75166273 0
5.4116831 4.1854219 1.2003956 0
5.2566767 4.3276434 1.3730226 0
5.8219647 3.7077043 -0.7777133 0
4.0689926 5.62534 -0.21545547 0
5.8861389 3.646559 -0.55437249 0
5.8805661 3.6585045 -0.53549182 0
4.5901155 5.0693197 1.2187698 0
5.2122622 4.3818197 1.3741946 0
5.8252025 3.7114022 0.75041533 0
4.1792507 5.4941802 0.78674614 0
5.9457598 3.5806081 0.31783652 0
5.8332844 3.7119722 0.68433952 0
5.9506421 3.5858719 0.10147023 0
4.1578245 5.5181222 0.73666263 0
4.9465613 4.6596632 1.4488246 0
5.2684917 4.3070445 1.4047048 0
5.9460821 3.5809557 -0.33310449 0
5.1369705 4.4648285 1.404202 0
4.7135162 4.9105568 1.4023719 0
4.3290548 5.3399959 1.0206842 0
5.9222813 3.6011569 0.51208329 0
5.3908606 4.1670566 1.371063 0
5.7775459 3.759228 -0.89151001 0
5.9854031 3.533082 0.045789003 0
4.2922921 5.4138479 -0.76103246 0
4.23351 5.4595871 -0.76359487 0
5.0139337 4.5919199 1.4449029 0
5.9683867 3.5463562 0.33914065 0
6.8743181 -0.28473634 -0.98837149 0
4.1249552 5.5707912 0.51643848 0
-5.9674954 -3.4615443 0.85070586 0
5.5239129 4.0474458 1.195106 0
5.7077408 3.847647 0.97019506 0
0.29500973 6.8754983 -0.98258197 0
4.069531 5.6264219 0.33453214 0
4.0107374 5.6766915 0.15095949 0
4.0099893 5.6751313 -0.21776861 0
5.5016594 4.0781727 1.2001643 0
5.5432768 4.0218263 1.1996005 0
5.6910582 -3.958621 -0.53909492 0
5.206275 4.3809576 1.432538 0
5.7838554 3.7636216 0.85645771 0
5.9757476 3.5508795 -0.18424731 0
5.5849643 3.9656465 1.1992207 0
4.5456877 5.1129189 1.2458022 0
5.693121 -3.9601929 0.51238239 0
5.5805206 3.9741819 1.1922035 0
4.4855766 5.1714711 1.2229934 0
5.080792 4.5246582 1.4412141 0
5.8791656 3.6388218 0.74944997 0
5.6348252 3.8991015 1.1891086 0
5.6936417 3.8471437 1.0727615 0
4.3330579 5.3381753 1.0513272 0
5.5610332 -3.9468608 1.3691039 0
4.2966137 5.3637705 1.0707488 0
4.1196866 5.5605693 0.69753432 0
5.8747621 3.6547048 -0.71431923 0
4.0638046 5.6149101 -0.58704913 0
5.7281742 3.8103938 1.0279729 0
4.8865304 4.753818 1.3848486 0
-3.5999932 5.8708196 -0.98628485 0
4.0184231 5.6744351 0.22964954 0
-4.7961559 5.0334964 -0.24881756 0
4.6829033 4.9535427 1.3911452 0
6.883925 0.2094757 -0.98630059 0
4.8371906 4.8051701 1.3865328 0
5.9890032 3.5350587 0.21817195 0
5.9799552 3.5534651 0.16509914 0
-4.795701 5.0332122 0.29113472 0
5.5542965 4.0041561 1.2402072 0
5.9377732 3.6109855 -0.36103457 0
5.9744787 3.5501001 -0.3608582 0
4.0298376 5.6654859 0.30352414 0
6.8856521 -0.20986527 -0.98677504 0
4.4328361 5.2229285 1.2253594 0
5.6916475 3.8706961 1.0287089 0
4.1722789 5.5014448 0.87705183 0
4.885015 4.7394633 1.4550722 0
5.6784954 -3.9535191 0.75520015 0
4.473258 5.1852841 1.2502208 0
-6.1609735 2.5554018 1.9935217 0
5.2721424 4.3158169 1.4296715 0
6.0073824 3.5170782 0.10205817 0
6.0194654 3.4941614 0.16493547 0
4.2865114 5.4037247 -0.94851637 0
5.4402161 -3.9368074 1.840363 0
5.8528996 3.699506 0.73388624 0
6.0034552 3.5129635 0.31800628 0
-5.8101654 -3.4645731 1.6501079 0
4.8177199 4.8109288 1.4599347 0
4.2282834 5.4501224 -0.9517169 0
-4.8179512 4.7954955 1.5096436 0
5.9872437 3.5340927 0.39042568 0
5.3331194 4.2444787 1.4257641 0
6.0085354 3.518286 -0.11472827 0
-4.8139596 4.6632648 1.8904963 0
4.4422846 5.2187414 1.2372389 0
4.7390747 4.9099708 1.3908792 0
4.008316 5.6716437 0.51710796 0
5.4689589 -3.9472458 1.7357063 0
5.7681398 3.7811801 0.96913409 0
4.2340212 5.4605136 0.87648177 0
3.9531093 5.7308397 -0.22098154 0
4.7487688 4.8811412 1.4647105 0
4.9662514 4.6304832 1.5551305 0
5.9605198 -3.4679835 -0.98434651 0
5.9494877 3.5846269 0.5336591 0
-4.8137302 4.9151754 1.0961075 0
4.0142965 5.6841111 0.33405054 0
5.0623455 4.5281901 1.5524402 0
4.5476141 5.1346288 1.2235341 0
3.5405641 5.9183593 -0.9899826 0
4.6362944 5.0106311 1.3948274 0
4.5829797 5.0589938 1.3965702 0
4.1158094 5.5530462 0.87875509 0
4.0276709 5.6592174 0.54776001 0
5.8862214 3.646651 -0.77713656 0
5.3943996 4.1747503 1.4222987 0
5.9150171 3.5474646 -0.99051154 0
4.0717516 5.6308856 0.51695478 0
6.8967233 0.13509732 -0.98540533 0
5.9621553 3.4696972 -0.98489344 0
5.6806498 -3.9562032 -0.79708421 0
-4.8104076 5.0423956 0.02076745 0
5.4475384 4.1239581 1.3738809 0
5.6906557 -3.9583139 -0.72008336 0
4.1586304 5.5190883 0.9040153 0
6.0586271 3.4431221 -0.11305261 0
4.2239914 5.442349 1.0557947 0
3.6075182 5.881629 -0.98697472 0
3.9566879 5.7385821 -0.035831392 0
5.5648088 -3.9540198 1.4103935 0
5.9517121 3.5870259 -0.55442178 0
5.9767771 3.5515122 0.51243114 0
-5.9859776 -3.4675643 -0.86181271 0
5.3632374 4.2359896 1.3759966 0
4.2834578 5.3983765 1.0546622 0
4.1235352 5.5680361 -0.77373123 0
-4.813899 4.5878859 2.0940461 0
6.0636311 3.4374185 0.16444016 0
4.4007401 5.2601113 1.2550802 0
4.1766376 5.487267 1.0277777 0
5.8236203 3.709595 0.96756434 0
5.9846773 3.5326836 0.5620693 0
6.0607409 3.4452741 0.10281634 0
3.9568791 5.7389951 0.14920783 0
5.9286008 3.6051662 0.68545306 0
3.948523 5.7387877 0.30276585 0
5.8439665 3.694263 0.9040184 0
5.6992044 3.8373163 1.1882174 0
5.8338647 3.7123642 -0.89685345 0
6.901391 -0.13608021 -0.98668349 0
6.0283461 3.4994454 -0.18650591 0
5.492362 4.0704341 1.3738246 0
4.3270478 5.327991 1.2308471 0
5.4551888 4.105381 1.4190385 0
4.5817575 5.0679722 1.4034872 0
5.5354996 4.0155392 1.3735402 0
4.0104418 5.676075 -0.59317887 0
4.1744728 5.5055556 -0.9578917 0
5.8400269 3.7165256 0.85818028 0
5.6829271 -3.9524238 0.85905015 0
4.1065426 5.5830379 0.78979218 0
5.6427794 3.9218264 1.2022173 0
4.9933262 4.6120214 1.570154 0
6.0255566 3.4977858 -0.36349338 0
4.0685496 5.6244493 0.6993103 0
6.0340872 3.502861 -0.011104405 0
5.1620793 4.4303904 1.5520058 0
4.0191164 5.6753149 0.56751204 0
4.0173302 5.6904354 -0.40702283 0
5.9301381 3.6061413 -0.71899164 0
5.8767571 3.6361496 0.96584797 0
5.8799915 3.6581285 0.85826278 0
4.3866038 5.2859116 1.2299838 0
5.6901007 3.8449266 1.2414947 0
3.6760869 5.8498259 -0.98564446 0
5.9816003 3.5544763 -0.5412432 0
-5.9553642 -3.457593 1.1340816 0
5.876699 3.6559727 -0.89804423 0
6.0145469 3.5245841 -0.3338244 0
6.0288115 3.4997222 0.33865929 0
-4.8116627 4.7868891 1.628696 0
5.7863469 3.7653565 1.0306127 0
6.9105029 -0.060992658 -0.98507166 0
5.1181927 4.4855356 1.5541039 0
-4.8280663 4.4406271 2.3879819 0
6.0068188 3.5164878 0.53347862 0
4.2613192 5.4335303 1.0260611 0
4.2150784 5.4262085 1.2355628 0
6.0663037 3.4389572 0.3386302 0
6.0198183 3.4943717 -0.54155457 0
5.9729095 3.5491354 0.68586743 0
4.7267046 4.8936186 1.5673227 0
4.6120267 5.0301919 1.476203 0
-3.5269985 5.9448748 -0.98574364 0
5.2670898 4.3059888 1.5722852 0
4.326602 5.3340278 1.2599287 0
4.5374107 5.1194024 1.4012942 0
5.6879325 3.8679478 1.2028122 0
6.0634913 3.4480741 -0.33125597 0
5.9454112 3.5802324 -0.77537203 0
4.4830966 5.1676531 1.4033084 0
5.2122025 4.3817611 1.5522208 0
4.1528034 5.5121098 1.0711856 0
-4.8039637 5.0383716 0.56043518 0
-4.836792 4.5528069 2.1576571 0
3.9574332 5.7401943 -0.41011119 0
4.4279547 5.2151723 1.4053159 0
-5.6370006 -3.4712913 2.22628 0
5.4260139 4.1669869 1.4078202 0
4.0313778 5.6908855 0.39741802 0
5.1372585 4.4650578 1.5718122 0
6.1153555 3.3752697 -0.11235064 0
6.0094476 3.5192416 -0.55286944 0
5.7300448 3.8117366 1.2029593 0
5.2590384 4.3299141 1.5516047 0
4.6870413 4.9678564 1.4725471 0
4.0152903 5.6704559 0.73599899 0
-4.8091621 5.0416179 -0.52282351 0
6.0264692 3.4983287 0.51269305 0
3.9484921 5.7386932 0.54863226 0
5.0284562 4.5949206 1.5585306 0
5.5758305 3.9681633 1.4132333 0
4.9319382 4.6982045 1.5617905 0
4.7159653 4.9128857 1.5696504 0
-4.8287482 4.2856426 2.6771886 0
4.174221 5.505084 1.059649 0
4.0704823 5.6283345 -0.78061771 0
4.1208496 5.5628266 -0.96480811 0
5.5221338 4.045094 1.4177186 0
3.9015794 5.8004513 -0.038769603 0
6.0732808 3.4429743 -0.36563146 0
5.5546141 4.0043678 1.4087858 0
5.3504238 4.2243576 1.550385 0
5.8337064 3.7122571 1.0317211 0
4.7836323 4.8515348 1.5676208 0
5.9874802 3.5342224 0.73306262 0
-4.8135071 4.790616 1.6615222 0
0.37618017 6.9121203 -0.98649001 0
-4.8027868 5.0632944 0.43701756 0
5.840415 3.6921785 1.0738139 0
4.8852515 4.7522702 1.5644307 0
5.6780729 -3.9487247 1.0331292 0
6.0186214 3.4936595 0.68641293 0
6.0814042 3.4476516 -0.18891579 0
6.1162024 3.376107 0.31833148 0
4.0141263 5.6837559 0.70085108 0
5.3084011 4.2805128 1.552031 0
6.9233003 0.063496649 -0.98856568 0
5.9304209 3.6063209 0.85951591 0
3.901557 5.8004007 -0.22614557 0
3.9586301 5.742784 0.51786196 0
6.121912 3.3817561 0.10291159 0
6.118331 3.386215 0.16326785 0
4.8074813 4.7917428 1.690757 0
4.3046808 5.3728876 1.2382317 0
4.0290241 5.6631331 0.79239511 0
5.3965673 4.1720905 1.5502775 0
6.1120338 3.3827083 -0.36626905 0
-4.7971845 4.90517 1.3641984 0
4.8665199 4.7732182 1.571125 0
5.0104184 4.5859632 1.6751914 0
3.9641266 5.7546754 0.33330929 0
5.9563327 3.5920069 0.75036824 0
6.0277796 3.4117177 -0.98581648 0
-6.4826956 2.5624461 0.59867442 0
5.6842256 -3.9606593 0.97656298 0
5.1395187 4.445694 1.6649718 0
4.5440521 5.1093802 1.4829633 0
5.6953535 -3.9618945 -0.90569663 0
5.5932331 3.9721375 1.3770611 0
6.0285769 -3.4125297 -0.9860791 0
6.0875916 3.4512141 -0.012861729 0
6.0746565 3.4594405 0.31781292 0
6.0652275 3.4498417 0.53335214 0
5.9706254 3.5477319 0.8597846 0
5.9299064 3.6059945 -0.90277326 0
5.2646112 4.3045788 1.6552134 0
4.8390589 4.8074975 1.5675833 0
4.2532115 5.4129763 1.2655542 0
4.9460506 4.6587687 1.681149 0
3.9049191 5.8079572 0.1470412 0
5.985631 3.5569532 -0.72384393 0
5.8790326 3.6575007 1.0326326 0
6.0220623 3.4957068 -0.7237246 0
6.1180048 3.3860333 0.33830023 0
-5.8105659 -3.4648325 1.801193 0
6.1231356 3.3888903 -0.18981934 0
5.6367321 3.9172175 1.3772178 0
5.4630957 -3.943336 1.9030547 0
4.4462938 5.2230172 1.4047136 0
-6.4984951 2.5691571 0.44439888 0
4.6866741 4.9586792 1.573844 0
4.3811622 5.2769852 1.4107404 0
3.9593911 5.7444305 -0.60097218 0
3.9033389 5.8044052 0.33295703 0
3.9016337 5.8005724 -0.41516995 0
5.7825255 3.7626956 1.2052622 0
5.771399 3.7850111 1.1889913 0
-4.8469896 4.4367337 2.423501 0
4.634932 5.008718 1.5762038 0
6.063849 3.4375439 0.68697298 0
4.0661879 5.6197014 -0.97178733 0
4.0717125 5.6308069 0.88308167 0
4.2850327 5.401135 1.2375252 0
5.446516 4.1230822 1.5515571 0
4.4719877 5.1824293 1.4887857 0
5.0807076 4.5245194 1.6719773 0
5.9826021 3.5315444 0.90401947 0
-5.5846786 -3.4813774 2.4027948 0
4.0105152 5.676228 0.88430214 0
6.0091009 3.5188782 -0.77517021 0
3.953136 5.7308965 -0.79025066 0
5.6811624 3.8629396 1.3777888 0
3.9004292 5.7978659 0.51831794 0
5.2550802 4.2969432 1.7389612 0
6.9365311 -0.16364199 -0.98165536 0
4.5836706 5.0599933 1.5790963 0
6.0711789 3.4559004 -0.55246365 0
6.0798388 3.4467502 0.51304221 0
3.9577041 5.7407799 0.70229506 0
5.8249183 3.7063224 1.2057498 0
5.9467726 3.5817001 0.96646571 0
6.1325035 3.3941069 -0.013818979 0
5.2091975 4.385457 1.6624038 0
6.1427717 3.3770702 0.038085461 0
4.8836455 4.7369828 1.6884658 0
3.7525687 5.8376055 -0.99026287 0
5.8264689 3.7128479 1.1867018 0
4.4762573 5.1571245 1.5839205 0
3.8990593 5.7947869 -0.6050427 0
6.1234674 3.367182 0.55997181 0
6.1407356 3.3760276 0.21261644 0
6.1198707 3.3797367 0.53315854 0
4.1080074 5.5870872 1.033886 0
5.5757222 -3.9583914 1.5505052 0
5.6450539 3.9118469 1.4130378 0
-4.7982521 5.0580192 0.74872613 0
6.9417429 0.0099338889 -0.98978221 0
5.0166245 4.5817928 1.7357452 0
6.9424071 -0.0098138452 -0.98996305 0
6.1300025 3.3897603 -0.33194828 0
5.0644274 4.5304341 1.7342322 0
4.0186195 5.6931233 -0.78880191 0
3.8430901 5.8569016 0.33253777 0
4.5328369 5.1125779 1.58253 0
6.0622125 3.4467719 0.74869359 0
3.8464856 5.8648376 -0.042004645 0
4.5842524 5.0704846 1.5711546 0
-3.4576173 6.0223727 -0.98646188 0
5.9792695 3.5530438 -0.90647793 0
6.0833006 3.4487433 -0.54772389 0
3.8188992 5.8003693 -0.98793697 0
4.296608 5.3637643 1.4049416 0
5.9646883 3.5440834 1.0340533 0
3.8463583 5.8645406 0.14555073 0
3.8421059 5.8546019 -0.41924208 0
6.0173187 3.5274875 0.75009584 0
6.0701227 3.4411559 -0.72693849 0
3.8826706 5.8391843 0.22512817 0
6.9454908 -0.08595264 -0.98729038 0
5.1297827 4.4590845 1.7390082 0
5.4967585 4.0740938 1.5531216 0
-4.8120232 5.0434041 -0.79837048 0
4.021389 5.6782017 0.90401638 0
5.7952032 -3.9534938 -0.130808 0
5.422801 4.1647086 1.5762401 0
4.7077551 4.9050775 1.7360957 0
6.0176826 3.4931009 -0.90697432 0
5.5390062 4.018374 1.5525041 0
5.9300079 3.6060591 1.034472 0
3.8754263 5.8424888 0.30143356 0
4.6763535 4.9463696 1.7057981 0
6.1483383 3.3799222 -0.13806236 0
5.5466747 3.9990735 1.5770059 0
6.1074095 3.3801334 -0.72748721 0
6.1407166 3.3760178 0.3861258 0
-4.8060513 4.7824306 1.8132932 0
5.5642662 -3.9533231 1.634012 0
3.8797867 5.8352981 0.39583373 0
4.9239025 4.6887584 1.740941 0
6.0889111 -3.3491075 -0.98553896 0
-4.81109 5.0428219 0.83067465 0
-4.8131151 5.0753083 0.59222221 0
6.1230044 3.3888173 -0.5486998 0
3.847394 5.866961 -0.2309761 0
4.0670443 5.6214228 1.066318 0
6.0251994 3.4975731 0.86159956 0
5.7032681 3.8422339 1.4103105 0
4.825737 4.7908969 1.7452841 0
6.1257143 3.3855178 -0.55066377 0
4.1747503 5.5060763 1.2436328 0
4.9741721 4.6395283 1.7397561 0
3.8854909 5.7642927 -0.98621392 0
5.5831375 3.9642129 1.5526819 0
4.1591616 5.5197244 1.2390001 0
3.8748586 5.8286562 0.56591928 0
0.46034551 6.9371648 -0.98792732 0
6.1145878 3.3841302 0.68790746 0
5.2096786 4.3792634 1.7322059 0
5.6789284 -3.9540579 1.1977606 0
5.2991352 4.2718558 1.7295394 0
5.4555387 4.1058574 1.6449084 0
5.7958422 -3.9542677 0.3146522 0
5.8746862 3.654655 1.2077825 0
4.7507181 4.8849235 1.7016726 0
5.8430281 3.693712 1.2439353 0
5.1184177 4.4857717 1.7354302 0
5.7011404 3.8518398 1.4116032 0
4.1299253 5.5804348 1.0653162 0
4.027895 5.6598668 1.0375524 0
5.8054667 -3.9548934 -0.01635325 0
4.8785753 4.7441907 1.7445199 0
4.013257 5.6819434 -0.98054719 0
5.1656857 4.4340615 1.7342868 0
5.8038206 -3.9536753 -0.19444114 0
5.7355967 3.8157218 1.3809347 0
3.8437295 5.858397 0.5188905 0
5.8020291 -3.9617546 0.091776848 0
6.0699649 3.4546649 -0.77443314 0
4.1821623 5.501883 1.2725949 0
5.797102 -3.9557917 -0.35568821 0
6.0619593 3.436456 -0.90954602 0
5.0021877 4.6195297 1.7394092 0
5.8017411 -3.952137 0.33758581 0
3.9517851 5.7279739 -0.9846884 0
4.3375654 5.3458133 1.4178548 0
5.8888125 3.6495259 1.1859732 0
4.6769075 4.9453773 1.7538316 0
6.1334524 3.3946352 0.5134083 0
4.4047036 5.2693734 1.4971447 0
5.4013453 4.1844993 1.6511214 0
6.0965528 3.3566678 -0.98802054 0
3.7871518 5.9217343 -0.044587016 0
3.9544559 5.7567835 0.7957952 0
4.3262739 5.3332314 1.5016665 0
3.9032426 5.8041887 0.70414257 0
3.8747025 5.8401828 0.54992425 0
4.4319372 5.2215009 1.59093 0
4.7816324 4.848968 1.7501588 0
-6.5017967 2.5705595 0.75093591 0
6.1185966 3.3784759 -0.77061474 0
5.3437247 4.2598252 1.6566737 0
5.7928429 -3.9506376 0.53666544 0
6.9616914 0.083261788 -0.99169075 0
5.8179865 3.7016411 1.3814051 0
5.5181122 4.0397782 1.6418781 0
4.1203198 5.5617981 1.2474442 0
4.6105943 5.0272059 1.7143059 0
5.2621689 4.3329239 1.7336059 0
6.016643 3.4924824 1.0362337 0
6.0114989 3.5213907 0.96650362 0
4.8661404 4.7728777 1.739207 0
5.6735926 3.8573399 1.5543351 0
5.7648444 3.7773058 1.4086962 0
5.3946619 4.1704097 1.7302213 0
-4.8012972 5.0615611 0.90400052 0
5.8123641 -3.9599955 0.16044998 0
5.7923326 -3.9500206 -0.58105636 0
6.0586333 3.4431288 0.96445322 0
5.9873314 3.5341406 1.0749731 0
6.0739455 3.4433572 0.86288404 0
3.9460216 5.7311988 1.0411739 0
6.9648323 0.15935653 -0.98932505 0
4.0192842 5.675528 1.0721838 0
3.7877688 5.9050837 0.55056345 0
5.6907997 -3.9584241 1.2117801 0
4.2838902 5.3991342 1.4215801 0
4.4463844 5.2231145 1.5724735 0
6.1332493 3.3721929 0.73183393 0
6.1465116 -3.2831256 -0.9844234 0
3.7899833 5.9286222 0.14359665 0
3.9023242 5.8021255 -0.80038166 0
5.4473381 -3.9462216 2.0707426 0
-4.8093033 4.6606278 2.1642232 0
5.7845545 3.7641084 1.3829131 0
-6.4917593 2.5662963 0.90399742 0
6.1259542 3.3857548 0.74878633 0
3.8464017 5.8646412 -0.61339378 0
4.1040745 5.5762143 1.2778292 0
5.5785694 3.971678 1.6385353 0
5.81144 -3.959312 -0.37574458 0
3.7906046 5.9301348 -0.23543197 0
3.8777945 5.8326135 0.73494518 0
3.7897959 5.9281669 0.33175051 0
5.9478478 3.5828593 1.184823 0
-5.9678607 -3.4616635 1.4214804 0
5.5685973 -3.9527986 1.7287393 0
3.9533262 5.7313085 1.0724449 0
3.7947044 5.92834 0.30041289 0
-3.3866696 6.0984788 -0.98706234 0
6.1920276 3.3444927 0.33751512 0
5.6427217 3.9217823 1.5575695 0
6.9730687 0.23451471 -0.98863697 0
4.0170412 5.6898322 1.0711706 0
5.41467 4.1589427 1.7445049 0
5.3608932 4.2338614 1.7348156 0
3.965785 5.7582636 0.88912821 0
-5.8160877 -3.4684012 1.9542947 0
3.9023275 5.8021326 0.89033043 0
-6.1586723 2.5549345 2.2872818 0
-4.7969632 5.1652908 0.01791203 0
0.54539526 6.958776 -0.98883629 0
6.2012377 3.3494501 0.16038203 0
4.7412462 4.9128413 1.7571435 0
6.9768929 -0.23399156 -0.98967123 0
6.9744754 -0.31044948 -0.98639703 0
5.9348474 3.6091292 1.2118857 0
5.4916182 4.0698152 1.7324109 0
3.7907386 5.9304595 -0.42717469 0
4.6370196 5.0116487 1.7619567 0
4.3864574 5.2856722 1.597995 0
5.6397562 3.9052455 1.6357839 0
0.63536096 6.9544683 -0.98394418 0
-6.1362734 -3.4482074 0.43890536 0
5.8102899 -3.958461 -0.55760992 0
-4.8080974 5.0409527 1.101449 0
-4.8153715 4.7890601 1.902935 0
4.5840149 5.0702448 1.7392642 0
5.7932267 -3.9511025 0.75889874 0
6.2059078 3.3519638 -0.01768142 0
5.4666834 -3.9457288 2.0730405 0
5.1249914 4.4552555 1.9071531 0
6.203804 3.3508313 -0.19626313 0
4.2333136 5.4592319 1.4269521 0
5.075139 4.5153856 1.903451 0
6.1994762 3.3485019 -0.37581533 0
5.8158975 -3.9626093 0.51412153 0
5.8752894 3.6550498 1.3856657 0
6.9804902 0.30971408 -0.98802078 0
-4.7997007 5.1670551 -0.25533926 0
5.6804805 -3.9505594 1.3879097 0
6.1330576 3.3720946 0.90402114 0
4.991581 4.6105428 1.906543 0
-4.7990289 5.1666222 0.28983819 0
-4.8218122 4.5446053 2.4312603 0
6.1614151 3.2974536 -0.9891963 0
5.4543695 4.1298113 1.735158 0
5.5472822 3.9994788 1.7467146 0
5.8451424 3.694953 1.4145269 0
5.5792575 3.9611669 1.7323709 0
4.2573442 5.4234533 1.5108435 0
5.8813372 3.6412313 1.4046364 0
3.7270195 5.9789524 -0.43052906 0
3.850378 5.8739338 0.70638454 0
6.2137313 3.3477504 -0.11683136 0
3.8461051 5.8639483 -0.808272 0
-6.4911146 2.5660222 1.0567894 0
4.587966 5.0662088 1.7663741 0
6.1215467 3.3813946 0.96451247 0
5.7010775 3.8518 1.5816507 0
6.1244287 3.3896105 -0.91792655 0
-4.803957 5.0646553 1.059479 0
5.205245 4.3793721 1.8928752 0
5.1426067 4.4506001 1.8989387 0
4.4798775 5.1626973 1.7717292 0
6.2157588 3.3496993 0.10056341 0
5.8338242 3.7212479 1.4091132 0
4.0722513 5.6318913 1.2539093 0
4.3047609 5.3729773 1.5739143 0
4.1777101 5.511622 1.4307456 0
6.211905 3.3459947 0.3175025 0
4.4368219 5.212914 1.73932 0
6.9832211 0.38536829 -0.9864316 0
6.0180197 3.4933014 1.2135043 0
3.8438697 5.8587246 0.89282274 0
6.0092583 3.5190432 1.1842837 0
4.5493441 5.1208291 1.725698 0
3.7333841 5.9950886 0.14147353 0
6.134316 3.3951161 0.86540043 0
3.8780298 5.8507829 0.79925799 0
6.9848104 -0.38519698 -0.98685992 0
3.7313278 5.9898748 0.33113265 0
4.3358164 5.3428497 1.6033015 0
6.2097816 -3.2226045 -0.98541427 0
5.6794996 -3.9547698 1.4217546 0
3.7098179 6.0056887 0.29952955 0
3.7830677 5.911799 -0.81282997 0
3.7357905 5.9931536 0.22147536 0
3.7940927 5.9386191 0.51984668 0
5.9902411 3.5357382 1.2462666 0
-4.8087401 4.9121575 1.6384435 0
3.7334156 5.9951677 -0.24021578 0
4.8576412 4.7652469 1.9066486 0
4.1194239 5.56006 1.4338212 0
3.8686142 5.820787 1.046561 0
6.11623 3.3850448 1.0402489 0
5.0165639 4.5963764 1.9125299 0
5.5452805 4.0234461 1.7356479 0
3.7327249 5.9887648 0.39313376 0
3.8814876 5.8375902 0.90401757 0
4.8132524 4.8025565 1.9310555 0
6.1997824 3.3486667 -0.55804235 0
4.7138891 4.9109111 1.9057038 0
4.2798171 5.3920007 1.6066241 0
-4.7969942 5.1653109 -0.52969831 0
5.2714586 4.3147969 1.8888497 0
6.2129788 3.2255914 -0.98642445 0
3.7290857 5.9841909 0.52016068 0
3.7924604 5.934648 -0.62188685 0
5.5617261 -3.9500635 1.859875 0
4.4762602 5.1920309 1.7324347 0
4.9515595 4.6684165 1.919379 0
5.9883347 3.5586145 1.2148337 0
5.7052927 3.8446839 1.6346998 0
-4.7969098 5.1652565 0.56151772 0
4.0237598 5.6812115 1.2408712 0
3.7898021 5.9281812 0.70777833 0
3.7367077 6.0035143 -0.049575269 0
4.8841133 4.7378302 1.9257278 0
6.0849886 3.4497151 1.0408235 0
5.8123355 -3.9599745 -0.7427783 0
6.988194 -0.46065831 -0.98573959 0
3.9013572 5.7999516 1.0774851 0
5.7435007 3.8213959 1.5624919 0
5.9262052 3.6036463 1.3885717 0
4.0153689 5.6863461 1.2577043 0
6.2194929 3.3532894 -0.33668828 0
-3.3128943 6.1718225 -0.98718405 0
-4.8153334 4.5890975 2.4076514 0
3.7917509 5.918437 0.8013252 0
5.3350153 4.2472219 1.8842077 0
6.2087016 3.3534675 0.51421535 0
5.8220448 3.7043817 1.5619347 0
5.7608404 3.7725995 1.6308994 0
6.0648355 3.4494426 1.1828914 0
5.7987309 -3.9499104 -0.92591953 0
6.2116952 3.3457925 -0.55602014 0
-6.148016 -3.4553285 0.59357762 0
6.1301756 3.3706183 1.0761282 0
4.402091 5.2632685 1.7393599 0
4.7477121 4.8790908 1.9396753 0
4.1758366 5.5396929 1.4087677 0
3.6719656 6.0521283 -0.051502347 0
4.1531382 5.5125113 1.5745649 0
3.7294199 5.9850383 -0.62639499 0
5.7876606 3.7662716 1.5634694 0
5.9451509 3.579952 1.4042935 0
3.6722951 6.053 0.13979566 0
3.6700206 6.0469828 0.33058822 0
5.8081203 -3.956856 0.86804199 0
6.9970579 0.4598313 -0.98812497 0
-4.8103862 4.7476006 2.1137285 0
4.0337181 5.6767144 1.2865829 0
6.2165437 3.3504541 0.5340097 0
5.6382489 3.9183736 1.7378583 0
6.2647424 3.154351 -0.98407352 0
0.72018719 6.9769163 -0.98563135 0
4.5464706 5.1329222 1.7748971 0
6.2025514 3.3501573 0.69109607 0
5.8710375 -3.9582286 0.2076695 0
6.1984863 3.3479693 -0.74236465 0
5.3997297 4.1822319 1.880507 0
6.9951053 0.5357368 -0.98585927 0
-4.8033028 5.0638943 1.2150793 0
3.6726468 6.0539308 -0.24425852 0
-5.6399765 -3.4723079 2.5163236 0
5.2821951 4.3173656 1.9127312 0
-4.8230839 4.8011308 1.9715223 0
3.7112641 6.0108047 0.55196309 0
-5.8115749 -3.4654846 2.1066294 0
4.4376669 5.2306037 1.7809658 0
5.828392 -3.9718523 0.69199479 0
6.9982405 -0.53548944 -0.98670185 0
3.9495802 5.7419939 1.2908726 0
5.8191547 3.7044952 1.628284 0
3.8794467 5.8348398 1.0731544 0
-6.4953823 2.5678351 1.2099633 0
3.958786 5.7431211 1.2620218 0
5.9815264 3.5309539 1.4171593 0
5.4607506 4.112956 1.8758039 0
4.0683842 5.6241164 1.4404478 0
6.1192851 3.3791573 1.1814971 0
5.9761419 3.551122 1.3913977 0
6.0759416 3.4445064 1.2175176 0
3.8438244 5.8586187 1.0812619 0
-6.1308098 -3.4448946 0.90399969 0
-4.7993393 5.0354838 1.3728015 0
3.6692324 6.0448971 0.5207727 0
4.3831687 5.2802768 1.7845907 0
4.1877232 5.5165944 1.5206327 0
3.7307127 5.9858837 0.73405123 0
-4.7937856 5.1632428 -0.80609965 0
4.6819115 4.9575434 1.9489713 0
3.7401173 5.9993491 0.56313539 0
4.2322326 5.4572744 1.6143849 0
4.1052094 5.5793529 1.5254223 0
-3.2311888 6.2367954 -0.98535359 0
-6.1487389 -3.4557667 0.74885321 0
5.8154488 -3.9779952 -0.81691468 0
5.6956139 3.8483791 1.7516909 0
5.4169245 4.1605411 1.9150131 0
4.8426199 4.7517605 2.0732155 0
5.8022432 -3.962014 0.9831748 0
5.875309 3.6550627 1.56587 0
4.33003 5.3423681 1.7481205 0
7.0001659 0.61096287 -0.98577046 0
5.5222073 4.0451908 1.8717384 0
4.5842609 5.0704927 1.9083724 0
7.0017438 -0.61086112 -0.98619413 0
3.7333684 5.9950485 0.7099241 0
6.9963002 0.68664253 -0.98357606 0
-4.7973943 5.1655688 0.83351469 0
-4.8314457 4.4433994 2.7043259 0
3.7082832 6.0002599 0.80422318 0
5.6344671 3.8986547 1.8609824 0
5.850008 3.6978087 1.5860875 0
3.7925806 5.9349408 0.89723611 0
4.6126089 5.031405 1.9572701 0
4.0224123 5.6795011 1.4096038 0
-5.9614182 -3.4595649 1.7091217 0
5.7323914 3.813421 1.7414138 0
4.1773267 5.5109038 1.6192183 0
4.1171837 5.5557137 1.6219306 0
4.9896746 4.6089277 2.076 0
6.3207121 -3.0871851 -0.98336291 0
4.4344044 5.2103343 1.9078932 0
5.8713942 -3.9584522 0.55658174 0
6.2155375 3.3494871 -0.7801708 0
5.8905468 -3.9704459 0.029468179 0
6.9946985 0.76202196 -0.98228025 0
6.1971154 3.3472311 -0.92955673 0
5.6952028 3.8733258 1.7428141 0
5.8899899 -3.9700973 -0.14745271 0
6.0256572 3.4978456 1.3942752 0
3.7321563 5.9919753 -0.82560945 0
3.6134958 6.1199827 -0.055295944 0
5.8850517 -3.9670048 0.38126326 0
-4.8080263 4.7845984 2.1231709 0
3.6121521 6.1162682 -0.24886096 0
5.6908178 -3.9584379 1.5715303 0
-5.5740132 -3.4749277 2.7170072 0
5.8831635 3.6432574 1.6276484 0
3.8751934 5.8291078 1.2421422 0
3.6780396 6.0681977 -0.44092047 0
6.2225261 3.3562052 0.75132847 0
4.3355188 5.3423448 1.7922854 0
6.2850709 -3.1728046 -0.990412 0
4.5419488 5.1048288 1.9656563 0
-6.4903069 2.5656791 1.3629758 0
3.5818379 6.1407542 0.21812642 0
5.6786308 -3.953687 1.6478572 0
3.7319949 5.9877191 0.90401852 0
4.3123045 5.3815022 1.7440898 0
0.80535579 6.9986386 -0.98742914 0
4.2794237 5.3913121 1.7960863 0
3.6307533 6.110507 0.29813135 0
5.1354408 4.4636054 2.0793233 0
4.0174866 5.6907606 1.4477448 0
6.2131634 3.3558691 0.86980224 0
5.5894871 3.9856889 1.870302 0
6.2950454 3.31656 -0.023126304 0
6.0174165 3.5275905 1.4060974 0
3.6752992 6.0609474 -0.63636971 0
5.5592976 4.0074916 1.9193115 0
6.0710592 3.4416952 1.396378 0
3.6122093 6.116426 -0.44446826 0
3.6166868 6.1288047 0.13708043 0
3.614553 6.1229057 0.32968116 0
5.9168606 -3.9560049 0.088141203 0
5.9319091 3.607265 1.5708756 0
7.0000334 0.83712941 -0.9831332 0
5.9686399 3.5465119 1.5706396 0
7.0088296 -0.76151609 -0.98606908 0
5.7846785 3.7641947 1.7452388 0
3.5477276 6.1705689 0.13622177 0
3.843111 5.8569508 1.2710466 0
6.0670362 3.4516828 1.4029272 0
7.0174952 -0.6855799 -0.98926234 0
4.2591801 5.4281077 1.7584355 0
5.8201566 -3.96576 1.048336 0
6.2927051 3.3153434 0.33619964 0
6.2987385 3.3184803 0.15662432 0
6.3348937 3.0996935 -0.98772848 0
3.6286383 6.1025944 0.55312562 0
3.7342768 5.9973512 0.90039563 0
5.5539551 -3.9400914 2.0868382 0
3.7962732 5.9335995 1.0541468 0
6.1393051 3.3978946 1.2226129 0
6.304873 3.3114417 -0.12043399 0
5.7980247 -3.9569085 1.2072659 0
6.995862 -0.91241145 -0.98172688 0
4.7189074 4.9156837 2.0765679 0
5.1399889 4.4464407 2.1342466 0
3.6706676 6.0486941 -0.83271074 0
6.2137842 3.347801 0.96823764 0
4.0658789 5.6190801 1.6296313 0
6.3008757 3.3195915 -0.20500493 0
5.4826784 -3.9563951 2.2473435 0
7.0071487 -0.83697665 -0.98504019 0
5.9434781 3.5781481 1.6262193 0
3.5851796 6.145844 0.38982558 0
6.1478786 3.3796866 1.2493494 0
6.1170874 3.3769829 1.4001417 0
3.6761386 6.0631685 0.71217394 0
3.9107304 5.8210177 1.2701142 0
3.7932019 5.9364529 1.0876706 0
4.4736576 5.186182 1.9762492 0
5.7061472 3.8457186 1.8619556 0
5.8397446 3.6917849 1.7566078 0
5.9237256 -3.9640744 -0.13874179 0
0.8930372 7.0042024 -0.98574078 0
4.16008 5.5208235 1.7448397 0
-4.8126354 4.7874584 2.1795008 0
4.2944212 5.3612933 1.9103312 0
3.728255 5.9823647 1.0738859 0
5.9861403 3.5334868 1.589566 0
5.8055353 -3.9549439 1.2259812 0
5.8326387 3.7115359 1.7478569 0
4.0337424 5.676785 1.5361974 0
-4.8156881 5.0783019 1.3723702 0
5.933063 -3.9574695 -0.025508106 0
4.8797188 4.7298713 2.1642194 0
5.2695489 4.3119473 2.1229353 0
3.9619746 5.7500196 1.4535689 0
5.9207006 -3.9605186 -0.36588353 0
4.0202446 5.6767473 1.5786612 0
-3.1632943 6.3165059 -0.98773861 0
-6.1495781 -3.4562759 1.0591705 0
3.616024 6.1269727 0.52179432 0
5.9232297 -3.9634917 0.31310022 0
6.0178638 3.4932086 1.5739965 0
5.8851929 -3.9670932 0.73001778 0
5.2092886 4.3855972 2.1305151 0
-4.8084788 4.9119997 1.9140031 0
6.3151865 3.3210771 0.097813129 0
-4.797472 5.0571122 1.5266762 0
4.1717157 5.5003886 1.8077223 0
3.6719651 6.0521274 0.90290213 0
6.310287 3.3164995 -0.34167266 0
5.332962 4.2442513 2.1174989 0
5.0173521 4.597713 2.1517534 0
5.2855806 4.3199153 2.0843441 0
6.2118177 3.355145 1.0487804 0
5.0830536 4.528368 2.1448746 0
5.3928967 4.1726413 2.1110163 0
5.9356503 -3.9593267 -0.20793182 0
3.6141453 6.1217785 -0.64333677 0
6.2989693 3.3186002 0.51532352 0
4.8133755 4.8027873 2.172909 0
4.5799599 5.0661607 2.0775461 0
6.3883843 3.030139 -0.98651278 0
5.6966791 3.8490458 1.9234412 0
6.3890142 -3.0306787 -0.98670435 0
4.4008374 5.2603388 1.9852166 0
4.3221407 5.3231764 1.9915667 0
3.5527277 6.1850357 0.32901847 0
4.9520583 4.6692905 2.1595564 0
5.4160233 4.1599021 2.086134 0
7.003459 -0.98764288 -0.9837625 0
4.2335548 5.4596686 1.8060389 0
6.1265349 3.3907833 1.4008851 0
3.5436687 6.1929727 0.29712009 0
-4.792676 5.2961755 0.014342785 0
5.8190269 3.7043498 1.853981 0
-6.4912615 2.5660846 1.5168424 0
-6.1504517 2.5532649 2.5840328 0
4.744978 4.873786 2.1812439 0
7.0159335 0.9122678 -0.98710513 0
3.5548077 6.1910539 -0.25517064 0
6.0038791 3.5134079 1.6251001 0
3.5887315 6.1512537 0.56123209 0
-6.2116623 2.5555251 2.4326801 0
3.8797932 5.8564019 1.3016207 0
3.7117038 6.0123587 1.0587001 0
-4.790236 5.2945528 -0.26075643 0
7.007513 0.98767191 -0.98484874 0
3.6285872 6.1024036 0.80827737 0
-6.1388712 -3.4497831 1.2139254 0
6.3063335 3.3128064 -0.56330609 0
6.3018436 3.3200946 -0.57298124 0
6.3132677 3.3260345 -0.39008218 0
3.6147659 6.1234941 0.71402359 0
5.7702761 3.7836912 1.8604941 0
3.7336071 5.9956536 1.0916798 0
3.7911973 5.9165797 1.3055029 0
4.1873331 5.5155616 1.7692623 0
5.4567852 4.1075544 2.1069174 0
3.5515704 6.1816874 0.52231956 0
5.9243083 -3.9647596 0.53832877 0
5.9212799 -3.9611995 -0.59553504 0
5.9456768 -3.9665239 0.15460193 0
3.8804014 5.8361263 1.4122753 0
3.5536203 6.1876187 -0.45200509 0
4.6763482 4.9463596 2.1902852 0
-4.7946053 5.2974582 0.28865182 0
3.5423503 6.1877422 0.55418563 0
3.9540405 5.7555232 1.5439751 0
6.1420841 3.3767183 1.4220266 0
5.8873029 3.662915 1.75284 0
3.5590141 6.2032251 -0.060572863 0
6.0572996 3.4417708 1.6223197 0
-4.830452 4.6726041 2.4499693 0
6.3238206 3.3291428 0.31628692 0
6.3139524 3.3199241 0.5348773 0
-4.812902 5.1755633 1.1081133 0
5.9427719 -3.9644387 -0.39303404 0
-3.0816054 6.3812494 -0.98645651 0
5.693769 -3.9606869 1.7565627 0
-5.9402223 -3.452661 1.9964705 0
5.8771935 3.6366341 1.8512123 0
3.5866115 6.1480255 0.73280859 0
4.9904394 4.6095757 2.2473018 0
3.907618 5.8140225 1.460535 0
5.8862095 -3.9677293 0.90402341 0
4.4381466 5.2143269 2.0788894 0
6.3025742 3.3204746 0.6950022 0
4.0181837 5.692214 1.6399689 0
5.5201759 4.0425057 2.1030924 0
-4.8076086 5.0406475 1.648946 0
6.0742459 3.4435301 1.5794368 0
4.1080694 5.5872598 1.7769895 0
6.2984138 3.3183112 -0.7595551 0
4.0122509 5.6665969 1.7471912 0
-4.7882538 5.2932348 0.56261492 0
5.9313021 3.6068799 1.7546163 0
7.0126357 1.0631411 -0.98651075 0
5.9508529 -3.9702394 0.33529615 0
5.1314745 4.4604359 2.2499647 0
3.7938585 5.9380498 1.2798743 0
5.6737356 -3.9475877 1.8754673 0
6.2174382 3.3513138 1.1877382 0
5.633687 3.8976829 2.091177 0
4.1233616 5.5676999 1.817677 0
5.5574541 4.0062618 2.0909781 0
6.4460979 -2.9642725 -0.98688102 0
3.8676064 5.818882 1.5805495 0
3.6720915 6.0524616 1.0954657 0
-4.7932491 5.2965565 -0.53814054 0
3.4922023 6.254632 -0.06296432 0
6.3069077 3.3133423 0.75299311 0
3.491966 6.2539153 0.13301802 0
6.2099977 3.3541651 1.2291076 0
0.97814941 7.0286412 -0.98873985 0
7.0054011 -1.1383611 -0.98514986 0
3.6137018 6.120553 0.90674889 0
5.9333806 3.5672619 1.8481455 0
5.9455695 -3.9664469 0.51599026 0
3.5470629 6.1686454 -0.8490473 0
3.5542018 6.189301 -0.65182626 0
7.0184064 -1.0632651 -0.98805737 0
3.8474588 5.8671117 1.4653161 0
-4.7956161 5.0549526 1.6832852 0
5.9749904 3.5504141 1.756532 0
5.9240708 -3.9644802 0.76384187 0
6.3083816 3.3147194 -0.78862131 0
3.4927077 6.256165 -0.26030624 0
4.1580935 5.518445 1.9145913 0
3.9602618 5.7463145 1.6455717 0
6.9981108 1.2134483 -0.98406184 0
3.488308 6.2428188 0.52297735 0
3.7357347 5.9930735 1.2445467 0
4.8610649 4.7683206 2.2485924 0
3.8724318 5.8329487 1.5516899 0
3.5536227 6.1876254 0.71612382 0
4.6124239 5.0310202 2.2031498 0
5.8032775 -3.9632657 1.4351776 0
5.947238 -3.9676447 -0.58017552 0
5.5858011 3.9809587 2.1007206 0
6.3002625 3.3192725 0.87504065 0
4.0673866 5.6221108 1.8239083 0
3.6196818 6.137085 -0.84776771 0
5.8580742 -3.9501114 1.2507327 0
3.4936247 6.2589464 0.32812607 0
3.7324669 5.992763 1.2842803 0
5.8422842 3.6932755 1.9295902 0
7.0159802 1.1387398 -0.98798633 0
3.5874145 6.1492481 0.90402007 0
6.0173368 3.4928951 1.7582664 0
6.4574723 2.9737401 -0.99029768 0
-4.807497 4.5824795 2.7232351 0
3.492219 6.2546825 -0.45895809 0
6.1257806 3.3903635 1.5837417 0
6.1214647 3.3813136 1.6227989 0
6.994534 1.2886739 -0.98425829 0
4.7226114 4.9192066 2.2487271 0
5.9456005 -3.966469 0.69679308 0
5.9949408 3.5383184 1.7635283 0
6.3002329 3.3071067 0.97127831 0
6.1363573 3.3737848 1.5949707 0
3.6103494 6.1112847 1.0996101 0
-4.7872162 5.2925448 -0.81644678 0
6.3866949 3.280407 -0.21219981 0
3.4888587 6.2444901 -0.65792727 0
3.5442541 6.1952958 0.81187868 0
-6.1475058 -3.4550195 1.3700154 0
3.5505502 6.1787362 0.90970588 0
5.9293399 -3.9706743 -0.83004797 0
3.4583263 6.2900829 0.29582727 0
-6.3046427 -3.4445326 -0.015875578 0
5.8213482 -3.9666414 1.4116836 0
3.9023027 5.8020763 1.6517692 0
-4.7983537 5.1661868 1.3812966 0
5.282114 4.3173046 2.2558577 0
-3.0050678 6.451705 -0.98695886 0
6.5016499 2.8965766 -0.98688471 0
6.3919582 3.2830486 -0.029343128 0
3.43308 6.3010373 0.38637924 0
5.7025204 3.8413289 2.0911145 0
4.0326557 5.6736417 1.7879324 0
3.7116909 6.0123134 1.3140683 0
-6.5001411 2.5698564 1.6724346 0
5.9444919 -3.9656734 -0.76821184 0
1.0652548 7.0387053 -0.98867822 0
5.8923693 -3.9715867 1.0782266 0
5.6966238 3.8490112 2.0961609 0
4.5441689 5.1096325 2.2144151 0
4.259902 5.4299369 2.0090623 0
5.4120865 4.1571102 2.2578173 0
3.6313705 6.1128163 1.0653112 0
6.3048072 3.3216355 -0.95185626 0
3.4274282 6.3151979 -0.26475126 0
-5.8049192 -3.4682744 2.4449461 0
7.0180779 -1.2144493 -0.98941863 0
4.5808334 5.0670414 2.2491188 0
7.0057878 -1.2893996 -0.98728001 0
-4.7927947 5.2962542 0.83706462 0
4.1794696 5.4947586 2.0163331 0
6.2052221 3.3515947 1.4106431 0
3.4403727 6.312871 0.21165919 0
-4.804626 4.9092278 2.1336708 0
6.3974819 3.285821 0.15279448 0
4.470664 5.1794538 2.2233181 0
5.7607241 3.7724626 2.0869942 0
3.430522 6.3250542 -0.06717658 0
6.2136531 3.3476751 1.4078503 0
5.9427404 -3.9644163 0.87795019 0
3.4307873 6.3258996 0.13040876 0
-4.7848234 5.3452387 0.58341968 0
6.5112576 -2.9043438 -0.98973703 0
-6.3132792 -3.4472094 0.27846992 0
-6.3120756 -3.4468365 -0.31213957 0
5.9254403 -3.9660904 0.99037325 0
-4.8225737 4.7581959 2.4343233 0
6.004364 3.5139158 1.8504062 0
4.3088312 5.3775773 2.0844159 0
1.1534288 7.0378499 -0.98637319 0
-4.7932072 5.3555765 0.42176104 0
3.4583459 6.2901654 0.55557418 0
6.402545 3.2794445 0.31586373 0
4.3956599 5.248239 2.2321725 0
3.7945523 5.9397378 1.4743564 0
3.9509239 5.746069 1.7961893 0
3.5880554 6.1502242 1.0752928 0
3.953557 5.7318072 1.8372197 0
3.4928207 6.2565079 0.71852493 0
7.0020556 1.3648114 -0.9877274 0
3.7923636 5.9204912 1.5612373 0
6.0745139 3.4436843 1.7648277 0
3.4280882 6.3172998 -0.46528804 0
4.0173359 5.6904469 1.8344741 0
-2.9194388 6.5114655 -0.98502183 0
6.989192 1.4394348 -0.98600817 0
3.4307818 6.325882 0.3273499 0
-6.30194 -3.4436948 0.57272279 0
7.005702 -1.3650991 -0.98870742 0
3.4892704 6.2457385 -0.86164272 0
6.4059167 3.2825053 -0.34748256 0
6.4037075 3.2889457 0.33468378 0
3.7391021 5.9978957 1.4156847 0
6.4132252 3.28914 -0.12608558 0
6.3087711 3.3236966 1.0574975 0
5.8102393 -3.9584239 1.5935762 0
6.9792809 -1.5142071 -0.9853698 0
6.5576024 2.8291721 -0.98729205 0
4.439764 5.2160521 2.2508698 0
6.4148688 3.290632 0.09505105 0
6.1165595 3.3852284 1.7669129 0
6.4043202 3.289253 -0.40027452 0
3.4401946 6.3125825 0.55860698 0
3.6776447 6.0671525 1.2921433 0
3.3625922 6.3794003 -0.069983959 0
3.8483534 5.8692021 1.6609912 0
3.455503 6.278163 0.81499302 0
4.0179815 5.6738744 1.9191566 0
-4.8072848 4.9112778 2.1930561 0
6.5611033 -2.8319204 -0.98831964 0
3.363174 6.381351 0.12866688 0
6.4275866 3.27741 0.013402581 0
-4.787015 5.3479404 0.74371898 0
6.9527559 -1.6627061 -0.98314345 0
7.0014572 -1.4405792 -0.98930895 0
5.8001995 -3.9595411 1.6636612 0
6.9870715 1.5150466 -0.98746932 0
3.8769052 5.8314147 1.7528906 0
-6.1505442 -3.4568615 1.5264745 0
6.133379 3.3722589 1.7687294 0
3.5448232 6.1975536 1.0705838 0
-6.3139572 -3.4474199 -0.61005092 0
1.2407815 7.0436931 -0.9859153 0
3.4321899 6.330368 0.52413213 0
6.4304543 3.2787769 -0.16730964 0
3.6282747 6.1012349 1.3218801 0
5.8290787 3.7158287 2.0874734 0
3.5537534 6.188004 1.1061742 0
3.4921911 6.2545977 0.914361 0
6.4026318 3.2884057 -0.58762562 0
3.7355475 6.0005732 1.481041 0
6.4070206 3.2835076 -0.57189351 0
5.8405704 3.6922698 2.1030357 0
3.3661578 6.3663068 0.55650997 0
-4.8038535 5.0383029 1.9260917 0
6.295773 3.3169382 1.238359 0
-4.8146653 4.7886467 2.4618185 0
5.5641193 4.0107069 2.2657871 0
3.4387591 6.3102531 0.73147142 0
6.4091811 3.2916927 0.51682305 0
3.3647346 6.3865852 -0.27088028 0
4.1074066 5.5854273 2.0301955 0
4.2912645 5.3577266 2.2517633 0
6.9777431 1.5899501 -0.98727918 0
6.0693088 3.4539969 1.8508985 0
6.9611402 1.6638533 -0.98541105 0
6.3966112 3.2740581 0.75505662 0
