# .PCD v0.7 - Point Cloud Data file format
VERSION 0.7
FIELDS x y z intensity
SIZE 4 4 4 4
TYPE F F F F
COUNT 1 1 1 1
WIDTH 1433
HEIGHT 1
VIEWPOINT 0 0 0 1 0 0 0
POINTS 1433
DATA ascii
13.759886 2.9458923 0.63832176 0
13.762362 2.9463036 -0.64022744 0
13.740334 -3.0527146 0.64645493 0
13.513603 -3.0519001 2.5751338 0
13.743074 -3.0536292 -0.68102562 0
13.763261 2.9464529 1.0642633 0
13.743896 -3.0539038 1.0887003 0
13.426495 2.948004 3.2691178 0
-4.8529477 13.100739 2.1232901 0
-4.8592496 13.070988 2.3285928 0
-13.503742 -2.4827437 3.404377 0
13.755598 2.9451802 1.4910274 0
13.349545 -3.0488505 3.5859942 0
13.522511 -3.0538471 2.9146178 0
13.74971 -3.0558431 1.5330377 0
-12.998658 3.5071788 4.434803 0
13.762389 2.9463081 1.9216619 0
-4.8683062 12.584208 4.461772 0
-4.8692012 12.725555 4.0443997 0
13.7474 -3.0550725 1.979476 0
-13.781636 3.5210409 0.26187849 0
13.511061 -3.0513444 3.2533312 0
-4.8608627 13.115319 2.618113 0
-13.78927 3.5230575 -0.060707211 0
-4.8604965 13.073636 2.8807766 0
-13.789484 3.5231137 0.58302617 0
13.434346 2.9506238 3.7280321 0
-13.782071 3.5211561 0.90420365 0
13.76018 2.9459412 2.3550429 0
-13.788775 3.5229266 1.2253649 0
13.980968 2.939266 -0.24725348 0
-13.50733 -2.4831042 3.9643488 0
13.989267 2.9419034 0.20141244 0
13.753595 -3.0571396 2.4310088 0
-4.8515339 13.098135 3.1125798 0
13.989959 2.9421229 0.6500001 0
13.989255 2.9418993 -0.69847786 0
13.515528 -3.0523207 3.5971694 0
13.977888 2.9382868 1.098484 0
-13.803536 3.5268252 1.5475864 0
13.762385 2.9463077 2.7939575 0
-4.8583474 13.069072 3.4377589 0
-13.797378 3.5251987 1.8697057 0
-4.8487639 13.518778 0.17796707 0
-4.849431 13.520049 -0.31817853 0
13.740277 -3.052696 2.8840244 0
13.987951 2.9414852 1.549758 0
-4.847456 13.516284 -0.81574631 0
-4.852746 13.52637 0.67358255 0
-13.790366 3.5233467 2.1924963 0
-4.8515668 13.524121 1.1698194 0
-4.849525 13.586546 0.14708674 0
13.98987 2.9420948 2.0034885 0
-4.8485827 13.584468 0.70427322 0
-13.77921 3.5204003 2.5158541 0
-13.492579 -2.4816215 4.528738 0
13.768166 2.9472675 3.2398648 0
-4.861599 13.116675 3.6218147 0
-4.8504066 13.52191 1.667702 0
-13.427955 3.5154741 4.0768471 0
-14.402603 -0.95004284 -0.9868902 0
13.745599 -3.0544717 3.3467808 0
-14.397247 -1.1810714 -0.98656642 0
-4.8503785 13.588428 1.2623274 0
-14.402945 1.1811529 -0.98706484 0
13.973602 2.9369247 2.4582453 0
-14.38859 1.4119467 -0.98624265 0
-14.390062 -1.4119889 -0.98637164 0
-4.8588929 13.07023 4.0034599 0
-14.384777 -1.6429715 -0.98663259 0
-14.361311 -1.8730451 -0.98558998 0
-14.389769 1.643186 -0.98706961 0
-13.793801 3.5242541 2.8441825 0
-14.338549 -2.1028745 -0.9848969 0
-4.8445926 13.57567 1.8211265 0
-4.8507051 13.522479 2.1688466 0
-14.380791 1.8741616 -0.98729706 0
-14.322271 2.3330824 -0.98506117 0
-14.358528 2.1043069 -0.98664927 0
13.758912 2.9457307 3.6893501 0
-14.348959 -2.3353798 -0.98740447 0
-13.781197 3.520925 3.1707473 0
-4.855516 13.105471 4.1317444 0
-14.316704 2.5644681 -0.98645675 0
13.977179 2.9380612 2.9209092 0
-14.29121 2.7940695 -0.98639143 0
13.751868 -3.0565631 3.8177223 0
-4.8468385 13.515107 2.6729321 0
-14.260443 3.0230141 -0.98615026 0
-4.8433027 13.790012 0.23002803 0
-4.8495674 13.586639 2.3855674 0
-4.8475208 13.803253 -0.10895538 0
-4.8462505 13.799265 0.56708229 0
-14.238955 3.2532637 -0.98701835 0
-13.42792 3.5154641 4.6632681 0
-14.196449 3.4805124 -0.98631811 0
-13.783892 3.5216367 3.5021935 0
-4.8491344 13.808319 0.9042238 0
-4.8550806 13.062134 4.5757055 0
-4.8460436 13.798615 1.2413492 0
13.988925 2.9417946 3.3921404 0
-4.8447609 13.794589 1.578644 0
-4.8506832 13.522437 3.1852674 0
14.393756 -3.0704553 -0.26995295 0
14.382583 -3.0669043 -0.73458564 0
14.400662 -3.0726502 0.19387758 0
14.396357 -3.0712817 0.65744352 0
-4.8430014 13.789066 1.9163647 0
14.377391 -3.0652544 1.1204529 0
-4.8586679 13.606705 2.9572966 0
-13.951013 -2.472172 4.1341724 0
13.956288 2.9314222 3.8594203 0
-4.8389091 13.94895 0.68002868 0
-4.8479156 13.966737 0.17102325 0
-4.8377314 13.946625 -0.84882379 0
-4.8478403 13.966588 -0.33894265 0
-4.8464203 13.799797 2.2565105 0
-14.592178 -2.4588356 0.23554873 0
14.391644 -3.0697839 1.5868173 0
-14.593491 -2.4590638 0.57003427 0
-14.605492 -2.4611502 -0.10063839 0
-4.8467541 13.514945 3.7013235 0
-4.8460069 13.962967 1.1901298 0
-4.8413544 13.783895 2.5953956 0
-14.606695 -2.4613595 0.90422022 0
-4.8506408 13.589006 3.5288725 0
-14.598154 -2.4598744 1.2385163 0
14.571582 2.9257245 0.19178712 0
14.541051 -3.0756409 0.19925606 0
14.541378 -3.0756953 -0.25420153 0
14.529683 -3.0737529 0.65194273 0
-4.8407874 13.95266 1.7008157 0
14.57418 2.9265091 -0.2767514 0
14.40124 -3.0728338 2.0564878 0
14.543708 -3.0760822 -0.70952272 0
-14.597733 -2.4598012 1.5731554 0
14.524487 -3.0728898 1.1047041 0
14.578655 2.9278615 -0.74736965 0
14.586325 2.9301786 0.65988159 0
14.579515 2.9281213 1.1284435 0
-4.8479223 13.804513 2.9407399 0
-14.596947 -2.4596646 1.9084759 0
-4.8382831 13.947714 2.2145598 0
14.553644 2.9203048 1.5964837 0
-4.8301902 14.113397 0.71257818 0
14.395459 -3.0709965 2.5283539 0
-4.8372827 14.129649 0.13851213 0
14.534495 -3.0745521 1.5601056 0
-13.972866 -2.4769371 4.7358036 0
-14.598282 -2.4598968 2.2450542 0
-4.8497248 13.52061 4.2291527 0
-4.8423643 13.787067 3.282795 0
14.529987 -3.0738034 2.0172024 0
-14.562679 3.5386527 -0.4395659 0
-14.570169 3.5398417 0.13738 0
-4.8390961 14.133804 1.2882013 0
-4.8499384 13.587458 4.1109886 0
14.385303 -3.0677688 3.0041504 0
-14.590792 -2.4585946 2.5821154 0
14.587411 2.9305067 2.0731487 0
-4.8444057 13.959805 2.7353642 0
-14.588789 3.5427976 0.71434903 0
-4.8375745 14.130319 1.8652127 0
14.528122 -3.0734935 2.4783394 0
-14.576605 3.5408633 1.2917047 0
14.778906 2.9238718 0.19557095 0
-4.8465824 13.800308 3.6326914 0
14.567951 2.9246273 2.5475864 0
14.78768 2.9252005 -0.26571369 0
14.782044 2.9243472 0.65588439 0
14.764398 2.921675 1.1158795 0
14.792821 2.9259789 -0.72898924 0
-14.606153 -2.4612653 2.9239225 0
-14.563913 3.5388486 1.8702695 0
14.392261 -3.0699804 3.4898472 0
-4.8374767 14.130094 2.445931 0
-4.8454533 13.961874 3.2607298 0
14.526658 -3.0732503 2.9445522 0
14.554814 2.9206583 3.0271578 0
-14.59096 -2.4586236 3.2636032 0
14.789151 2.9254231 1.5800643 0
-4.8513341 13.590535 4.7038078 0
-4.8272414 14.400147 0.16441035 0
-14.566298 3.539227 2.4533544 0
-4.8315601 14.408989 -0.35932207 0
-4.8310809 14.408007 0.68714225 0
14.791765 2.9258192 2.0460989 0
-4.8303361 14.406483 -0.88455868 0
14.524346 -3.0728664 3.4168348 0
-4.8273592 14.40039 1.2102203 0
14.386885 -3.0682714 3.980485 0
-14.604605 -2.4609962 3.6106892 0
-4.840754 13.952594 3.790503 0
-4.8451042 14.147572 3.0346923 0
14.776893 2.9235671 2.5135312 0
14.57738 2.9274762 3.5209298 0
15.000239 2.9151423 0.53824687 0
15.010944 2.9171619 0.17133117 0
-4.8328223 14.411572 1.736454 0
15.017627 2.9184229 -0.19660223 0
-14.575081 3.5406215 3.0426564 0
15.00297 2.9156573 0.90425897 0
15.022165 2.9192791 -0.56584859 0
15.004505 2.9159472 -0.93427849 0
14.995629 2.9142725 1.2701621 0
14.997289 2.9145856 1.6365414 0
-4.8321142 14.410123 2.2650585 0
14.786635 2.9250424 2.9899459 0
-14.332382 3.5326946 4.2786713 0
-4.8396153 14.134995 3.6249681 0
14.551708 -3.0774112 3.9046888 0
-4.8422651 13.955578 4.3318386 0
14.571692 2.9257576 4.0164795 0
15.093643 -3.0834525 -0.30519068 0
15.098693 -3.0849783 0.18217564 0
15.000952 2.9152768 2.0039382 0
15.099395 -3.0851901 0.66923702 0
15.094591 -3.083739 -0.79452312 0
-14.580992 3.5415599 3.6385727 0
15.086159 -3.0811913 1.1561809 0
-4.8285713 14.40287 2.7970798 0
14.782669 2.9244416 3.4703641 0
15.003313 2.9157224 2.3725839 0
-4.8259091 14.711295 0.12925601 0
15.206079 2.908041 -0.3082478 0
15.091653 -3.0828512 1.6456547 0
-4.8299088 14.720832 0.72232437 0
15.23479 2.9162686 0.1807282 0
15.217003 2.9111712 -0.80053425 0
15.225685 2.9136596 0.67050648 0
15.004495 2.9159451 2.7428074 0
-4.8410702 14.138328 4.2263546 0
15.2141 2.9103396 1.160085 0
-4.8258944 14.711261 1.315753 0
15.091959 -3.0829437 2.1378651 0
-4.832417 14.410743 3.3377237 0
-14.348764 3.5372627 4.9020748 0
14.782361 2.9243951 3.959301 0
-14.568945 3.5396473 4.2388573 0
15.224223 2.9132404 1.6525912 0
-4.8259768 14.711457 1.9115582 0
15.017094 2.9183223 3.1167421 0
15.099066 -3.0850909 2.635462 0
15.224725 2.9133842 2.147625 0
-4.8208637 14.889473 -0.38178432 0
-4.8243785 14.896937 0.15661323 0
-4.8240604 14.896261 0.69477367 0
-4.8196111 14.886814 -0.92204356 0
15.009091 2.9168124 3.4902844 0
-4.8253527 14.70997 2.5108056 0
-4.8176036 14.88255 1.2327833 0
-4.8343801 14.414762 3.8853836 0
-4.8380885 14.131496 4.8348007 0
15.092885 -3.0832236 3.1364174 0
15.222522 2.9127529 2.646513 0
-4.8170099 14.881289 1.7729092 0
15.721782 0.23200271 -0.98643398 0
15.642524 -1.6214023 -0.98649871 0
15.712064 -0.69597191 -0.98685431 0
-15.568703 -2.4403865 0.12239885 0
15.687516 -1.1594652 -0.98709667 0
15.524972 -2.5419319 -0.98672593 0
15.730998 -0.23213491 -0.98751116 0
-15.567314 -2.4402671 -0.48487043 0
15.597503 2.0834248 -0.98745501 0
15.448119 -2.9996479 -0.98703992 0
15.721276 0.69636863 -0.98793209 0
15.653083 1.622466 -0.98773897 0
15.69439 1.1599591 -0.98790216 0
15.532554 2.543138 -0.9876231 0
-14.581669 3.5416675 4.8547611 0
-15.567713 -2.4403014 0.72898376 0
15.012552 2.9174654 3.8685141 0
15.606956 -2.0846517 -0.9885689 0
-4.8245444 14.708042 3.1150255 0
-15.555029 -2.4392095 1.3356242 0
-4.8176756 14.882704 2.3166111 0
15.090364 -3.0824621 3.6446486 0
-4.8298936 14.405578 4.438324 0
15.235135 2.9163675 3.1537857 0
-15.016619 -2.45401 4.3740501 0
-15.56432 -2.4400094 1.945528 0
-4.8197227 14.887051 2.8656185 0
15.21734 2.911268 3.6616111 0
-4.8269315 14.713734 3.7274251 0
-4.8139515 15.191578 0.16796947 0
-4.8136425 15.190501 0.53634071 0
-4.81705 15.202365 -0.20195961 0
-4.8110065 15.181324 0.90426099 0
15.093053 -3.0832741 4.1624136 0
-15.568052 -2.4403307 2.5591383 0
-4.8146086 15.193864 1.2722638 0
-15.007656 -2.4521894 5.005765 0
-4.8124113 15.186216 1.640295 0
-4.8224344 14.892809 3.4213734 0
-4.8096056 15.176448 2.0086007 0
-15.557863 -2.4394536 3.1760826 0
-4.8212037 14.700079 4.3437862 0
-4.8134208 15.330935 0.11933506 0
15.237744 2.9171152 4.1870356 0
-4.8140178 15.332419 0.73209274 0
-15.696299 3.5621848 0.5397799 0
-4.812252 15.185661 2.3794785 0
-4.8066454 15.314113 1.3445916 0
-15.710075 3.5654035 -0.19174445 0
-15.717039 3.5670304 0.17391658 0
-15.704361 3.5640686 0.9042573 0
-4.8100667 15.399546 -0.4058128 0
-4.8137131 15.407585 0.1486001 0
-4.8082762 15.395597 0.70256996 0
-4.8214216 14.890658 3.9831543 0
-15.707392 3.5647764 1.2690001 0
-4.8127384 15.187355 2.7515049 0
-4.8057704 15.390073 1.2566676 0
-4.8143587 15.409008 -0.9633224 0
-15.693865 3.5616162 1.6334915 0
15.862015 -3.0960143 0.68206072 0
15.876658 -3.1002109 0.16907334 0
15.876375 -3.1001298 -0.34479046 0
-4.8110991 15.325171 1.9607253 0
15.921081 2.8942406 0.16929209 0
15.932585 2.8973603 -0.34477377 0
-15.557676 -2.4394374 3.8011227 0
15.879926 -3.1011469 -0.8608669 0
15.925903 2.8955486 -0.85991025 0
15.934774 2.897954 0.6823554 0
-15.689304 3.5605505 1.9987712 0
15.873466 -3.0992959 1.1960318 0
-4.8113079 15.182373 3.1246681 0
-4.8089972 15.397186 1.8135867 0
15.934052 2.8977578 1.1962533 0
15.979609 2.8976946 -0.32733715 0
15.987517 2.8987768 0.17475224 0
-4.8246918 14.708393 4.9755077 0
15.979271 2.8976483 -0.83137774 0
-4.8088117 15.319491 2.5792546 0
15.992887 2.8995113 0.67674232 0
-15.701694 3.5634453 2.3666506 0
15.977042 -3.1052971 0.17441893 0
15.887307 -3.1032622 1.7129385 0
15.93312 2.897505 1.7119641 0
15.982885 -3.1061816 -0.32906568 0
15.97631 -3.105186 0.67696798 0
15.989462 2.8990426 1.1792583 0
15.977745 -3.1054034 -0.83383822 0
-4.8241067 14.89636 4.5562248 0
15.996964 -3.1032038 -0.65844226 0
15.968663 -3.1040282 1.1797118 0
-4.8131771 15.18888 3.5020046 0
16.008904 -3.1054568 0.51438105 0
16.018078 -3.1071873 -0.2677772 0
16.021767 -3.1078837 0.12344229 0
-4.8197832 15.420969 2.3767138 0
15.879255 -3.1009548 2.231226 0
-15.703253 3.5638096 2.7354259 0
16.012974 -3.1062245 0.90428829 0
15.92826 2.8961875 2.2302687 0
15.961472 -3.1029391 1.6837983 0
16.000275 2.9005222 1.6846323 0
16.009628 -3.1055934 1.2942131 0
-15.55883 -2.4395368 4.4350042 0
-4.8110809 15.325126 3.2046137 0
15.858795 -3.0950916 2.7513452 0
-4.8071275 15.393064 2.9375331 0
16.013977 -3.1064134 1.6847672 0
-4.8133364 15.189437 3.8813915 0
15.99419 2.8996897 2.1917744 0
-15.706259 3.564512 3.1064978 0
-15.370914 3.559324 4.511694 0
16.003258 -3.1043913 2.0753036 0
15.992018 -3.1075644 2.1951511 0
15.945997 2.9009969 2.756392 0
15.981771 2.8979905 2.7018406 0
-15.699709 3.5629814 3.4785376 0
15.998958 -3.1035798 2.4672155 0
15.971946 -3.1045253 2.7049665 0
-4.725132 15.772655 -0.98921716 0
-4.8110366 15.401684 3.5102348 0
-4.5097613 15.857596 -0.98863673 0
15.890854 -3.1042788 3.2863741 0
-4.8162904 15.338061 3.8388853 0
15.943338 2.9002759 3.2855501 0
-4.2952957 15.944403 -0.98852718 0
16.006062 -3.1049204 2.8619885 0
-15.569067 -2.440418 5.0817127 0
-15.719524 3.5676112 3.8582234 0
-4.081984 16.034231 -0.98899031 0
15.967602 -3.1038675 3.2221189 0
16.006533 2.9013782 3.2239947 0
-3.860559 16.102694 -0.9877435 0
-15.359024 3.5561907 5.1646729 0
15.856915 -3.0945528 3.8152118 0
-3.6449265 16.186455 -0.98821759 0
15.918599 2.8935678 3.8164663 0
16.018593 -3.107285 3.2600303 0
-4.7954454 15.933779 0.14033794 0
-4.8094535 15.398192 4.0883598 0
-4.7932062 15.928648 0.7109642 0
-4.800581 15.945547 -0.43175495 0
-3.2033157 16.324114 -0.98726928 0
-3.4320302 16.278952 -0.98978186 0
15.991019 2.8992558 3.7456589 0
-4.8133001 15.330636 4.4777393 0
15.961226 -3.1029022 3.7455568 0
-4.7970896 15.985923 0.10880399 0
-4.7973075 15.938045 1.2827258 0
15.995458 -3.1029193 3.655314 0
-2.9878845 16.410032 -0.98879683 0
-4.7989664 15.990783 0.74268687 0
-2.763206 16.466076 -0.98787785 0
-4.7965117 15.936221 1.8562305 0
-4.7983403 15.989161 1.3773429 0
15.874437 -3.0995743 4.3645039 0
-2.5437818 16.54027 -0.98890185 0
15.945477 2.9008558 4.3685379 0
-4.7908049 15.969649 2.0125268 0
-4.808568 15.396241 4.6760654 0
-2.3224883 16.608788 -0.98969328 0
16.012787 -3.106189 4.0602932 0
-4.7924757 15.926973 2.4321163 0
15.995096 2.8998134 4.2799978 0
15.960469 -3.1027873 4.2785721 0
-2.0954766 16.655201 -0.98877692 0
-1.8659122 16.689354 -0.9870553 0
-1.6422496 16.748583 -0.98787713 0
-4.8132458 15.330501 5.12852 0
-16.486792 3.5772061 -0.53957272 0
-1.4166598 16.799767 -0.9882648 0
-16.514601 3.5812137 0.10371339 0
-4.7912707 15.924212 3.0133748 0
-4.79986 15.993096 2.6557927 0
-16.513906 3.5811136 0.74767423 0
-1.1916478 16.855038 -0.98930299 0
-0.96196008 16.885082 -0.98838603 0
16.710342 2.8791571 -0.38394696 0
16.714506 2.8802226 0.15596187 0
-16.521578 3.5822191 1.3928144 0
-0.73475194 16.929466 -0.98903203 0
16.719601 2.881526 0.69552982 0
16.712543 2.87972 -0.92610967 0
16.710449 2.8791845 1.2353525 0
-0.5062983 16.966846 -0.98934555 0
-0.27540469 16.986042 -0.98834372 0
-16.192699 -2.4263325 4.6392965 0
-4.7997446 15.992799 3.30233 0
-16.519943 3.5819836 2.04004 0
16.73074 -3.1137779 0.69675064 0
16.74387 -3.1173375 -0.38882649 0
-4.8000655 15.944365 3.6057472 0
-0.046673775 17.022123 -0.98912096 0
16.76223 -3.1223166 0.15407968 0
16.74987 -3.1189649 -0.93460071 0
16.730171 2.8842299 1.7791014 0
0.1839174 17.042137 -0.98877299 0
16.73917 -3.1160634 1.2399712 0
0.41408026 17.066534 -0.9891001 0
-16.508394 3.5803192 2.689887 0
16.71526 2.8804154 2.32322 0
0.64421523 17.093616 -0.98995137 0
16.753998 -3.120084 1.786375 0
0.87612081 17.093815 -0.98873532 0
-4.797513 15.938517 4.2012129 0
-4.805192 16.006901 3.9590378 0
16.7356 -3.1150959 2.3329768 0
16.709488 2.8789387 2.8724389 0
-4.7894039 16.524267 0.13090336 0
-16.184017 -2.4246981 5.3136978 0
-4.7842894 16.512075 0.72026575 0
-4.7890925 16.523525 -0.45936692 0
-16.527121 3.5830178 3.3493571 0
-4.7878895 16.520657 1.3106036 0
16.745819 -3.1178663 2.8876452 0
-17.107185 -2.4060714 -0.27276993 0
-17.117847 -2.4076116 0.11979079 0
-17.110834 -2.4065988 0.51241779 0
-4.7867565 16.517956 1.9026871 0
-17.120378 -2.4079771 0.90429091 0
16.727211 2.8834727 3.4320626 0
-17.112642 -2.4068596 1.2962065 0
-4.8008771 15.946224 4.8098717 0
-4.8048577 16.006037 4.6220798 0
-17.116571 -2.4074273 1.6887329 0
16.738876 -3.1159842 3.4457712 0
-4.7855573 16.515097 2.4981732 0
-4.7857003 16.704206 0.097146153 0
-16.522982 3.5824213 4.0130005 0
-4.7827339 16.696186 0.7541045 0
-17.12224 -2.408246 2.0824199 0
-4.7845383 16.701065 1.4119873 0
16.722168 2.8821828 3.9951973 0
-17.107103 -2.40606 2.4756954 0
-4.7843304 16.512173 3.0985594 0
16.73909 -3.1160414 4.0127306 0
-4.7895012 16.714483 2.0734434 0
-4.7982554 15.988942 5.291173 0
-4.7750359 16.865097 0.093254328 0
-17.124142 -2.4085209 2.8737724 0
-16.511917 3.580827 4.6838055 0
-4.7765131 16.870857 -0.3137877 0
-4.7780085 16.876686 0.49872196 0
-16.517502 3.5829575 4.7695036 0
-4.7780905 16.877007 0.90430748 0
16.725231 2.8829665 4.5693607 0
-4.7817888 16.69363 2.7354689 0
-17.112669 -2.4068637 3.2707758 0
-4.7883301 16.521708 3.7080269 0
-4.780509 16.886436 1.310128 0
-4.7806339 16.886923 1.7164123 0
16.739355 -3.1161139 4.5889378 0
-17.104868 -2.4057367 3.670455 0
17.430534 2.8679068 0.14984155 0
17.426987 2.8674729 0.70149601 0
17.437984 2.8688178 -0.40294164 0
-4.7813959 16.889894 2.1237822 0
17.390255 -3.0531065 -0.98731136 0
17.444221 -2.8283443 -0.98715639 0
-4.7835493 16.698391 3.405962 0
17.448063 2.87005 -0.95850873 0
17.488708 -2.6014469 -0.98644054 0
17.456509 2.831301 -0.98826206 0
17.434383 2.8683774 1.2541513 0
-4.7782345 16.877567 2.5311491 0
17.502544 2.604568 -0.98768163 0
-4.7872052 16.519026 4.323494 0
17.550732 -2.3784332 -0.98758566 0
17.553312 2.3789768 -0.98781645 0
17.589211 2.150383 -0.98691368 0
-16.530926 3.5835662 5.3728695 0
-17.113993 -2.4070549 4.0760598 0
-16.512514 3.5817196 5.4658079 0
17.435696 2.8685379 1.8088183 0
17.632006 1.9232886 -0.98691773 0
17.606194 -2.1537056 -0.98842752 0
17.634056 -1.9236596 -0.98710012 0
17.537544 2.8621716 0.055871248 0
17.536766 2.8620477 -0.36945367 0
17.665958 -1.6946762 -0.98642623 0
17.549397 2.8640578 0.48005116 0
17.682407 1.6974082 -0.987885 0
-4.7769079 17.140272 0.12104106 0
-4.7750478 17.135654 -0.48875892 0
-4.7808695 16.887842 2.9424262 0
-4.772594 17.12956 0.73015726 0
17.710356 -1.4677598 -0.98714983 0
17.552444 2.8645427 0.90433037 0
17.562874 2.8662021 -0.79866958 0
17.726402 1.4701898 -0.98856974 0
17.74601 1.2393608 -0.98738706 0
17.75058 -1.2399862 -0.98779058 0
17.589569 2.8633213 0.14120829 0
17.441467 2.8692434 2.3675294 0
-4.773725 17.13237 1.3399734 0
17.781422 1.0108063 -0.98789084 0
17.601101 2.8660967 -0.42909086 0
17.594242 2.8644462 0.71027553 0
17.784225 -1.0111492 -0.98813808 0
17.565598 2.8666356 1.3289924 0
17.537849 2.8622203 1.7528055 0
17.813103 -0.78163618 -0.98835373 0
17.822037 -0.55014437 -0.98710597 0
-4.788929 16.712936 4.0862975 0
17.818508 0.78221852 -0.98882926 0
17.830929 0.55097371 -0.98788691 0
-4.7805443 16.886574 3.3547678 0
17.840164 0.31973928 -0.98695683 0
17.843296 -0.3199864 -0.98723161 0
17.604647 2.86695 1.2806818 0
17.866798 0.089884698 -0.98784328 0
-4.7752342 17.136118 1.9523258 0
17.56921 2.8584223 1.8498034 0
17.873058 -0.090288341 -0.988392 0
17.874496 0.14125717 -0.98735881 0
-4.7909422 16.527935 4.9521284 0
17.885746 -0.37216073 -0.98747468 0
17.889656 -0.14049721 -0.98868656 0
17.553436 2.8647003 2.1792998 0
17.445726 2.8697643 2.9312186 0
17.894199 0.37185818 -0.98821473 0
17.891636 0.60326469 -0.98741114 0
17.893162 -0.60323197 -0.98754454 0
-4.778965 16.880417 3.7689266 0
17.898052 -0.83439142 -0.98768306 0
17.886097 -1.065523 -0.98663712 0
17.904339 0.83434641 -0.98823321 0
17.906204 1.0656669 -0.98839629 0
-4.7721834 17.128542 2.5672159 0
17.89209 -1.2967451 -0.98745108 0
17.545444 2.8634284 2.6056914 0
17.879208 -1.5276053 -0.98690248 0
17.897369 1.2968584 -0.98791313 0
17.584112 2.8620086 2.4262173 0
17.889038 1.5279571 -0.98776293 0
17.846321 -1.988564 -0.98604822 0
17.856403 1.9892144 -0.98693216 0
17.88353 -1.7591958 -0.98815012 0
17.887566 1.759398 -0.98850346 0
17.838974 2.2196455 -0.98685241 0
17.724419 -3.1385992 -0.43880409 0
-4.7813549 16.692455 4.7684011 0
17.721802 -3.1379297 0.71358669 0
17.817291 -2.4497015 -0.98668885 0
17.735512 -3.1414378 0.13756621 0
17.851288 -2.2206171 -0.98793328 0
17.439318 2.8689806 3.4993906 0
17.795834 -2.6797755 -0.98683417 0
17.765106 -2.9088118 -0.98645294 0
17.836872 2.4515283 -0.98840916 0
17.809158 2.6812112 -0.98800671 0
17.760792 -3.1413832 0.1435113 0
17.720791 -3.1376712 1.2900078 0
-4.7804852 16.886345 4.1883216 0
17.553959 2.8647838 3.0355186 0
17.743767 -3.1390541 -0.98718894 0
17.776554 -3.1435394 -0.42238814 0
-4.7700596 17.123268 3.1872215 0
17.580912 2.8612382 3.0057211 0
17.781948 -3.1442776 0.70826125 0
17.753124 -3.1403341 1.2725487 0
17.718048 -3.1369693 1.8683133 0
-4.7687726 17.464327 0.084769487 0
-4.7658215 17.455984 0.76647592 0
17.549522 2.8640776 3.4662509 0
17.443382 2.8694775 4.0773096 0
17.774448 -3.1432517 1.8412981 0
-4.7660971 17.456762 1.4489024 0
17.581203 2.8613088 3.5921388 0
17.732874 -3.1407626 2.4521914 0
-4.7735786 17.132006 3.8166609 0
-4.7816448 16.693241 5.4661303 0
17.770405 -3.1426983 2.4118972 0
17.558441 2.8654964 3.901825 0
1.2496322 18.174767 -0.37232113 0
1.2501867 18.180695 0.053721189 0
1.24832 18.160732 0.90433073 0
-4.7679958 17.462132 2.134315 0
1.2503189 18.182108 0.47922349 0
1.2495284 18.173655 -0.7999264 0
17.727283 -3.1393321 3.0388336 0
1.2502866 18.181763 1.3294318 0
17.44277 2.8694029 4.6636496 0
17.771782 -3.1428869 2.9879911 0
17.578714 2.8607094 4.1859317 0
-4.7617545 17.444483 2.8213301 0
17.548653 2.8639393 4.3375998 0
1.2499825 18.178511 1.7548416 0
-4.7749963 17.135527 4.4540672 0
17.715889 -3.1364172 3.6304321 0
1.2502254 18.181108 2.1814342 0
17.765068 -3.1419685 3.5690031 0
1.2492968 18.171179 2.6083655 0
-18.246748 -2.3830438 0.07587564 0
-17.564949 -2.3992546 4.9499435 0
-4.7609596 17.792368 0.11055446 0
-18.253632 -2.3835371 -0.62498796 0
-4.761776 17.794481 -0.52062392 0
-18.261656 -2.3841124 0.77578509 0
-4.7622371 17.795677 0.74090719 0
17.582764 2.8616836 4.7909985 0
-4.7720304 17.473539 3.5207949 0
-18.242792 -2.38276 1.4758184 0
1.2495706 18.174107 3.0382018 0
-4.7648544 17.802454 1.3724718 0
17.717537 -3.1368392 4.2323971 0
-4.7719569 17.127979 5.0989056 0
17.759739 -3.1412392 4.1578031 0
-4.7640014 17.800245 2.0060177 0
-18.260405 -2.3840227 2.1802948 0
1.2500389 18.179113 3.4708157 0
-18.211958 3.6159685 0.059946895 0
-18.208778 3.6153209 -0.36316168 0
-18.214876 3.6165621 0.48229647 0
-4.766654 17.458338 4.2210798 0
-4.757843 17.784298 2.6414723 0
-18.221647 3.6179407 0.90432775 0
-17.559525 -2.3983133 5.6751308 0
-18.217348 3.6170654 1.3264179 0
-18.25251 -2.3834567 2.8871861 0
1.2499298 18.177948 3.9054861 0
17.722408 -3.1380851 4.8451586 0
17.764301 -3.1418633 4.7584705 0
-18.229692 3.6195786 1.7495539 0
-4.7590923 17.787533 3.2844572 0
-18.229502 3.61954 2.1733012 0
1.250007 18.178774 4.3438187 0
-18.244843 -2.3829072 3.5996461 0
-18.217684 3.6171339 2.5973139 0
-4.7668023 17.458755 4.9336281 0
18.556334 2.8422561 0.12485695 0
18.555784 2.8421321 -0.47753352 0
18.567797 2.8448417 0.72674811 0
-18.220493 3.6177058 3.0243568 0
-4.7576494 17.783798 3.9333858 0
18.574213 2.8462887 1.3299234 0
-17.815098 3.6089156 5.062171 0
18.559401 2.842948 1.933867 0
-18.211319 3.6158381 3.4521456 0
-4.7523675 18.289618 0.071247458 0
-4.7474923 18.275179 0.77988636 0
-18.251411 -2.383378 4.3222656 0
18.556894 2.8423827 2.5419974 0
-4.7519822 18.288477 1.4898591 0
-4.7669635 17.459213 5.6578007 0
-4.7565475 17.780943 4.5911207 0
-18.2164 3.6168725 3.8846984 0
-4.7494969 18.281116 2.2015095 0
18.563715 2.8439209 3.1566992 0
-18.215427 3.6166747 4.319653 0
-18.246248 -2.3830078 5.0525103 0
-4.7404552 18.481869 -0.55392706 0
-17.821312 3.6103642 5.808569 0
18.825457 -3.160733 0.11901999 0
18.825916 -3.1608436 -0.49511296 0
-4.7465305 18.498295 0.099117279 0
-4.7470317 18.273813 2.9169848 0
-4.7469745 18.499496 0.75230503 0
18.848619 -3.1663072 0.73279583 0
18.824932 -3.1606071 1.3464599 0
18.548191 2.8404193 3.7742772 0
-4.7445693 18.492992 1.4059486 0
-4.7634897 17.79892 5.2653151 0
18.82539 -3.1607172 1.9628422 0
-4.7454195 18.495291 2.062325 0
-4.7474484 18.275049 3.6395087 0
18.823149 -3.1601779 2.5826948 0
18.552408 2.8413706 4.4038496 0
-4.7445536 18.49295 2.7222884 0
-18.25523 -2.3836517 5.7980604 0
-18.954836 3.6310892 -0.66810942 0
-18.96637 3.6325834 0.061190009 0
-18.958324 3.631541 0.79006815 0
-18.949343 3.6303778 1.5192189 0
18.822783 -3.1600893 3.2080288 0
-4.7517591 18.287817 4.3725271 0
-4.7479296 18.502079 3.389698 0
19.204876 2.8316104 0.11914468 0
19.203165 2.8314261 -0.4946233 0
19.210684 2.8322365 0.73235714 0
-18.963064 3.6321549 2.2524128 0
19.185669 2.829541 1.3451011 0
18.560936 2.8432941 5.0451441 0
18.825888 -3.1608369 3.8409872 0
19.19079 2.8300929 1.9609833 0
-4.7461061 18.497149 4.0623007 0
-4.7342882 18.949745 -0.00065475702 0
-18.966637 3.6326177 2.9898131 0
-4.7363033 18.95866 0.45188737 0
-4.7377901 18.965239 -0.45550227 0
-4.735857 18.956688 0.90436482 0
-4.7511582 18.286037 5.1129675 0
-4.7329168 18.943684 1.3564851 0
19.202242 2.8313267 2.5817828 0
18.832754 -3.1624892 4.4837141 0
-4.734601 18.95113 1.8094525 0
-18.963516 3.6322136 3.732748 0
-4.7351952 18.95376 2.2634146 0
-4.7438307 18.490995 4.7434263 0
19.210674 2.8322353 3.2082558 0
-4.7323837 18.941322 2.7175405 0
-4.7323346 19.176216 0.056659102 0
-4.728766 19.165125 0.79453743 0
-4.7459297 18.270552 5.8614359 0
18.834452 -3.1628973 5.1359615 0
19.198132 2.830884 3.8381925 0
-4.7332363 18.945097 3.174994 0
19.528908 -3.1790369 0.4334476 0
-4.7264705 19.157991 1.5327196 0
19.536083 -3.1801786 -0.038340628 0
19.536119 -3.1801844 -0.51098585 0
19.768412 0.87064666 -0.98513246 0
19.535576 -3.1800978 0.90438771 0
-4.7270141 19.24625 0.086955667 0
19.537546 -3.1804111 -0.98530495 0
-18.964989 3.6324043 4.4846258 0
19.781206 -0.87119758 -0.98632777 0
-4.7266912 19.245337 -0.59130847 0
19.525232 -3.178452 1.3752413 0
19.803905 0.29056546 -0.98689115 0
19.640259 -2.60829 -0.98715949 0
19.760937 -1.4521368 -0.98754895 0
19.761417 1.4521712 -0.98759389 0
19.642639 2.6085989 -0.9873836 0
19.634611 2.8172204 -0.5324977 0
19.717569 2.0319836 -0.98816872 0
19.820698 -0.29080638 -0.98845863 0
19.719313 -2.0321591 -0.98833227 0
19.651098 2.8206918 0.10626614 0
-4.7458625 18.49649 5.4384899 0
-4.7350311 19.268919 0.76486397 0
19.646984 2.8198256 0.74506032 0
-4.7363787 18.958992 3.6365843 0
19.534231 -3.1798837 1.8470311 0
-4.7315507 19.17378 2.2751908 0
19.643364 2.8190632 1.3843663 0
-4.7350726 19.269037 1.444026 0
19.528358 -3.1789494 2.3192172 0
19.208624 2.8320143 4.4812012 0
-4.727427 19.247417 2.1236696 0
19.641788 2.8187318 2.0259407 0
-4.7372971 18.963057 4.1002145 0
-4.7327342 19.177458 3.0218124 0
19.534563 -3.1799366 2.7938087 0
-19.137911 -2.3649883 5.3068943 0
-4.7238498 19.237303 2.8073709 0
-18.966379 3.6325843 5.2468662 0
19.633896 2.81707 2.6705418 0
19.5294 -3.1791148 3.2694154 0
-4.7354984 18.955099 4.5652795 0
19.205944 2.8317258 5.131855 0
-4.7329116 19.178009 3.7746153 0
19.651478 2.8207719 3.3242521 0
-4.7331653 19.263643 3.5023327 0
19.534437 -3.1799166 3.748827 0
-18.954414 3.6310346 6.0179873 0
19.5233 -3.1781445 4.2289319 0
-19.143614 -2.3658936 6.0924368 0
19.647799 2.8199971 3.9822717 0
-4.7316532 19.174099 4.5349216 0
-4.7290049 19.251879 4.1991301 0
0.85794985 20.233006 -0.98868763 0
0.27713382 20.265934 -0.98903644 0
-0.3044908 20.282772 -0.98943961 0
-1.4671936 20.243076 -0.98806953 0
-0.88655376 20.286203 -0.99014962 0
20.078939 -3.1917002 0.10326934 0
20.073919 -3.1845562 0.75369787 0
20.082891 -3.1921837 -0.54258722 0
-2.0484123 20.217417 -0.98917925 0
20.09416 -3.189122 0.097339749 0
19.537529 -3.1804085 4.7170382 0
-2.6275902 20.162048 -0.98906708 0
20.093119 -3.193434 0.74837995 0
-3.2040329 20.083717 -0.98835421 0
20.102604 -3.1910264 -0.56063533 0
20.072088 -3.1908629 1.3934166 0
-3.7793303 19.998259 -0.98852539 0
-19.312969 3.6413486 5.4011631 0
-4.3507066 19.889774 -0.98807383 0
20.089832 -3.1881459 1.4113491 0
19.657459 2.8220315 4.6521692 0
-4.7286935 19.250999 4.9072399 0
20.0828 -3.1865594 2.0704951 0
20.086538 -3.1926296 2.0424638 0
-4.7318959 19.174854 5.3064623 0
20.082981 -3.1921945 2.6942809 0
20.097 -3.1897624 2.7358489 0
19.641968 2.8187695 5.3267632 0
20.06102 -3.1895094 3.3485241 0
-19.310011 3.6407034 6.1994877 0
-4.7308979 19.257231 5.6288157 0
20.079975 -3.1859224 3.4028845 0
-4.7126346 20.071936 0.073415518 0
-4.7098384 20.063654 0.77783179 0
-4.7136497 20.074944 -0.6321789 0
-4.7119312 20.069853 1.4832973 0
-4.7323251 19.176186 6.0907631 0
-4.7102132 20.137945 0.040757775 0
-4.7133117 20.148069 0.81082702 0
20.076267 -3.1913738 4.0157771 0
-4.71279 20.072395 2.1914699 0
-4.7089624 20.133858 1.5812416 0
20.0963 -3.1896045 4.0827584 0
-4.7088723 20.133562 2.3547149 0
-20.679071 -2.3318141 0.43036067 0
-20.684284 -2.3324146 -0.044427633 0
-20.681442 -2.3320873 -0.51992404 0
-4.7146788 20.07799 2.9045665 0
-20.678864 -2.33179 0.90439141 0
-20.677948 -2.3316844 1.3783963 0
20.087084 -3.1926963 4.6921997 0
20.086691 -3.1874373 4.7669649 0
-20.690939 -2.3331819 1.8535254 0
-4.7073731 20.128664 3.1323161 0
-20.669165 -2.330672 2.327848 0
-4.7133174 20.073957 3.6226091 0
-20.674244 -2.3312573 2.8052204 0
20.084539 -3.192385 5.3767786 0
20.862865 2.7909043 0.085640907 0
-4.7108345 20.139975 3.9189396 0
-20.67296 -2.3311095 3.284163 0
20.870371 2.7923729 -0.59570765 0
20.092037 -3.1886427 5.4657078 0
-4.7109251 20.066872 4.3477139 0
20.869307 2.792165 0.76587355 0
20.881872 2.7946234 1.4477217 0
-21.130194 -5.4876749e-05 -0.058949172 0
-21.092302 1.2769185 0.027060986 0
-21.123144 0.59333676 -0.059017301 0
-21.119188 0.59322327 -0.54175603 0
-21.105 1.1865546 -0.059361696 0
-21.135962 5.4892054e-05 0.42285228 0
-21.136993 -5.4894794e-05 0.4228282 0
-21.142801 5.4910204e-05 -0.059536159 0
-21.136497 5.4893477e-05 -0.54237115 0
-21.104002 1.1864972 -0.54247999 0
-20.675653 -2.3314199 3.7662225 0
-21.133577 0.59363621 0.42270958 0
-21.124132 0.59336513 0.90440047 0
-21.143818 -0.59393018 -0.059980214 0
-21.134098 5.488711e-05 0.90440047 0
-21.116638 1.1872231 0.42250931 0
-21.10404 1.1864994 0.90440059 0
-21.150339 -5.4930206e-05 -0.54333878 0
-21.109419 1.2771635 -0.7720865 0
-21.146959 -0.59402031 -0.54369831 0
-21.144281 -5.4914133e-05 0.90440083 0
-21.153803 -0.5942167 0.42223918 0
-21.115314 0.59311205 1.3856666 0
-21.095884 1.604013 -0.77174509 0
-21.110249 1.6044244 0.026625156 0
20.884752 2.795187 2.1321027 0
-21.124987 1.2773864 0.82490945 0
-21.153704 -0.5942139 0.9044013 0
-21.09968 1.7817949 -0.54516149 0
-21.103481 1.7821229 0.42182302 0
-21.137556 5.4896285e-05 1.3859868 0
-21.106808 1.6043258 0.82471466 0
-21.114065 1.7830362 -0.061773002 0
-21.151957 -1.189252 0.42168677 0
-21.102434 1.9316058 0.026557088 0
-21.112087 1.1869617 1.3861871 0
-21.170906 -0.95006078 0.025729775 0
-21.091351 1.9311297 -0.77212095 0
-21.140675 -0.59383994 1.3862581 0
-21.100819 1.7818933 0.90440178 0
-21.160702 -0.95006078 -0.77465141 0
-21.162783 -1.1898739 -0.062056124 0
-21.160166 -0.94993919 0.82548261 0
-21.146511 -1.1889392 0.9044019 0
-21.100128 1.2770306 1.6229994 0
-21.156048 -5.4945354e-05 1.3864179 0
-21.164278 -1.277949 0.02580452 0
-21.166279 -0.95006078 0.8255893 0
-21.164112 -1.1899503 -0.54668915 0
-21.102036 1.9315886 0.82483578 0
-21.086313 2.2584901 0.026552439 0
-4.7093849 20.135239 4.7118816 0
-21.126646 0.59343731 1.8679841 0
-21.082176 2.2582531 0.82477522 0
-21.167374 -1.2779932 -0.77512419 0
-21.100391 1.7818563 1.386909 0
21.036547 2.7895682 -0.10488379 0
-21.099926 1.6041288 1.6233568 0
-21.143734 -5.4912682e-05 1.8683839 0
21.03875 2.789854 0.3999939 0
21.02351 2.7878757 0.90442824 0
21.035151 2.789387 -0.6108104 0
-21.093914 2.2589257 -0.77311552 0
-21.146786 5.4920776e-05 1.868526 0
-21.088409 2.3789985 -0.54856324 0
-20.668652 -2.3306129 4.2499695 0
-21.17811 -1.278147 0.82583678 0
-21.098938 2.3802123 -0.063859582 0
-21.095676 2.3798361 0.42061031 0
-21.119448 1.1873845 1.8688402 0
-21.152319 -0.94993925 1.6256118 0
-4.7128725 20.072641 5.0853357 0
-21.165236 -1.605999 -0.77538109 0
-21.091181 2.379318 0.90440321 0
-21.087845 2.5867147 0.026157022 0
-21.08873 1.7808499 1.8693945 0
-21.168814 -1.1902205 1.3875115 0
-21.187378 -1.6066329 0.025278211 0
-21.171339 -1.6061738 0.82584167 0
-21.077225 2.5859535 0.82505703 0
-21.168499 -0.95006078 1.6264601 0
20.87833 2.7939303 2.81972 0
-21.073322 2.3772595 1.3876724 0
-21.102522 1.9316096 1.6241069 0
-21.080809 2.5862103 -0.77353406 0
-21.162663 -0.59447098 1.8696637 0
-21.171602 -1.7880009 -0.55020821 0
-21.124432 -5.4861459e-05 2.3503339 0
-21.176416 -1.7884161 0.42012095 0
-21.126688 5.4867447e-05 2.3504918 0
-21.182539 -1.7889445 -0.064972579 0
-21.17367 -1.9346666 0.025312543 0
-21.065401 2.9135935 0.026098728 0
-21.16873 -1.9344544 -0.77618003 0
-21.134237 0.59365517 2.3516159 0
-21.178524 -1.7885982 0.90440404 0
21.043667 2.7904925 1.4089797 0
-21.098164 1.2770025 2.4242797 0
-21.112669 1.1869951 2.3518944 0
-21.176268 -1.2781205 1.6269903 0
-21.163511 -1.1899158 1.8708973 0
-21.142029 -0.59387881 2.3521614 0
-21.07128 2.9786711 -0.066170037 0
-21.176641 -1.9347943 0.82613933 0
-21.098528 2.2591901 1.6247575 0
-21.073177 2.3772428 1.8714604 0
-21.168671 -2.2632105 0.02511251 0
-21.168245 -1.6060851 1.6269388 0
-21.172827 -1.7881064 1.3886034 0
-21.07741 2.9146273 0.82551146 0
-21.078394 2.9796987 -0.5532763 0
-21.075531 2.5858321 1.6246567 0
-21.099983 1.6041304 2.4250531 0
-21.08613 2.9808161 0.41903114 0
-21.085443 2.915319 -0.77513266 0
-21.080107 2.9799461 0.90440512 0
-21.103937 1.7821623 2.3542695 0
-21.161797 -1.9341564 1.6272163 0
21.043468 2.7904668 1.9140689 0
-21.179792 -2.2638481 -0.77762353 0
-21.093935 1.9312407 2.4255483 0
-21.132074 -5.4881737e-05 2.8354731 0
-21.16235 -0.95006078 2.4296904 0
-21.187456 -2.2642872 0.82661581 0
-21.101763 1.1863685 2.8358221 0
-21.080069 3.2443662 0.025307536 0
-21.167307 -1.1901338 2.3557234 0
-21.069017 3.2432554 -0.77587211 0
-21.06912 2.9139137 1.6256738 0
-21.157608 -1.2778535 2.4294808 0
-21.083458 2.9804304 1.3897171 0
-21.14999 5.4929282e-05 2.8371463 0
-21.142218 0.59388417 2.8372161 0
-21.077593 3.2441175 0.82604897 0
-21.188913 -1.7894946 1.8740816 0
-20.684744 -2.3324678 4.7414846 0
21.033619 2.7891881 2.4195654 0
-21.0921 2.3794239 2.3576353 0
-21.065454 2.9778295 1.8747079 0
20.88101 2.7944548 3.5142694 0
-21.161856 -0.59444785 2.8390512 0
-21.060841 3.5726147 0.025027275 0
-21.102901 2.2594409 2.4277699 0
-21.059824 3.5833352 0.41743362 0
-21.102274 1.7820188 2.8398571 0
-21.185249 -2.2641606 1.6293099 0
-21.152401 -1.1892775 2.8405592 0
-21.175987 -1.6063068 2.4317055 0
-21.061142 3.5726492 -0.77731133 0
-21.080069 2.5861573 2.4276161 0
-21.069809 3.5850711 -0.55933464 0
-21.063311 3.5728989 0.82641602 0
-21.177271 -1.7884899 2.3594196 0
-21.080767 3.5869765 -0.071057022 0
-21.062344 3.5837734 0.90440726 0
-21.075871 3.2439444 1.6276331 0
-21.132559 5.4883025e-05 3.3222456 0
-4.707808 20.130085 5.515213 0
-21.112297 1.2772048 3.2323103 0
-21.12973 0.59352577 3.3229108 0
-21.140177 -5.4903241e-05 3.3231368 0
-21.136312 -0.59371471 3.3236809 0
-21.099783 1.6041247 3.231636 0
-21.113831 1.1870619 3.3240395 0
-21.071512 2.9141197 2.4291263 0
-21.184309 -1.9351237 2.4334624 0
-21.073509 2.9789929 2.3617468 0
-21.093279 2.3795598 2.8446164 0
-4.709825 20.063614 5.831193 0
21.039143 2.7899051 2.9276958 0
-21.076628 3.5862567 1.3917789 0
-21.062574 3.572814 1.6287868 0
-21.144178 -1.2776612 3.2362251 0
-21.167109 -0.95006078 3.2387524 0
-21.102215 1.9315965 3.2333727 0
-21.100874 1.7818979 3.3275137 0
-21.171177 -1.7879642 2.8463163 0
-21.181286 -2.2639334 2.4346387 0
-21.057497 3.5829308 1.8787744 0
-21.08383 2.2583477 3.2331271 0
-21.064714 3.2428229 2.4312057 0
20.853815 2.7891338 4.2108188 0
-21.17082 -1.1903358 3.3307142 0
-21.072453 2.3771591 3.3311853 0
-21.120678 0.59326601 3.8111572 0
-4.6912041 20.948387 -0.67528534 0
-21.078335 2.9796903 2.8504496 0
-21.078838 2.5860691 3.2351055 0
-21.142111 5.4908371e-05 3.8129735 0
-21.176851 -1.6063316 3.2411022 0
-21.146021 -5.4918746e-05 3.8135233 0
-4.6952667 20.961012 0.79262841 0
-21.064392 3.5841296 2.3677709 0
-4.7007461 20.978043 0.058459282 0
-21.123837 1.1876366 3.8151965 0
21.038807 2.7898614 3.4376097 0
-21.061598 3.5727019 2.434027 0
-21.168482 -1.9344437 3.2415171 0
-21.153894 -0.59421939 3.8158293 0
-21.173635 -1.7881763 3.3360534 0
-21.074051 2.9143381 3.237689 0
-4.6932473 20.954737 1.5270348 0
-21.110603 1.2771806 4.045784 0
-21.12079 1.7836164 3.820775 0
-21.102461 1.6042013 4.0456066 0
-21.07736 2.9795494 3.3408241 0
-21.175497 -1.1906043 3.8224716 0
-21.111671 0.5930075 4.3021936 0
-21.061577 3.5836401 2.857769 0
-21.188684 -2.2643576 3.2460227 0
-21.063593 3.2427101 3.2401562 0
-21.082066 2.3782673 3.8237395 0
-21.089643 1.9310563 4.0454302 0
-21.127954 5.4870809e-05 4.3034725 0
-21.165228 -0.94993919 4.0540648 0
-21.166046 -0.95006078 4.0541945 0
-21.141428 -5.4906559e-05 4.3056874 0
-21.161985 -1.787171 3.8265877 0
-21.15797 -1.2778586 4.053287 0
-21.11488 1.1871221 4.3069239 0
-4.6903505 20.945734 2.2634225 0
-21.084967 2.2584128 4.0472865 0
21.041391 2.7901971 3.9507051 0
21.416761 2.7855337 0.080809236 0
21.405109 2.7844465 0.77038634 0
-21.056557 3.5721221 3.2436314 0
-21.157955 -1.6057905 4.0544 0
-21.163759 -0.59450245 4.3107615 0
21.424137 2.7862217 -0.61020172 0
-21.065882 2.9778912 3.8323379 0
-21.109098 1.7826077 4.312993 0
-21.079975 2.5861506 4.0498385 0
-4.7092204 20.134699 6.3339605 0
-21.163288 -1.189903 4.3148961 0
-21.069986 3.5851021 3.3511009 0
20.883348 2.7949121 4.9282856 0
21.413019 2.7851844 1.4610164 0
-21.171286 -1.9345641 4.0583725 0
-21.090284 2.3792148 4.3197498 0
-21.078346 2.9147079 4.0536737 0
-21.132648 -5.4883261e-05 4.8006296 0
-21.130426 0.59354579 4.801816 0
-21.139128 5.4900458e-05 4.8018503 0
-4.6918182 20.950296 3.0054107 0
21.038185 2.7897809 4.4663324 0
-21.140833 -0.59384447 4.8037767 0
-21.182533 -1.788944 4.3251114 0
-21.189796 -2.2644212 4.0639172 0
-21.122303 1.1875485 4.8051023 0
-21.066122 3.2429643 4.0565763 0
-21.108231 1.2771466 4.8680553 0
-4.6871109 21.190006 0.02327466 0
-4.6846189 21.181427 0.82796931 0
-21.063551 3.5839832 3.8454065 0
-21.097261 1.6040525 4.8672886 0
21.423548 2.7861669 2.1549649 0
-21.100384 1.7818557 4.8090081 0
-21.074879 2.9791908 4.3299389 0
-21.044113 3.5706909 4.058672 0
-21.092701 1.9311876 4.8686771 0
-21.158066 -0.94993919 4.8772869 0
-21.166216 -1.1900712 4.8133898 0
-21.167641 -0.95006078 4.8791485 0
-21.157263 -1.2778485 4.8775873 0
-21.08173 2.2582276 4.8697309 0
-4.6857076 21.185175 1.6336939 0
-21.090885 2.3792839 4.8185129 0
-21.160458 -1.6058621 4.8795776 0
21.41465 2.7853365 2.851512 0
21.548141 -3.2201383 0.072427154 0
-21.078186 2.5860224 4.8731441 0
21.542631 -3.2189782 0.77887452 0
21.547388 -3.21998 -0.63494015 0
-21.186991 -1.7893286 4.825386 0
21.044937 2.7906573 4.9876618 0
-21.069063 3.5849416 4.3446465 0
-4.6976695 20.968481 3.7563915 0
20.886032 2.7954373 5.6522036 0
-21.071173 2.9140904 4.8768005 0
21.538765 -3.2181637 1.485878 0
-21.186878 -1.9352341 4.8870001 0
-21.087223 2.9809742 4.8324261 0
-21.173676 -2.2634974 4.8876324 0
-4.6910443 21.203548 2.4439788 0
-21.061319 3.2424815 4.8808231 0
-20.986515 -2.3256741 5.727519 0
-21.114403 0.62276506 5.703372 0
-21.131195 -0.032841623 5.7115812 0
-21.130018 0.29500955 5.708601 0
21.542587 -3.2189686 2.1958852 0
-21.131441 0.36107665 5.7154322 0
-21.117971 0.94993931 5.7036552 0
21.424204 2.7862279 3.556366 0
-21.111618 1.0175724 5.7217054 0
-21.126656 0.68949705 5.7192097 0
-21.054493 3.5824084 4.8441439 0
-21.128336 0.95006067 5.706048 0
-21.092373 1.6039125 5.6999063 0
-21.148752 -0.29447311 5.7129278 0
-21.150358 0.033665001 5.7160091 0
-21.148445 -0.36205119 5.7193642 0
-21.146904 -0.62229979 5.7108765 0
-21.10923 1.3472977 5.7282286 0
-21.121662 1.2773389 5.7050486 0
-21.145193 -0.69082588 5.7235003 0
-21.066204 3.5732315 4.8886557 0
-21.09889 1.6769905 5.7340107 0
-21.151457 -0.94993925 5.7113857 0
-21.094366 1.9312592 5.7030706 0
-4.6936302 20.955927 4.5107908 0
-21.159958 -1.021734 5.7329073 0
-21.169422 -0.95006078 5.7155342 0
-4.6894851 21.198181 3.2575345 0
-21.108217 2.0100214 5.7454786 0
-21.173244 -1.2780774 5.716958 0
-21.097218 2.259115 5.7075186 0
-21.168863 -1.3532925 5.7420654 0
21.547115 -3.2199223 2.9106061 0
-21.087326 2.3402023 5.7510338 0
-21.168795 -1.6061008 5.717557 0
-21.086287 2.5866032 5.7098665 0
-21.170233 -1.6851952 5.7505894 0
-21.078915 2.67313 5.7606211 0
-21.176844 -1.934803 5.7221289 0
21.43313 2.7870607 4.2696123 0
-21.173563 -2.0184858 5.7606907 0
-21.08423 2.9152145 5.7153587 0
-21.058615 3.0052705 5.7685623 0
-21.185534 -2.2641768 5.7279406 0
-4.678853 21.563002 -0.1191709 0
-21.0716 3.243515 5.7194967 0
21.536465 -3.2176797 3.6293507 0
-4.6863809 21.187492 4.0768275 0
-4.6813641 21.575806 0.39260685 0
-4.6808653 21.573259 -0.63309395 0
-4.6795778 21.566694 0.90443742 0
-21.062178 3.3429739 5.783247 0
-21.110983 0.622814 6.5501318 0
-20.986889 -2.3257279 6.579174 0
-21.106424 0.94993937 6.5482826 0
-4.6953135 20.961159 5.2788877 0
-4.6813145 21.57555 1.4162631 0
-21.067974 3.5734351 5.7268257 0
-21.128456 0.29505426 6.5566978 0
-21.134033 0.032963574 6.5613356 0
-21.135401 -0.29485536 6.5585594 0
-21.13253 0.36113912 6.5653372 0
-21.121456 0.95006067 6.55231 0
-21.128048 0.68959683 6.5698032 0
-21.048115 3.6790249 5.7949581 0
-21.144384 -0.033408344 6.5641117 0
-21.117455 1.018075 6.5738955 0
-21.111202 1.2771891 6.55019 0
-21.145199 -0.36186522 6.568737 0
-21.139576 -0.69042319 6.5728998 0
-21.146843 -0.62230062 6.559741 0
-21.107634 1.3471372 6.5794668 0
-4.6803818 21.570795 1.9284186 0
-21.079384 1.9306154 6.5466795 0
-21.109022 1.6043892 6.5514889 0
-21.102434 1.6773982 6.5875635 0
-21.15896 -0.95006078 6.5623598 0
-21.161911 -0.94993919 6.5631504 0
21.43037 2.7868032 4.9905281 0
-21.157495 -1.0215218 6.5846643 0
-21.085217 2.0070422 6.5937033 0
-21.082298 2.25826 6.551856 0
21.534622 -3.2172916 4.3570747 0
-21.177103 -1.2781326 6.5678501 0
-4.6816864 21.577446 2.4422739 0
-21.163055 -1.6059365 6.5659723 0
-21.171871 -1.353595 6.5967665 0
-21.09358 2.3411036 6.608057 0
-21.084778 2.5864949 6.5581799 0
-21.165714 -1.6846757 6.6046305 0
-21.173634 -1.9346651 6.5719566 0
-4.689034 21.196627 4.9084644 0
-21.08691 2.6743994 6.6196613 0
-21.079842 2.9148366 6.5637798 0
-4.6809492 21.573689 2.9571311 0
-21.180046 -2.0193257 6.6193247 0
-21.07049 3.0073307 6.6299381 0
-21.185854 -2.2641954 6.579649 0
-4.6939149 20.956812 6.0571613 0
-21.090942 3.2454593 6.5749722 0
-21.057804 3.3421509 6.6425591 0
21.411045 2.7850003 5.7185087 0
-21.053532 3.571774 6.5743732 0
-4.6818495 21.578278 3.4750481 0
21.536539 -3.2176955 5.0955009 0
-21.054899 3.680403 6.6591997 0
-4.6698184 21.905951 0.043167233 0
-4.6728053 21.915712 -0.7233665 0
-4.6762567 21.926989 0.80861676 0
-4.68436 21.180534 5.7460728 0
-4.6822653 21.580399 3.9956574 0
22.279716 2.7637784 0.06142354 0
-4.6691289 21.903698 1.5741081 0
22.284882 2.7647123 -0.66829312 0
22.28442 2.7646289 0.7900598 0
22.287315 2.7651527 1.5198226 0
-4.6788702 21.563087 4.5165305 0
-4.6749253 21.922638 2.3445659 0
21.542723 -3.2189977 5.8472366 0
22.287699 2.7652221 2.252244 0
-4.669086 21.903557 3.1162515 0
-4.680234 21.570044 5.0452409 0
22.284744 2.7646875 2.9887652 0
-4.6872516 21.190491 6.603385 0
-4.6718831 21.912697 3.8978577 0
22.269594 2.7619479 3.7294559 0
-4.662766 22.345921 0.0039741993 0
-4.6628604 22.346266 0.8474319 0
-4.6630626 22.347 1.6919649 0
-4.6740294 21.919712 4.6883974 0
22.28853 2.765372 4.4840374 0
-4.6610279 22.339602 2.5389099 0
22.293995 2.7663605 5.2471256 0
-4.6613307 22.340702 3.3915906 0
-4.6742725 21.920506 5.4887562 0
-4.6628003 22.346046 4.2523918 0
22.280081 2.7638445 6.0177336 0
-4.6736441 21.918451 6.3013859 0
23.141556 -3.2558186 0.05003202 0
23.135151 -3.2551284 -0.7018826 0
23.149832 -3.2567105 0.8015132 0
-4.6660695 22.357935 5.1244774 0
23.140898 -3.2557478 1.5535855 0
-4.6544867 22.977684 0.025316238 0
-4.6531715 22.973156 -0.77618074 0
-4.652946 22.97238 0.82598722 0
23.21682 -3.251478 -0.7210114 0
23.228586 -3.2537801 0.043564081 0
23.224619 -3.2530038 0.80776525 0
23.127069 -3.2542577 2.3073564 0
-4.6507282 22.964745 1.6271214 0
23.219046 -3.2519133 1.5725303 0
-4.6512108 22.966406 2.4314842 0
23.133205 -3.2549191 3.0672379 0
23.241119 -3.2562325 2.3421669 0
-4.6622453 22.344028 6.0031729 0
-4.6463456 22.949654 3.238544 0
23.218889 -3.2518828 3.1125536 0
23.154253 -3.2571869 3.8364725 0
23.224669 -3.2530138 3.8925061 0
-4.6541824 22.976637 4.0585437 0
23.146326 -3.2563329 4.6100855 0
-4.6627984 22.346039 6.89956 0
23.225088 -3.2530959 4.6804867 0
-4.6535993 22.974628 4.88377 0
23.136471 -3.2552707 5.3932638 0
23.887121 2.7279873 -0.75070059 0
23.890875 2.7286108 0.81758118 0
23.905333 2.7310121 0.033562899 0
-4.6374173 23.624176 -0.01746726 0
-4.6340756 23.611305 0.86863518 0
23.228378 -3.2537391 5.4799433 0
23.887537 2.7280564 1.6021225 0
-4.6530719 22.972813 5.7201748 0
-4.6369514 23.622381 1.7561855 0
23.884789 2.7275996 2.3893561 0
23.153879 -3.2571466 6.1958227 0
-4.634099 23.611397 2.6457975 0
23.90061 2.7302277 3.1835308 0
23.224167 -3.2529151 6.2905827 0
-4.6364441 23.620426 3.5426059 0
-4.6528316 22.971985 6.5703182 0
23.898743 2.7299175 3.9828305 0
24.24921 2.7252955 0.031639814 0
24.252003 2.7255158 0.81980896 0
24.25913 2.726078 -0.75796318 0
-4.6336794 23.609779 4.4445724 0
24.266363 2.7266486 1.6097434 0
24.260254 2.7261667 2.4017859 0
23.903782 2.7307546 4.7922487 0
-4.628696 24.122028 0.0062170029 0
-4.6280575 24.119705 0.84514081 0
-4.6293383 24.124365 -0.83389926 0
-4.6261325 24.112707 1.6846654 0
24.257982 2.7259874 3.1987262 0
-4.6361403 23.619259 5.3598404 0
23.894264 2.7291737 5.609683 0
-4.6320348 24.134171 2.5293434 0
24.255581 2.7257981 4.0023499 0
-4.6263261 24.113409 3.3753805 0
-4.6362557 23.619701 6.2861528 0
24.2582 2.7260046 4.8157215 0
23.901192 2.7303243 6.4441929 0
-4.6288161 24.122465 4.2320919 0
24.252672 2.7255685 5.6385098 0
-4.6318364 24.133448 5.0993805 0
-4.6367254 23.62151 7.2279329 0
24.916885 -3.2933471 -0.28704774 0
24.907953 -3.2921875 0.90454006 0
24.923605 -3.2942193 0.30891132 0
24.912006 -3.2927136 -0.88411379 0
24.925478 -3.2944624 1.5002146 0
24.899784 -3.2911267 2.0953276 0
24.24892 2.7252727 6.4747591 0
-4.6263709 24.113573 5.9719362 0
24.913805 -3.2929471 2.6933279 0
24.924383 -3.2943203 3.2936144 0
-4.6085682 24.979239 -0.27509511 0
-4.6103239 24.98978 0.31478977 0
-4.6082964 24.977608 0.90453291 0
-4.6086369 24.979649 -0.86653793 0
24.907124 -3.2920797 3.8937325 0
-4.603538 25.015911 -0.040879548 0
25.211826 -3.2940199 -0.8241756 0
25.231825 -3.2976367 0.0090584755 0
-4.6092224 24.98317 1.4941216 0
25.222734 -3.2959926 0.84218013 0
-4.6058445 25.025347 0.89244902 0
-4.6086969 24.980011 2.0842006 0
25.226654 -3.2967012 1.6763654 0
-4.6296415 24.125467 6.8660536 0
-4.6059771 25.025888 1.8271151 0
24.907816 -3.2921696 4.4988594 0
-4.6092262 24.983189 2.6758618 0
25.223467 -3.2961247 2.5132561 0
-4.6078558 25.033575 2.7658908 0
-4.6083231 24.977764 3.2687893 0
24.910488 -3.2925165 5.1083207 0
25.212366 -3.2941177 3.3540621 0
-4.6076508 24.973726 3.8642087 0
-4.6073532 25.031519 3.7097435 0
24.904535 -3.2917438 5.7209525 0
25.213902 -3.2943952 4.203352 0
-4.5975881 25.370785 -0.014701009 0
-4.6078224 24.974756 4.4634094 0
-4.5976071 25.370857 0.86610222 0
-4.5992017 25.376999 -0.89691389 0
-4.5986657 25.374935 1.7482021 0
-4.6018806 25.00913 4.6582613 0
-4.6096354 24.985645 5.0682378 0
25.777914 2.6893713 0.0013942719 0
25.775057 2.6889386 0.8499552 0
25.218435 -3.2952149 5.0627909 0
-4.6011868 25.384644 2.6343403 0
25.779882 2.6896694 -0.8483566 0
25.767799 2.6878397 1.6991162 0
25.769957 2.6881666 2.5517104 0
-4.6098909 24.987185 5.6764431 0
-4.6026382 25.390234 3.5260897 0
-4.6075716 25.032412 5.6248493 0
25.223379 -3.296109 5.9343958 0
25.760048 2.6866663 3.4081845 0
-4.5978775 25.371899 4.4220095 0
25.786987 2.6907451 4.2772346 0
