# .PCD v0.7 - Point Cloud Data file format
VERSION 0.7
FIELDS x y z intensity
SIZE 4 4 4 4
TYPE F F F F
COUNT 1 1 1 1
WIDTH 1425
HEIGHT 1
VIEWPOINT 0 0 0 1 0 0 0
POINTS 1425
DATA ascii
-1.4783812 7.7915797 -0.77203536 0
7.0174923 -3.0461748 2.2297602 0
7.8658571 0.81853843 -0.98810434 0
-6.9004488 -3.0077362 2.6205211 0
6.3854222 4.6677775 -0.99084628 0
-0.38377833 7.9008069 -0.98725176 0
7.3218937 -3.0544145 0.78558075 0
7.311254 -3.046777 -0.906551 0
-1.4807973 7.7967105 0.82231545 0
-7.0641718 -3.0029683 2.183609 0
-1.4811194 7.5506134 2.121685 0
7.8686023 -0.90616584 -0.9884485 0
7.8689241 0.90616351 -0.98852277 0
6.4566898 4.5905871 -0.98824871 0
5.077683 6.0829954 -0.98741269 0
5.0096192 6.1393113 -0.98990095 0
-0.28133225 7.9210773 -0.98533642 0
7.867826 0.99382859 -0.98826921 0
7.8686113 -0.99383426 -0.98845053 0
-1.4779446 7.7602797 1.2381949 0
-1.4793763 7.5067024 2.3313842 0
7.8655252 1.0814544 -0.98802757 0
7.2310238 -3.0467429 1.567595 0
7.867938 -1.0815063 -0.98858476 0
7.8586125 -1.1689031 -0.98701012 0
5.2238483 5.9863586 -0.98766446 0
7.3280311 -3.0588205 1.0271399 0
7.8483772 1.2560768 -0.98551309 0
5.1585684 6.0463343 -0.9906323 0
7.1415057 -3.0432212 1.9758768 0
-1.4810033 7.7971478 1.0878456 0
7.8681355 1.1692441 -0.98921013 0
6.5408845 4.5287075 -0.98983622 0
-0.1827023 7.9542408 -0.98632419 0
7.8631539 -1.2568177 -0.98892891 0
5.3004894 5.9429321 -0.9896208 0
5.4336748 5.8281598 -0.98645973 0
6.6110067 4.4508338 -0.98757243 0
7.0233068 -3.0485468 2.4245019 0
7.3192806 -3.0525391 1.2684586 0
5.3712292 5.8910284 -0.9894824 0
7.8452287 -1.4313223 -0.98739195 0
7.860508 1.3445251 -0.98947763 0
-7.0248079 2.993793 2.5042613 0
7.8496094 1.4316679 -0.98840642 0
7.8652072 -1.3448282 -0.99056494 0
7.8202925 1.6048326 -0.98538101 0
5.5075426 5.780529 -0.98812342 0
7.8264971 -1.6055013 -0.98682165 0
-1.4811335 7.7974243 1.355015 0
7.3042855 -3.0417752 1.5098825 0
-6.8668299 2.9923434 2.9631357 0
7.8496418 -1.5197152 -0.99015749 0
7.8508515 1.5198281 -0.99043787 0
7.2426138 -3.0511711 1.7848091 0
5.5803595 5.7312317 -0.98962414 0
7.822886 -1.6932771 -0.98830867 0
7.8042889 -1.7792068 -0.98659909 0
5.646596 5.6736493 -0.98897183 0
-0.088298082 8.004343 -0.99099398 0
7.4704523 -3.0447948 -0.10781723 0
5.7718587 5.5504827 -0.9860512 0
-1.4862928 7.5612035 2.3972445 0
7.8094788 1.7799168 -0.98780847 0
-1.485924 7.4120016 2.8275676 0
7.4696498 -3.0445013 0.31927156 0
-1.4851623 7.7797956 1.5685377 0
7.8320875 1.694402 -0.99044883 0
7.4768343 -3.0425484 -0.18554825 0
7.793663 1.8661473 -0.98703396 0
7.478364 -3.0476887 0.10566902 0
0.01628983 8.0157681 -0.98817897 0
5.7159824 5.6198678 -0.98974919 0
7.4812298 -3.0456095 0.059267044 0
6.7037306 4.3977847 -0.99212444 0
7.799602 -1.8670466 -0.98842084 0
6.7643094 4.3100581 -0.98777473 0
7.4777842 -3.0474765 -0.32401478 0
7.1464472 -3.0468767 2.226506 0
7.4759331 -3.0419209 -0.43201172 0
7.7606611 -2.0381589 -0.98602462 0
-7.071393 -3.0046515 2.5153046 0
7.7828503 1.9531295 -0.98771703 0
-7.5040464 2.9962749 0.36802268 0
7.4766679 -3.0470684 -0.54119712 0
-7.4980097 2.9937105 0.54731953 0
5.8482876 5.5045614 -0.98984444 0
5.9087791 5.4407387 -0.98839378 0
7.7916703 -1.9545946 -0.98978138 0
7.490366 -3.0519717 0.3034606 0
7.7724109 2.0402837 -0.98878133 0
7.2302761 -3.0464573 1.9995642 0
-6.9039125 -3.0093219 2.9740639 0
6.0876184 5.2478285 -0.98511899 0
7.7280259 2.2101386 -0.98625445 0
7.4664912 -3.0433459 -0.75883639 0
-1.4804263 7.7959228 1.6241956 0
7.4680462 -3.0364289 0.79129088 0
0.11745691 8.0403509 -0.98829639 0
7.7564874 -2.1265175 -0.98885143 0
5.9766526 5.3848848 -0.98974085 0
7.7587996 2.1269701 -0.98939538 0
-7.5199223 -3.0030184 0.36681676 0
7.4825778 -3.0465484 -0.68197715 0
-7.4998045 2.9944732 0.72572517 0
7.7378278 -2.2122025 -0.98856699 0
7.492825 -3.052978 0.53255904 0
7.4773707 -3.0473254 0.74567544 0
7.4921107 -3.0531867 0.54797637 0
7.7151752 -2.2969692 -0.98762655 0
0.22207367 8.0490217 -0.98553824 0
6.8443584 4.2430367 -0.98923969 0
-7.5179224 -3.0021689 0.54631233 0
7.6960068 -2.3824725 -0.98779774 0
7.3144145 -3.049046 1.758707 0
6.0436721 5.3278971 -0.99105227 0
7.6727767 2.4669774 -0.98729289 0
7.6181746 2.6335521 -0.98519015 0
7.7007103 2.3836045 -0.98891461 0
6.1634102 5.1993718 -0.98983538 0
7.4711919 -3.0450652 0.95928597 0
7.729672 2.3002388 -0.99105752 0
6.3317146 4.9968891 -0.98674977 0
-7.5183477 -3.0023494 0.7252568 0
6.2238593 5.135756 -0.98986197 0
7.6824932 -2.4694633 -0.98960829 0
6.9133129 4.1647062 -0.9879148 0
6.2811737 5.0692673 -0.98919702 0
7.6581244 -2.553762 -0.98912656 0
7.6014991 2.7198827 -0.98712456 0
7.4834766 -3.047174 -0.93393064 0
-1.4817321 7.7705202 1.8983235 0
6.4987311 4.7942171 -0.9860183 0
7.6327248 -2.6377215 -0.98868442 0
7.6037688 -2.7205684 -0.98767209 0
6.4472632 4.8652425 -0.98723102 0
7.5459466 2.8859897 -0.98651695 0
7.6645565 2.555506 -0.99066508 0
7.4827771 -3.0493028 -0.98519385 0
7.4500732 3.1304386 -0.98468208 0
-7.5136948 3.0003729 0.90402913 0
7.5482693 -2.8867645 -0.98708224 0
7.4845085 3.0499363 -0.98561954 0
-7.5160217 -3.0013616 0.90402925 0
-7.495986 2.9928513 1.0822356 0
6.5568953 4.7286172 -0.98708463 0
7.4818773 -3.0460603 1.0374858 0
7.5215831 -2.9702144 -0.98748016 0
7.5842657 2.8063064 -0.98923147 0
6.7582755 4.4421711 -0.98513174 0
6.6109347 4.6596847 -0.987216 0
-7.0270329 2.9943116 2.8387227 0
7.5864692 -2.8070068 -0.98976529 0
0.32113266 8.0836 -0.98822045 0
7.5253687 2.9715378 -0.98840606 0
6.8092957 4.3710899 -0.98556471 0
6.6661143 4.5915527 -0.98795831 0
7.2985654 -3.0376689 2.004427 0
-1.4793777 7.7936959 1.8960981 0
6.9880643 4.0921898 -0.98847556 0
6.4099283 4.9485998 -0.99306297 0
7.2874846 3.5365884 -0.98670018 0
7.1288514 3.8487422 -0.98629403 0
7.4348087 3.2184761 -0.98878932 0
6.911994 4.2290483 -0.98743987 0
6.7232885 4.5247173 -0.98953867 0
7.3299289 3.4596689 -0.98821688 0
-7.5171919 -3.0018587 1.0827727 0
7.0048447 4.0804396 -0.98774016 0
7.4047132 3.300926 -0.98952782 0
6.9610686 4.156383 -0.98816454 0
7.484859 -3.0500643 1.1763396 0
7.3698006 3.381413 -0.98935509 0
6.8737144 4.3086948 -0.98997283 0
7.2209845 3.6991258 -0.98923218 0
7.1810608 3.7772305 -0.98922777 0
7.2611232 3.6211047 -0.98957956 0
-7.5008774 2.9949288 1.260884 0
7.099925 3.9328232 -0.98975885 0
7.4803948 -3.045028 1.2840791 0
7.0598884 4.011024 -0.99061191 0
0.4221561 8.1098261 -0.98952532 0
7.060874 4.0177169 -0.98879027 0
-7.5123091 -2.9997845 1.2614629 0
-1.4797609 8.0566521 0.016740918 0
-7.4935331 2.9918091 1.4392381 0
-1.479701 8.0565205 0.28949356 0
7.1266966 3.9368098 -0.98754823 0
0.52508509 8.1261044 -0.98915112 0
-7.0794973 -3.0065405 2.8531573 0
-1.4834287 8.0647392 -0.25778621 0
-1.4775615 8.0518036 0.56181586 0
-1.4794714 8.0560141 -0.53235137 0
-7.6378412 2.9955828 0.25810242 0
7.4918013 -3.0526037 1.3951492 0
-7.6445837 2.9970529 -0.077863216 0
7.4733663 -3.0401335 1.531599 0
0.62963319 8.1317215 -0.98697078 0
-1.4817741 7.7706337 2.2330284 0
7.4666748 -3.0434132 1.6102743 0
-1.4787996 7.7924681 2.1717987 0
-7.6358566 2.9951501 0.59326208 0
-1.4756074 8.0474949 0.83413196 0
0.73451567 8.1328039 -0.98419881 0
7.1976337 3.8606293 -0.98794961 0
-7.5227184 -3.0042062 1.4414566 0
-7.6529045 2.9988675 -0.415685 0
-1.4797909 8.0567188 -0.81024909 0
-7.6621284 -3.0008788 -0.41651094 0
-7.6724653 -3.0031326 -0.079358757 0
-7.5045252 2.9964783 1.6196625 0
-7.6729755 -3.0032439 0.25747478 0
7.6511011 -3.0395763 -0.44958693 0
7.6620374 -3.0469618 0.051412225 0
-7.6453285 2.9972155 -0.75417614 0
7.3209615 -3.0537455 2.2653818 0
7.6614256 -3.0465486 0.30105162 0
-1.4732697 8.0423403 1.1070342 0
7.6671104 -3.0503876 -0.19966525 0
7.2721763 3.7874324 -0.98954988 0
-7.2130098 2.9967847 2.6853099 0
-7.5223856 -3.0040646 1.6214747 0
7.6779976 -3.0466855 0.093593121 0
-7.6734409 -3.0033453 0.59393346 0
0.83557487 8.1611586 -0.98706913 0
7.6837044 -3.0488245 -0.11139095 0
7.3312364 3.7010143 -0.98748219 0
7.6836319 -3.0487974 0.2965585 0
7.6685977 -3.0513918 0.55049932 0
-7.6542692 2.9991651 0.92978263 0
-7.6729422 -3.0032365 -0.75764632 0
7.6857128 -3.0495777 -0.31722307 0
7.6622615 -3.0471132 -0.70549858 0
-7.5023584 2.995558 1.7997587 0
7.678688 -3.0469444 -0.52292097 0
7.4876633 -3.0500896 1.7863221 0
7.6823616 -3.0483212 0.49948728 0
7.4803171 -3.048403 1.835989 0
-7.5097303 -2.9986892 1.8006952 0
-7.2370071 -3.0073593 2.691364 0
7.6651154 -3.0490403 0.80018234 0
0.93865645 8.1753645 -0.98745084 0
7.395256 3.6189692 -0.9869889 0
-1.4776478 7.7900224 2.451525 0
-7.638072 2.9956331 1.2657566 0
7.6624212 -3.0472209 -0.96262228 0
-7.6831379 -3.0054598 0.93133116 0
7.6928205 -3.0522418 0.70162237 0
7.6570115 -3.0435679 1.049999 0
-1.4833755 8.174284 0.25676918 0
7.7348661 -3.0447843 -0.12959927 0
-1.4811215 7.7688694 2.5718548 0
7.7381725 -3.0459402 0.092879057 0
-1.4842868 8.0666313 1.3851826 0
-7.5028648 2.9957731 1.9811366 0
-1.4801004 8.1650219 0.59445918 0
1.041152 8.1964235 -0.98945868 0
7.465364 3.5417693 -0.98829758 0
7.6914806 -3.0517395 0.90405822 0
7.7430143 -3.0476329 0.31476021 0
7.5160751 3.4495175 -0.98512316 0
7.7442389 -3.0480611 -0.35484499 0
7.7366176 -3.0453966 0.53652132 0
-7.6690512 -3.0023882 1.2685308 0
7.4796052 -3.0481427 2.0623002 0
7.4861803 -3.049057 2.0413127 0
7.682312 -3.0483029 1.1062329 0
7.7413316 -3.0470445 -0.58066654 0
7.6573877 -3.0438218 1.3019183 0
1.1450022 8.2049122 -0.98929894 0
1.250393 8.1907434 -0.98501444 0
-7.5268555 -3.0059636 1.9848013 0
-7.6367311 2.9953406 1.6044955 0
-1.4829359 8.1730404 0.9328351 0
-7.4998226 2.9944808 2.1630974 0
7.7475533 -3.0492198 0.75904167 0
7.5909977 3.3757308 -0.98815703 0
-1.4851205 8.06847 1.6636927 0
7.6861448 -3.0497396 1.3088181 0
1.3536575 8.204792 -0.98652005 0
-7.2046251 2.9930899 3.045783 0
7.7585182 -3.0530536 -0.8129214 0
7.6441188 3.2857182 -0.98619747 0
-7.5217056 -3.0037761 2.1670063 0
7.7508197 -3.0503619 0.98247778 0
-1.4802432 8.1654263 1.2715964 0
1.457427 8.2121925 -0.98701906 0
7.6687293 -3.051481 1.5581346 0
-7.6790094 -3.0045595 1.6098089 0
7.6870956 -3.0500958 1.5118189 0
-7.4987345 2.9940186 2.3467019 0
-7.2365875 -3.0071745 3.0551414 0
-1.478533 8.0539455 1.9419498 0
7.7165546 3.209481 -0.98913896 0
7.4958091 -3.0557616 2.3039489 0
7.8445177 -3.0442569 -0.21229321 0
7.7541013 -3.0515094 1.2075276 0
7.8565331 -3.0521228 0.04277432 0
1.5611222 8.2263432 -0.98911953 0
7.848258 -3.0467055 -0.47023016 0
7.8569927 -3.0524242 0.29815221 0
7.7729554 3.1218669 -0.9885484 0
-7.5235157 -3.0045447 2.3517747 0
-7.6420727 2.9965055 1.9471388 0
-1.4835105 7.7753296 2.918406 0
-1.4750483 8.1507359 1.6109464 0
7.8505125 -3.0481815 0.55311251 0
7.6620326 -3.0469584 1.813931 0
7.7462277 -3.0487564 1.432888 0
7.8460159 -3.0452375 -0.72956967 0
7.6899261 -3.0511568 1.7157168 0
7.8263583 3.0323682 -0.98755956 0
1.6652967 8.2266331 -0.98881364 0
7.8481855 -3.046658 0.80810261 0
-1.4778926 8.3315992 0.0036153793 0
7.8366575 -3.0391111 -0.98995245 0
-1.4777629 8.3313026 -0.27889252 0
1.7694228 8.2200117 -0.98745394 0
-7.6755867 -3.0038133 1.9525719 0
-1.4805932 8.3377876 0.28500152 0
7.8866849 -2.9474096 -0.98846972 0
-1.4750752 8.0463209 2.2246385 0
7.8873739 2.9478469 -0.98862839 0
7.6847115 -3.0492024 1.9196396 0
-1.4809144 8.3385229 -0.56411642 0
7.7475414 -3.0492158 1.6620612 0
7.9363484 2.855716 -0.9872179 0
-1.4835248 8.3445053 0.56652629 0
7.938889 -2.8572772 -0.98779762 0
7.857688 -3.0528791 1.0650702 0
1.8736687 8.2300806 -0.98962879 0
1.9772019 8.2074261 -0.98573053 0
-1.4777353 8.3312387 -0.84984267 0
7.6669073 -3.0502503 2.0758791 0
7.9919672 -2.767755 -0.98762178 0
-1.4830267 8.3433638 0.84845722 0
7.9964271 2.7704089 -0.98863065 0
-1.4800982 8.1650162 1.9569931 0
7.7379646 -3.0458674 1.8918009 0
2.0814354 8.2116976 -0.9873575 0
7.8548341 -3.0510108 1.3225951 0
-7.6495161 2.9981287 2.2943957 0
7.6838732 -3.048888 2.125073 0
8.0461588 -2.6788795 -0.98798585 0
-1.4784849 8.3329563 1.1304502 0
8.048708 2.6803467 -0.98855746 0
-7.6695471 -3.0024962 2.2983809 0
8.0953856 -2.5871532 -0.98752666 0
2.2883613 8.188777 -0.98535526 0
2.1859593 8.2164469 -0.98936927 0
8.1031952 2.5915024 -0.98926425 0
7.8480759 -3.0465863 1.5813594 0
-1.4805851 8.0584698 2.5171499 0
8.1422634 2.4942153 -0.98684335 0
7.7286973 -3.0426273 2.124649 0
8.1479206 -2.4972601 -0.98809206 0
7.6747341 -3.0454626 2.3303559 0
7.6698732 -3.0522535 2.3418827 0
-1.4791954 8.3345842 1.4149885 0
2.3928006 8.1901999 -0.98729992 0
8.0314674 -3.047981 0.078298569 0
8.0198317 -3.0440989 0.54119229 0
8.1936417 2.4037068 -0.98744369 0
-7.5703783 2.9960628 2.7609811 0
-1.4759021 8.1531506 2.3025622 0
8.0405712 -3.0510187 -0.15508586 0
-7.574564 -2.9978361 2.7620306 0
8.2006016 -2.407325 -0.98896825 0
8.038868 -3.0504506 0.30985737 0
8.048665 -3.0501726 0.034365773 0
8.0494556 -3.0506747 0.29534483 0
8.2403765 -2.3107448 -0.98731256 0
8.0532494 -3.0530808 -0.22806156 0
8.0488625 -3.0537848 -0.3904677 0
7.8489718 -3.047173 1.8442135 0
8.2492085 2.3151774 -0.98923326 0
2.4981332 8.1972322 -0.99063563 0
8.0499592 -3.0509942 0.55606544 0
8.0554171 -3.0544565 -0.49212646 0
8.0278215 -3.0467646 -0.86206388 0
-7.6513071 2.9985192 2.6455989 0
-1.478888 8.3338804 1.701699 0
8.2896385 2.2190044 -0.98801661 0
8.055604 -3.0560341 -0.62823117 0
8.2920628 -2.2201777 -0.98853993 0
8.0464535 -3.0529811 0.77392936 0
2.6014125 8.1826057 -0.9900322 0
8.0513105 -3.051851 -0.7574687 0
-8.1040525 2.9949677 0.32921433 0
8.3248825 2.1205857 -0.9859916 0
7.6833563 -3.0486941 2.5403337 0
2.703459 8.1592331 -0.98800218 0
8.3301582 -2.1230471 -0.98712325 0
8.0558176 -3.0547101 0.81747794 0
-7.6738501 -3.0034344 2.6509254 0
-8.1153564 -2.9993908 0.32836568 0
8.0467396 -3.0530767 1.0070548 0
2.8059504 8.140769 -0.98721921 0
-8.1152706 2.9993572 0.52060974 0
8.0239391 -3.0454695 1.2386417 0
-8.1067724 -2.9960322 0.71264327 0
8.0477333 -3.0495813 1.0788898 0
8.3787479 -2.0308359 -0.98824894 0
-8.115448 2.9994268 0.71242666 0
2.9083736 8.1224728 -0.98675585 0
8.3843651 2.0333595 -0.98944604 0
-8.131815 -3.0058308 0.51978266 0
7.8533859 -3.0500624 2.1117058 0
-8.1072912 2.9962349 0.90404475 0
-8.1101847 -2.9973671 0.90404487 0
8.4180794 -1.9344201 -0.98768771 0
8.4232368 1.9366491 -0.9887799 0
-1.4805758 8.3377485 1.9925141 0
8.4484577 1.8343525 -0.98553658 0
8.0487719 -3.0502408 1.3425601 0
8.4579163 -1.8382802 -0.98752737 0
-8.1090641 2.9969287 1.0955038 0
-1.480531 8.1662397 2.6580803 0
3.0137992 8.1213942 -0.98997927 0
-1.4781351 8.5917692 0.24991143 0
8.0368919 -3.0497909 1.4765067 0
3.1141033 8.0910006 -0.98770773 0
8.497612 -1.7420871 -0.98762739 0
-8.1275063 -3.0041449 1.0959654 0
-7.5820055 3.0009887 3.1394467 0
-8.1075172 2.9963233 1.2870932 0
8.506505 1.7456317 -0.98948824 0
-1.4789464 8.5941715 0.6015327 0
3.2167902 8.0736761 -0.98830795 0
-7.5914879 -3.0050063 3.1422062 0
-7.6512594 2.9985087 3.0021362 0
8.0445271 -3.0475471 1.6075962 0
8.5393543 1.6466374 -0.98844004 0
-8.12288 -3.0023346 1.2878623 0
7.8535628 -3.0501783 2.3825612 0
-1.4771202 8.6277514 0.28037214 0
8.5472956 -1.6496713 -0.9900924 0
-1.4755287 8.5840492 0.9530673 0
-1.4795272 8.6334896 -0.30326003 0
-8.1039562 2.9949303 1.4788702 0
-7.6680489 -3.0021696 3.0067406 0
-1.4835219 8.643013 -0.011505544 0
8.575839 -1.549114 -0.98844361 0
8.5778599 1.5498533 -0.98886192 0
3.3205528 8.0606928 -0.99006677 0
-1.4819179 8.3408232 2.2874017 0
8.0458069 -3.0527651 1.7171493 0
-1.479022 8.6322851 -0.5971868 0
-1.4828215 8.6413431 0.57128513 0
8.6109676 1.4510937 -0.98845625 0
-8.126811 -3.0038729 1.4805872 0
8.6143408 -1.4522729 -0.98915076 0
-1.4777064 8.6291494 0.86211753 0
8.2516613 -3.0494835 0.025360823 0
3.424665 8.0479708 -0.99217987 0
8.6419926 -1.3516796 -0.98791599 0
-1.4793108 8.6329737 -0.89387858 0
8.255497 -3.0518405 -0.2430132 0
3.5233169 8.0122232 -0.9899832 0
8.6504955 1.3545167 -0.98965847 0
-1.4769368 8.5882196 1.3064632 0
8.6669121 1.2503862 -0.98642397 0
8.2630005 -3.0564516 0.29212976 0
8.2557631 -3.0520041 -0.51283306 0
8.055748 -3.0546668 1.8787878 0
8.254446 -3.0511944 0.55909491 0
3.6222949 7.9788637 -0.9885422 0
-8.1240463 -3.0027909 1.6734664 0
8.0430069 -3.0518312 1.9588909 0
8.6930046 1.1496544 -0.98547149 0
8.6783104 -1.2540088 -0.98874879 0
-8.1291685 3.0047953 1.6739802 0
-1.4818501 8.1699705 3.0176954 0
3.7227349 7.9513783 -0.98856747 0
-1.4797127 8.6339312 1.1547017 0
8.2534304 -3.0505707 0.82614779 0
8.7088032 -1.1544278 -0.98867965 0
8.2621803 -3.055948 -0.78614235 0
-1.4772744 8.330183 2.5833089 0
-8.1117544 2.9979813 1.8658514 0
8.7365961 -1.0540614 -0.98835361 0
-8.3300657 2.9959509 0.24627721 0
3.824019 7.9266348 -0.98944008 0
8.7543297 0.95099515 -0.98629284 0
-8.3278313 2.995497 -0.47340703 0
-8.1271534 -3.0040069 1.867785 0
8.7458048 1.0567002 -0.99021554 0
4.0165911 7.8452563 -0.98555732 0
8.0321417 -3.0482061 2.202076 0
-8.3457308 2.9991326 -0.11384362 0
8.7623863 -0.95317978 -0.98791552 0
8.7754536 -0.84908742 -0.98521626 0
3.9233894 7.8952956 -0.98926759 0
8.258358 -3.0535986 1.094707 0
-8.3499622 -2.9999919 -0.11406994 0
8.0514088 -3.051913 2.1503658 0
-1.4825289 8.640646 1.4496999 0
8.7941132 0.85386127 -0.98896015 0
-8.364893 -3.0030243 0.24565697 0
-1.483397 8.6073532 1.6642725 0
8.3529282 -3.0505979 0.062236905 0
-8.3522491 3.0004563 0.60551775 0
8.3462343 -3.0484705 -0.42498404 0
-8.1176329 3.0002818 2.0614138 0
-8.3618422 -3.0024049 -0.47644335 0
-8.1190434 -3.0008335 2.0616267 0
-8.3591757 -3.0018632 0.60564113 0
8.8163052 -0.75206846 -0.98838007 0
-8.3420839 2.9983919 -0.83792305 0
4.1216478 7.8311257 -0.98948741 0
8.3603916 -3.0529699 0.30450737 0
8.2548866 -3.0514653 1.3641067 0
8.3647137 -3.0543435 -0.18214107 0
8.8223915 0.75353295 -0.98959672 0
-8.3511124 -3.0002255 -0.83905423 0
8.3606052 -3.0530381 0.54689646 0
4.2190223 7.7939944 -0.98899353 0
8.8464947 0.54564637 -0.98527563 0
8.8391285 -0.65048331 -0.98821795 0
4.312912 7.7477884 -0.98690009 0
8.3482885 -3.0491233 0.78890789 0
-8.3492651 2.9998505 0.96543252 0
8.3591003 -3.0525596 -0.67376757 0
8.84727 0.65231973 -0.98984039 0
-1.4781997 8.6303244 1.7448235 0
-8.1046696 2.9952092 2.2552285 0
-8.3599901 -3.0020287 0.96600604 0
8.0442114 -3.0473473 2.4250898 0
-8.1125002 -2.9982731 2.2566111 0
8.8728762 0.44494957 -0.98640513 0
8.3544073 -3.0510681 -0.92268527 0
4.4128284 7.7176423 -0.98843086 0
8.8752041 -0.55169135 -0.99097824 0
-1.4786294 8.5932331 2.0210209 0
-7.9485369 2.9936399 2.8413975 0
4.5084658 7.6764388 -0.98794627 0
4.5989037 7.6232128 -0.98520541 0
8.8920364 -0.44869858 -0.99020016 0
8.8974323 0.34373206 -0.98745632 0
-8.3411846 -2.9982092 1.325999 0
8.2644043 -3.0573146 1.6379557 0
-8.3417606 2.9983263 1.3260505 0
8.3637352 -3.0540326 1.0334511 0
8.9059343 -0.34526962 -0.98913586 0
8.9152431 0.24121577 -0.98746181 0
4.698432 7.5913553 -0.98726773 0
-7.9741516 -3.0040629 2.8477821 0
-8.1073513 2.9962585 2.4530475 0
8.9281502 -0.24335951 -0.99000502 0
8.9323483 0.13857013 -0.98761737 0
8.9328709 -0.13864917 -0.98772001 0
4.7921233 7.5460963 -0.98677814 0
8.4615078 -3.0471215 0.01601398 0
8.4623585 -3.0520937 0.024499416 0
8.9422855 0.069865286 -0.98403883 0
-8.1186543 -3.0006812 2.4553342 0
-1.480649 8.6361637 2.0458503 0
8.3686609 -3.055598 1.2792733 0
8.2527485 -3.0501516 1.9108043 0
8.4678707 -3.0509069 -0.2588706 0
8.4614143 -3.0517704 -0.41995347 0
8.4599266 -3.0512609 0.46536255 0
8.4686584 -3.0542512 0.24476433 0
8.4699717 -3.0547011 -0.19813287 0
8.9529209 -0.036354244 -0.98874128 0
8.9556732 0.036730766 -0.9892813 0
8.4729996 -3.0539587 0.28901553 0
8.4644089 -3.0488467 -0.53455496 0
8.4541321 -3.0492766 0.68498182 0
4.8892879 7.5081944 -0.98815942 0
8.4671993 -3.0505078 0.56226659 0
8.4637842 -3.052582 -0.64470589 0
8.3542252 -3.0510101 1.5243573 0
-8.3418894 -2.9983523 1.6892986 0
4.9820905 7.461019 -0.98783827 0
8.97295 -0.066116273 -0.99004376 0
-8.347868 2.9995668 1.6900477 0
8.9771576 0.17050606 -0.98853791 0
8.4558697 -3.0498714 0.90407872 0
-1.4773943 8.5895739 2.3828373 0
8.9797802 -0.17022336 -0.98905087 0
8.9783726 0.27497375 -0.98674178 0
5.0750351 7.414176 -0.98787677 0
8.4692268 -3.0517142 0.83585668 0
8.4722652 -3.0535219 -0.81441712 0
8.9922142 -0.27368224 -0.98944426 0
5.1681013 7.3675032 -0.98824501 0
8.9979143 0.37775189 -0.98881292 0
8.9985161 -0.37770438 -0.98893034 0
8.2482357 -3.0473785 2.1883564 0
5.2575703 7.3141608 -0.98742986 0
-1.4770377 8.6275549 2.3478193 0
8.4624653 -3.0476904 1.1097202 0
8.4594889 -3.051111 1.1233077 0
9.0015373 -0.48188373 -0.98806798 0
9.0061388 0.48158693 -0.98896444 0
-1.4785874 8.950367 0.27515388 0
5.351933 7.2695861 -0.9888562 0
9.009656 -0.58570164 -0.98848891 0
-1.4830627 8.9614792 -0.026933551 0
8.3677835 -3.0553193 1.7768135 0
-1.4764962 8.9451742 0.57614839 0
-1.4820657 8.9590034 -0.32968521 0
9.0071526 0.68998319 -0.98713267 0
9.0165548 0.58535576 -0.98983169 0
-1.4772534 8.9470549 -0.6328516 0
5.4427972 7.2186289 -0.98915756 0
9.007761 -0.79401946 -0.98667204 0
8.9983988 0.89808059 -0.98456287 0
-7.9585142 2.9976997 3.2322822 0
-8.3416729 -2.9983084 2.0556285 0
8.462328 -3.0476089 1.3856575 0
8.4671507 -3.0537348 1.3431523 0
5.5300255 7.161581 -0.98836982 0
9.0137825 0.79389018 -0.98784292 0
9.0227432 -0.68942511 -0.99016511 0
-7.9655342 -3.0005565 3.234313 0
-8.3526554 3.0005391 2.0574036 0
9.0145836 -0.89796478 -0.98770905 0
5.6192861 7.1079392 -0.98864281 0
-1.4773512 8.9472971 -0.93980706 0
9.0005951 1.1058266 -0.98527884 0
9.0136375 -1.0020285 -0.98752511 0
5.7056408 7.0497117 -0.98815024 0
-1.4823911 8.9598112 0.87823915 0
8.3560791 -3.0515993 2.0276008 0
8.9969025 -1.2096499 -0.98513913 0
5.7928348 6.9928279 -0.98825526 0
9.0255241 1.0021135 -0.98983562 0
-1.4773066 8.5893154 2.7501559 0
-1.4765575 8.9453268 1.1797953 0
9.0094318 1.2100984 -0.98757613 0
8.4751081 -3.0564599 1.5638738 0
8.9988251 1.3137553 -0.98638117 0
5.9609451 6.8699856 -0.98718894 0
8.2627916 -3.0563233 2.4760437 0
5.8830929 6.9403138 -0.98968709 0
9.0313082 -1.1064861 -0.99125028 0
-1.4793963 8.6331778 2.6581752 0
9.0073853 -1.3141845 -0.98804712 0
8.4725962 -3.0537188 1.6658781 0
6.0475364 6.8121457 -0.98794329 0
8.990654 -1.5216753 -0.98739719 0
9.0079365 1.418529 -0.98931456 0
8.9943552 1.5219674 -0.98811901 0
-1.475239 9.0533485 0.24227524 0
6.1354136 6.7557855 -0.98936689 0
8.9821281 -1.6253767 -0.98747504 0
9.0183411 -1.4192001 -0.99134111 0
8.4739647 -3.0560682 1.7848091 0
8.9869499 1.6258265 -0.98841631 0
6.2171226 6.6911349 -0.98907185 0
8.3604202 -3.052979 2.2861111 0
-8.3468122 2.9993522 2.4270802 0
-1.4805236 8.9551744 1.4853263 0
8.6803236 -3.0440066 0.0061993599 0
8.9807606 -1.7298822 -0.98924232 0
6.3015494 6.6299057 -0.98991585 0
8.9832764 1.7301533 -0.98973429 0
-1.4782152 9.0625982 0.60929418 0
8.4648533 -3.0491121 1.9459808 0
8.96873 1.8333678 -0.9892174 0
8.9697857 -1.8334968 -0.98942411 0
8.9263916 2.037668 -0.98644626 0
6.3837357 6.5657363 -0.99033153 0
8.6870604 -3.0478587 0.29908717 0
-8.364274 -3.0028987 2.4305437 0
8.9538078 1.9364756 -0.98891544 0
8.6915779 -3.0504863 -0.27574354 0
6.5350471 6.4220414 -0.988114 0
8.9554844 -1.9367049 -0.98924422 0
8.6853123 -3.0473306 -0.46471071 0
6.4617176 6.4964976 -0.98975706 0
8.4623499 -3.0520906 2.0053566 0
8.934803 -2.0389419 -0.98809993 0
8.6975069 -3.0539 0.28563392 0
8.6871777 -3.0479531 0.56555796 0
8.9173794 -2.1415703 -0.98788261 0
8.8944263 2.2431884 -0.98686254 0
6.6148257 6.3550706 -0.9886812 0
8.8947697 -2.2432506 -0.98693037 0
8.6919861 -3.0507209 -0.55878741 0
8.7085505 -3.0543516 0.044376373 0
8.9220924 2.1423533 -0.98881137 0
8.709197 -3.0545468 -0.2109344 0
6.6923532 6.2855186 -0.98887253 0
8.8772173 2.345799 -0.98726499 0
6.8355265 6.1340451 -0.98678994 0
8.6914244 -3.0491772 -0.72388554 0
8.7030468 -3.0526886 0.5526042 0
6.1714025 6.8047147 -0.98865235 0
6.7669797 6.2128553 -0.98852658 0
6.906714 6.0581775 -0.98611045 0
6.9753513 5.9799671 -0.98504746 0
8.6879835 -3.0481377 0.80589759 0
-1.4810021 9.0712605 0.97740746 0
8.8618965 -2.4488893 -0.98833489 0
8.8891468 -2.3481331 -0.98962784 0
8.8355865 2.5496843 -0.98751223 0
8.866066 2.4497674 -0.98916316 0
-1.4807866 8.9558268 1.7926636 0
8.7478752 -2.8492451 -0.98499286 0
8.839983 -2.5506761 -0.9883883 0
-1.4764516 8.5867825 3.1227832 0
8.6966686 -3.0534174 -0.84508324 0
8.8167887 2.6521845 -0.98847651 0
6.2788692 6.735353 -0.98769712 0
8.7018099 -3.0563772 0.84649992 0
7.0580673 5.9150944 -0.98804355 0
8.6914597 3.0491879 -0.98515785 0
8.8206635 -2.6531169 -0.98925114 0
8.6933479 -3.0497582 -0.98554111 0
7.127934 5.8379331 -0.9878732 0
8.7964077 -2.7544484 -0.98942065 0
8.4678116 -3.0508721 2.2321532 0
7.1988654 5.7617154 -0.98826885 0
8.8003788 2.7554641 -0.99021721 0
8.7370911 -2.9542031 -0.98845363 0
8.6960459 -3.0505736 1.0611324 0
8.738039 2.9544752 -0.98864543 0
8.4711094 -3.0550904 2.2295628 0
8.6898174 -3.0494726 1.1269655 0
8.7726898 2.8559735 -0.98999059 0
8.6030006 3.3483081 -0.98681557 0
8.6409149 3.2513199 -0.9876951 0
7.3372831 5.6060472 -0.98901141 0
8.6794024 3.1543558 -0.98897147 0
7.2743483 5.6892934 -0.99010587 0
8.4483662 3.7343149 -0.9855175 0
7.4023647 5.5247159 -0.98876572 0
-1.4814548 9.0726671 1.3468406 0
8.532093 3.5438626 -0.98692894 0
6.3914537 6.6746683 -0.98862731 0
7.4699016 5.4453316 -0.98941898 0
7.9297523 4.7516627 -0.98571301 0
7.5912256 5.2758989 -0.98821211 0
8.3252621 4.0207624 -0.98607302 0
-8.3442125 2.9988241 2.8021543 0
8.3712997 3.9274902 -0.98666191 0
7.5345402 5.3635898 -0.98963594 0
7.7693729 5.0194473 -0.98770809 0
8.5039234 3.644603 -0.98894811 0
-1.4761143 8.9442263 2.1009007 0
-8.3506413 -3.0001299 2.8036687 0
8.143239 4.3947406 -0.98705864 0
7.8289323 4.9340534 -0.98815763 0
8.5860748 3.452858 -0.99056208 0
7.6587462 5.196218 -0.98969746 0
8.0966454 4.4878545 -0.98780692 0
6.4942274 6.5980306 -0.98688042 0
8.2444744 4.2128019 -0.98820388 0
8.1966591 4.3052759 -0.98810482 0
8.4257622 3.8377399 -0.98931444 0
8.2919035 4.1201005 -0.9885056 0
-8.8130207 2.998704 0.28270757 0
7.7217603 5.1131058 -0.99037194 0
-8.8074379 -2.9967022 0.49047661 0
7.8919659 4.85076 -0.98968542 0
8.0512867 4.5818315 -0.98913598 0
8.7035446 -3.0528393 1.3184493 0
8.4559202 -3.0498888 2.4515119 0
-8.809041 2.997277 0.49039721 0
8.0025654 4.6740608 -0.99001884 0
-8.8213463 -3.0016894 0.28208923 0
8.695652 -3.0528319 1.4107068 0
-8.8020411 -2.9947672 0.69751525 0
-8.8132925 2.9988015 0.69723737 0
-1.4770563 9.0589962 1.7166967 0
8.692915 -3.0496273 1.575532 0
8.4689445 -3.0515454 2.5226505 0
6.6088872 6.5402236 -0.98895037 0
-8.8156633 -2.9996514 0.9040637 0
-8.8173637 3.0002613 0.90406382 0
-8.3733263 2.9986837 2.9329317 0
-8.3808069 -3.0016034 2.9347854 0
-8.8117437 -2.998246 1.110852 0
-8.8136044 2.9989133 1.110898 0
8.4534302 -3.049036 2.6769452 0
-1.4754806 8.9426517 2.4149673 0
8.704298 -3.0578105 1.6978776 0
6.7207346 6.4775 -0.99041438 0
-1.4714565 9.274539 -0.041973114 0
-8.8111286 -2.9980254 1.3178344 0
-8.8162622 2.9998662 1.3180885 0
-1.474504 9.2824297 -0.35576564 0
-1.4759459 9.0555458 2.0904312 0
-1.4781716 9.2919264 0.26961029 0
8.7123356 -3.0554953 1.8407969 0
-8.3433971 2.9986587 3.1836267 0
6.8317361 6.4130421 -0.99186563 0
8.6932983 -3.0514762 1.9845366 0
-1.4781706 9.2919245 0.58178961 0
-1.4765913 9.2878351 -0.67174685 0
-8.8096933 2.9975109 1.5251749 0
-8.3543749 -3.0008881 3.1866283 0
6.9262457 6.3249364 -0.98904061 0
-1.4710035 9.273366 0.89330709 0
-8.8165159 -2.9999573 1.525682 0
8.9312067 -3.0525868 -0.0054637194 0
-1.4722137 9.2764997 -0.98801339 0
8.9219961 -3.0474577 0.56912041 0
8.9408188 -3.0579393 0.28190351 0
8.9407558 -3.057904 -0.29503363 0
7.0308909 6.2514544 -0.9893235 0
8.9190903 -3.0458395 -0.87514699 0
-8.8107815 -2.9979012 1.7333713 0
-1.3518107 9.3192225 -0.98760033 0
-1.4760487 8.9440632 2.7348819 0
8.7122631 -3.0554731 2.1064124 0
8.943718 -3.0595539 -0.58621836 0
-8.815527 2.9996028 1.7338421 0
8.9315834 -3.0527966 0.85688627 0
-1.4754155 9.28479 1.207387 0
8.6893206 -3.0491867 2.2760925 0
8.9150982 -3.0436163 1.1438642 0
7.2229342 6.0818949 -0.98625624 0
-1.2313898 9.3617487 -0.98744655 0
7.1386461 6.1819558 -0.99069655 0
-8.3761873 2.9998002 3.3364544 0
-8.807189 -2.996613 1.9419475 0
-1.4774008 9.0600672 2.469696 0
-1.107394 9.3936815 -0.98581147 0
-1.472393 9.2769642 1.5217156 0
-8.8190899 3.0008802 1.9434259 0
-8.3889208 -3.0047703 3.3401175 0
8.6993427 -3.0515697 2.3727446 0
7.333384 6.0156741 -0.98888052 0
-0.98946214 9.4435806 -0.98746932 0
8.9321117 -3.0530913 1.4359872 0
7.4312868 5.9334836 -0.98857784 0
-8.8233328 3.0024016 2.1544318 0
8.6935863 -3.0516427 2.5746129 0
-0.86633182 9.4776077 -0.98677111 0
-8.8268957 -3.0036793 2.154964 0
9.0759096 -3.0512996 0.29255891 0
-1.4757547 9.2856693 1.84097 0
9.0846214 -3.0537958 0.025477052 0
9.0890493 -3.0550649 -0.24282843 0
7.5335031 5.8564076 -0.98962462 0
-8.8046637 -2.9957075 2.3630323 0
9.0831432 -3.0533726 0.55897236 0
9.0871372 -3.054517 -0.51229125 0
8.9365673 -3.0555718 1.7297153 0
-8.8143501 2.9991808 2.3647242 0
9.075695 -3.0512381 -0.78236508 0
9.0728226 -3.0504148 0.82527959 0
-0.7478683 9.5273428 -0.98895776 0
-1.4757266 9.4970789 0.012194157 0
7.6265268 5.7685075 -0.98871195 0
-1.4780962 9.0622292 2.8539069 0
-9.1339998 -2.9975867 0.23249984 0
-1.4763024 9.5024118 0.23563862 0
-9.1269226 -2.9962544 -0.54203182 0
-9.1409369 -2.9988923 -0.15474164 0
-0.62266278 9.5541506 -0.98764873 0
9.0685902 -3.0492017 1.0923662 0
-9.1496458 3.0005319 0.23222196 0
-1.476922 9.5081472 0.45858729 0
-1.4756026 9.4959307 0.68174136 0
7.718771 5.6799488 -0.98792922 0
-9.138649 2.9984617 0.61898267 0
-9.1584969 3.002198 -0.15567809 0
-9.1438847 -2.9994473 0.61907566 0
8.9292088 -3.0514743 2.0244403 0
-8.8073006 -2.9966531 2.5765736 0
-9.1587906 3.0022533 -0.54486889 0
-1.4759383 9.4990416 0.90408278 0
-1.4787436 9.2934074 2.1642299 0
-0.50083184 9.5931168 -0.98862803 0
-8.8107395 2.9978862 2.5772619 0
-9.1407604 -2.9988594 -0.93417668 0
7.8178282 5.5989051 -0.98904276 0
-9.1452885 -2.9997115 1.0063736 0
-0.37580562 9.6198673 -0.9878968 0
-9.153204 3.0012016 -0.93573129 0
9.1836929 -3.0547688 -0.017125368 0
9.0828342 -3.0532839 1.3631415 0
-1.4762325 9.5017643 1.1265612 0
-1.4757354 9.5689058 0.23368645 0
-9.1531687 3.001195 1.006794 0
7.907743 5.5079541 -0.98831081 0
9.1887426 -3.0574872 0.27811134 0
9.1886463 -3.0574358 -0.31403744 0
9.1791553 -3.0523264 -0.61114895 0
9.1623917 -3.0433037 0.86725748 0
-0.24972844 9.6415596 -0.98663759 0
-1.4750166 9.4905052 1.348753 0
9.1878414 -3.0570018 0.57327068 0
-1.4754987 9.5681324 0.61769938 0
9.1698418 -3.0473139 -0.91009557 0
7.9953837 5.4148402 -0.98737192 0
-1.4721196 9.5570908 1.0015614 0
-9.1480446 -3.0002306 1.3953121 0
8.9380569 -3.0564015 2.3268843 0
-1.476429 9.0570469 3.2424555 0
-0.1278162 9.6817265 -0.98866737 0
9.0948124 -3.0567167 1.6369147 0
0.0017501116 9.6855116 -0.985098 0
8.0891523 5.3279896 -0.98811054 0
-9.1584415 3.0021877 1.3962379 0
-1.4810421 9.2993603 2.492049 0
-1.4769158 9.5080929 1.5729296 0
7.0493889 6.7330165 0.19923425 0
9.1855202 -3.0557525 1.1651266 0
7.0058842 6.7889676 0.013749838 0
6.9274669 6.8701835 0.0132972 0
-1.4696186 9.6377659 -0.38469499 0
7.0853062 6.7091646 0.014027715 0
6.7672396 7.0317879 -0.068568587 0
7.0588212 6.7416439 -0.064291239 0
7.0073552 6.7906003 -0.26219493 0
6.8673472 6.9381123 -0.067258894 0
7.0854998 6.709374 0.28858244 0
6.8498793 6.9527907 -0.26379424 0
6.9295864 6.8726034 0.28828788 0
7.0613489 6.7437549 -0.038412511 0
6.8641539 6.9331961 -0.39672434 0
8.1811466 5.2392116 -0.98872423 0
6.687973 7.1114278 -0.2654705 0
6.5229983 7.2681327 0.010508657 0
6.8509521 6.9540524 0.28810847 0
6.8541603 6.9578233 0.012330413 0
9.0793476 -3.0522847 1.909059 0
6.8588276 6.9507699 0.19868708 0
7.0608959 6.7433481 -0.2758944 0
6.6519108 7.1530237 -0.037044346 0
6.7710938 7.0345178 0.28792775 0
6.8611851 6.953012 -0.037946403 0
6.8546648 6.9468107 0.43451619 0
7.0831017 6.7067885 -0.53839612 0
6.6070528 7.1915326 -0.26657623 0
0.12515485 9.7192774 -0.98666573 0
-1.4757807 9.6544275 0.26370609 0
6.9688745 6.8477907 -0.066238165 0
6.651577 7.1526875 -0.2741971 0
6.9649911 6.8419957 -0.39492297 0
7.0631866 6.747961 0.2623682 0
6.691524 7.1158524 0.28770387 0
7.2512007 6.5515118 -0.062025547 0
6.5722904 7.2325554 -0.072234988 0
6.8617344 6.9535341 -0.2754705 0
6.9286866 6.8715758 -0.54073292 0
7.2491469 6.5551324 0.013938308 0
6.6954055 7.1206894 0.011050105 0
6.7736325 7.0419445 0.26086819 0
6.872293 6.9457259 0.2613554 0
6.7779365 7.042798 0.011484265 0
6.6737385 7.1377277 0.26036513 0
7.0629387 6.745182 0.43376541 0
6.4438424 7.3519058 0.0094674826 0
6.4687386 7.3254366 0.25936186 0
6.7767038 7.0413065 -0.2656154 0
6.6760721 7.1415567 -0.070942998 0
6.850637 6.9536815 -0.54210311 0
7.400435 6.3886399 0.014438629 0
6.5272689 7.273778 -0.26803267 0
7.1727257 6.6379271 0.28844726 0
6.5272388 7.2737384 0.2872926 0
7.0539503 6.7371125 0.6693399 0
7.0969286 6.7216954 -0.26303399 0
6.866694 6.9371066 0.58986509 0
6.9399738 6.8844657 -0.26441914 0
7.3282614 6.4752235 0.013978243 0
-1.4802771 9.666585 -0.061356127 0
7.0890956 6.7132506 0.56290984 0
9.1758575 -3.0505521 1.4620891 0
7.1670856 6.6320186 -0.53877664 0
7.1633658 6.6577716 -0.06384021 0
6.7709608 7.0343566 0.56346846 0
6.6444244 7.145484 0.66969657 0
6.6137204 7.200089 0.28739297 0
6.6694484 7.1306906 0.59089088 0
6.6071033 7.1915975 0.56381905 0
7.4014239 6.3895907 0.28870022 0
6.8547201 6.9468632 0.66943228 0
7.1630297 6.6573 0.26266265 0
7.0210953 6.8058453 0.28809822 0
7.1605144 6.65377 -0.39110023 0
6.9657893 6.8431864 0.58944929 0
7.3282256 6.4751878 -0.26161689 0
7.2552195 6.5569854 0.26313829 0
7.3433466 6.4525485 -0.38637614 0
-1.4763865 9.5710344 1.388309 0
6.8542814 6.9579659 0.56338108 0
6.7706342 7.0371814 0.59043348 0
-1.4754648 9.653574 0.58767796 0
6.9743519 6.8559642 0.26168203 0
6.5734868 7.2345829 -0.40575022 0
6.7739472 7.0379705 -0.54398412 0
7.2555571 6.5287642 0.66899157 0
6.6614046 7.1625862 0.19819307 0
7.0141726 6.7981639 0.5631212 0
7.3288345 6.47579 0.28855681 0
7.2541556 6.5602312 0.28843284 0
6.6919556 7.1163902 0.56370807 0
6.6927772 7.117414 -0.54525459 0
7.2670231 6.5384789 0.43293059 0
7.3215618 6.468595 0.56266451 0
6.5774069 7.2412252 0.25968075 0
6.4495564 7.3599558 -0.037830889 0
7.2547169 6.5563011 -0.38902062 0
7.2559385 6.5620461 -0.26253593 0
6.9367423 6.8807759 0.56330156 0
7.3482585 6.4590416 0.2635386 0
7.1575646 6.6496291 0.58857286 0
6.6204247 7.208693 0.0098699331 0
8.2677221 5.145184 -0.98843277 0
6.4487152 7.3585429 0.28692484 0
7.4381528 6.3580847 0.26398087 0
7.1812992 6.6469092 -0.26332724 0
-1.4769588 9.5084896 1.7970481 0
7.0706997 6.758832 -0.39411104 0
7.3518195 6.4637485 -0.061488867 0
-9.1459408 -2.9998343 1.7862236 0
7.018827 6.8033285 -0.54181898 0
7.436451 6.3559008 -0.38463002 0
7.0603151 6.7438054 -0.72260797 0
7.2781897 6.5479407 -0.041651845 0
7.3989925 6.3872528 0.56264079 0
6.6611691 7.1623492 0.4339354 0
7.4084654 6.3963604 -0.26182747 0
7.4702406 6.3294616 -0.042535365 0
-1.4753392 9.6532335 -0.71366072 0
6.7803197 7.0525694 -0.40157193 0
6.5679111 7.2251348 -0.73983836 0
7.0854306 6.7092996 -0.81846642 0
6.4699311 7.3275251 0.59208 0
6.8697119 6.9417529 -0.72977114 0
6.3657479 7.43819 -0.2712642 0
7.2797041 6.5492229 0.19554567 0
7.1874852 6.6533899 0.012486815 0
7.4619427 6.3228297 -0.51952946 0
7.0680313 6.754971 0.58918047 0
7.486743 6.3155737 0.013789535 0
7.1567163 6.648438 -0.71982133 0
6.6817474 7.1508656 -0.40434122 0
6.9677334 6.8460879 -0.72659492 0
6.6157308 7.2026691 -0.54759747 0
6.4536104 7.3642802 -0.27593017 0
6.4534283 7.3649616 -0.27056861 0
-9.1532249 3.0012054 1.7871337 0
7.4677515 6.3274717 0.43195689 0
6.4812231 7.3473005 -0.075039566 0
7.0100951 6.7936401 0.83797979 0
6.4565058 7.3673687 0.19783568 0
0.25022566 9.7450781 -0.98723423 0
6.931499 6.8747873 0.83842349 0
7.4745312 6.33289 0.19463861 0
7.5340004 6.2656617 -0.059168518 0
6.6885529 7.1121502 0.83977604 0
7.256897 6.5630221 -0.54036164 0
6.6895041 7.1133356 -0.82594275 0
7.4871335 6.3159385 0.28849876 0
6.4485612 7.3583331 -0.5504573 0
7.1800375 6.6455874 0.56313741 0
7.256289 6.5624032 0.56302023 0
7.2824936 6.5515876 -0.28068089 0
7.2571483 6.5596123 0.58831847 0
7.3425584 6.4515061 -0.71383476 0
7.0897942 6.7140036 0.83771801 0
6.853406 6.9569368 -0.82338274 0
6.9336095 6.8771977 -0.82212186 0
6.2684145 7.5293674 0.25793588 0
7.5631924 6.2330484 0.01377213 0
7.4884872 6.3172035 -0.26214522 0
6.3756576 7.4390163 0.25842881 0
6.4788194 7.343091 -0.40980208 0
6.7729135 7.0367198 -0.82487512 0
6.4494143 7.3594952 0.56449568 0
7.3487611 6.4597058 0.58787584 0
6.5783186 7.2427702 0.59175038 0
7.4803667 6.309617 0.56273961 0
6.6074376 7.1920266 0.84042263 0
6.4543695 7.3650899 0.43382728 0
6.854229 6.9579039 0.83907509 0
7.2540808 6.5554347 -0.7175746 0
6.6088448 7.1938324 -0.82801878 0
7.4770708 6.3349199 -0.28214979 0
6.3788629 7.4448204 -0.07686919 0
7.3354812 6.4823661 -0.54015702 0
6.5369964 7.2866364 -0.5498876 0
6.3742223 7.4500852 0.0074365139 0
7.4508572 6.3743882 -0.060935199 0
6.6772809 7.1435394 -0.73815441 0
6.3726254 7.4478436 0.28644013 0
6.2878828 7.526062 0.0067760944 0
-8.8299398 3.0034776 3.0318031 0
7.5655746 6.2352114 -0.26224691 0
6.2733102 7.5385408 -0.078546584 0
6.2862649 7.5237207 -0.27339542 0
7.3249378 6.4719348 -0.8178463 0
7.5660896 6.2356787 0.28843391 0
7.0635538 6.7457342 0.90409827 0
7.0619907 6.7462301 0.91598332 0
6.5688338 7.2266989 0.92327845 0
7.174315 6.6395926 -0.82007313 0
8.9412937 -3.0582039 2.6332364 0
7.0194058 6.8039708 -0.82247627 0
6.2873611 7.5253077 0.28618813 0
7.2510252 6.557044 -0.81913209 0
6.4734993 7.3337746 -0.74555457 0
6.540144 7.2907972 0.56448066 0
-8.8336411 -3.0048616 3.0327158 0
-1.4744806 9.2823696 2.8190563 0
6.3743191 7.4365921 0.59292281 0
7.5408459 6.2741923 0.26401758 0
6.2029305 7.6047988 0.005869627 0
6.7800941 7.0454092 0.84009314 0
6.6549244 7.1560593 0.90409791 0
7.2646112 6.5364356 0.90409863 0
7.6449609 6.1551714 0.01330018 0
7.4023695 6.3905001 0.83710194 0
7.417438 6.4049869 -0.54072767 0
7.003459 6.7862768 1.1130857 0
7.2513599 6.5517292 0.91343963 0
7.4408836 6.3615894 -0.71243012 0
7.628336 6.1719527 0.26443708 0
7.4914184 6.3199415 -0.54013783 0
7.4045577 6.3926034 -0.81810153 0
6.5321879 7.2802806 -0.83148503 0
6.2492495 7.5702891 -0.039755225 0
6.7749705 7.0440707 0.92072916 0
7.5343809 6.2661362 0.58720207 0
-1.4786777 9.662261 0.91251445 0
6.7839289 7.0583038 -0.73615336 0
7.4473591 6.3698993 0.58768058 0
7.1605821 6.6538649 0.91498876 0
7.5411386 6.2745571 -0.38472909 0
6.2491188 7.5701418 0.19711852 0
6.4430666 7.3530331 0.9040978 0
6.3728404 7.4481449 0.5649662 0
6.2483263 7.5692468 -0.27748406 0
6.8681431 6.9596286 0.90409839 0
7.1802826 6.6458445 0.83836639 0
6.1700587 7.6387873 -0.080685794 0
7.4749765 6.3332458 0.66794086 0
6.5339713 7.2826376 0.84184432 0
6.3743505 7.4502649 -0.55426359 0
6.6769204 7.1429482 0.92242825 0
7.5520186 6.2229052 0.83683693 0
7.629302 6.1731219 -0.38271827 0
6.8516998 6.9439912 1.1386664 0
6.9736042 6.8548489 0.91808331 0
6.9287329 6.8716292 1.1143262 0
6.8768559 6.9527507 0.91957355 0
9.1705112 -3.0476739 1.7616158 0
7.6805315 6.1237407 -0.046272397 0
6.4502149 7.3605852 0.84249675 0
6.2882218 7.5265532 -0.55585694 0
6.2879987 7.5262294 0.56523132 0
-1.4760497 9.5000715 2.0211248 0
6.4601116 7.3712149 0.66889489 0
6.1707826 7.6401911 0.25701427 0
7.0876613 6.7117043 1.1132417 0
7.649684 6.159337 -0.26330423 0
7.7226582 6.0734358 0.013037562 0
6.4517231 7.3626394 -0.83432817 0
8.3636675 5.0596981 -0.99043918 0
6.278614 7.51265 -0.8377707 0
9.0816402 -3.0529418 2.1880569 0
7.4383869 6.3583856 0.91127181 0
0.37540889 9.7709961 -0.98810744 0
7.6437664 6.1541181 -0.54030311 0
6.2746797 7.5411072 0.59369636 0
6.6900415 7.1140056 1.1171596 0
7.3503165 6.461762 0.91275823 0
7.4678116 6.3275199 0.90409935 0
7.3388577 6.4857063 0.83820283 0
6.2522593 7.5736904 0.43298376 0
-1.471895 9.5563574 1.7747736 0
7.6851931 6.1272516 0.19181561 0
7.6537895 6.1629581 0.28813958 0
7.7240849 6.0746579 0.28822482 0
6.1206446 7.6885934 -0.27731228 0
6.3687167 7.4423571 0.84346604 0
6.2041497 7.6066184 -0.55817658 0
7.4889421 6.3176284 -0.81963396 0
7.0625172 6.7448034 1.1391246 0
7.7256947 6.0823336 -0.058161259 0
7.6852732 6.1273122 -0.28650105 0
6.4771686 7.3402004 0.92601097 0
7.5754247 6.2441525 0.56318605 0
8.4369888 4.9537392 -0.9879024 0
6.7752314 7.039525 1.1168132 0
7.5770936 6.2456675 -0.54169816 0
6.2125516 7.6191568 -0.27666992 0
6.2056422 7.6088457 0.5656147 0
7.6429248 6.1896081 -0.059682488 0
6.5261917 7.2723541 1.1192763 0
6.2131858 7.6201034 0.28554869 0
6.2473631 7.5681577 0.66884053 0
6.8585753 6.9630132 1.1163683 0
6.3723168 7.4474101 -0.83783686 0
6.0351219 7.7662902 0.19647288 0
7.6810808 6.1241546 -0.52674544 0
6.1180315 7.6845708 -0.56034231 0
7.2698755 6.5762348 0.83901191 0
7.5431066 6.277009 -0.71206975 0
6.7676702 7.0324721 1.2508943 0
6.6563444 7.1574893 1.1388929 0
7.4941707 6.3225131 0.83814311 0
7.7288094 6.0859952 0.26446009 0
6.614265 7.2007885 1.1190028 0
7.801393 5.9923472 0.28812087 0
6.0692997 7.7467308 -0.083347261 0
7.3278942 6.4748602 1.1129761 0
6.126308 7.6973114 0.28525889 0
7.6361904 6.1814585 0.58717811 0
-1.4749644 9.6522207 1.2374432 0
7.6535001 6.1627026 0.56325364 0
0.50315082 9.7800179 -0.98656356 0
6.0379119 7.7730446 0.0031859875 0
7.7337894 6.0829735 -0.26447415 0
9.359108 -3.047735 -0.054951549 0
7.1776342 6.6430697 1.1142628 0
6.6693797 7.130578 1.2536623 0
6.1206751 7.6886401 0.56596053 0
7.6900997 6.1309471 0.42938697 0
7.2546148 6.560699 1.1137705 0
7.155292 6.6464391 1.2417126 0
6.130116 7.7031741 0.0036678314 0
6.8690615 6.9407516 1.2489123 0
6.0372686 7.7720227 -0.27953202 0
7.2698603 6.5408831 1.1396422 0
7.8078542 5.997725 0.012186527 0
6.173933 7.6463041 0.59450567 0
7.6333075 6.1779695 -0.70963371 0
7.7230353 6.0792074 0.58678436 0
7.8056579 5.9958968 -0.26436245 0
6.0376821 7.7726793 0.28498399 0
6.3614607 7.4321723 1.1220176 0
7.8179374 5.9870968 -0.05754143 0
7.8018599 5.9687366 -0.70347476 0
-9.7529879 -0.95003051 -0.9858768 0
7.0649691 6.7505398 1.2446291 0
6.969871 6.8492775 1.2470899 0
6.2923918 7.5325866 0.84503937 0
7.4089861 6.3968611 1.1132905 0
7.6857128 6.1276426 0.66700017 0
7.809689 5.9776778 0.58643103 0
7.5411301 6.2745466 0.91116548 0
7.6463828 6.1564255 0.83819914 0
7.73422 6.0923553 -0.38320088 0
7.2526321 6.5534616 1.2401123 0
7.7115855 6.0657477 0.90841997 0
6.0735545 7.7552843 0.2559886 0
7.732523 6.0818887 0.56336904 0
7.7229338 6.0790882 -0.70740032 0
7.8794179 5.9103665 0.28797543 0
6.2746325 7.5410194 0.93009377 0
6.4522367 7.3633389 1.1217923 0
7.8204789 5.9899998 0.26468301 0
6.205462 7.6085773 -0.84381294 0
7.0569363 6.7397928 1.3740563 0
6.4514866 7.3620148 1.1390085 0
6.3824339 7.4512882 0.92865634 0
7.6286497 6.1723328 0.90990794 0
-9.7429914 -1.1144404 -0.9847939 0
5.9618139 7.8440781 0.25545216 0
7.7194333 6.0706725 0.83813977 0
6.0483561 7.7821383 -0.042526245 0
7.902771 5.8841057 0.26511085 0
6.0366306 7.771009 0.56638145 0
7.007586 6.7908559 1.3911572 0
6.2067237 7.6104598 0.84588742 0
8.5204821 4.8570662 -0.98783672 0
6.0435162 7.7763414 0.43216467 0
7.4712448 6.3302641 1.1401474 0
5.9524584 7.8545399 0.28455257 0
5.9525108 7.8546257 -0.28177059 0
6.8574905 6.9494977 1.3738623 0
7.8893337 5.9138546 -0.050446749 0
5.9551892 7.8590198 0.0016386509 0
6.1686511 7.6360559 0.9319247 0
5.9652891 7.8513222 -0.085879803 0
6.850975 6.9540787 1.3935671 0
7.7391977 6.0876079 -0.54378831 0
6.9317493 6.8750739 1.3927035 0
7.8863149 5.9159422 -0.26538181 0
7.6547627 6.1638165 -0.8227061 0
7.3487506 6.4596915 1.2385597 0
6.5772638 7.240983 1.2578003 0
-9.7499456 1.1145401 -0.98564792 0
-9.1397753 -2.9986737 2.179697 0
6.0710764 7.7503033 0.59531415 0
0.63008809 9.7934084 -0.98601186 0
7.8910036 5.9150391 0.188954 0
7.8241353 5.9941754 -0.3818382 0
7.5845184 6.252408 -0.82377172 0
6.040884 7.7777667 -0.56487989 0
6.6527224 7.153842 1.3737032 0
9.3767185 -3.0532067 -0.29882979 0
7.7281632 6.0781531 -0.82257807 0
7.8878574 5.9128079 0.42794681 0
6.1226997 7.6917572 0.8470186 0
6.2560797 7.5780072 0.90409887 0
7.4414124 6.362268 1.2367361 0
7.0934811 6.7179785 1.39167 0
7.4946203 6.3229332 1.1142795 0
6.6091251 7.1941924 1.3976779 0
7.8933659 5.9167147 -0.29161167 0
6.2870684 7.5248837 1.1249189 0
7.9144993 5.8971181 -0.0573771 0
7.8152409 6.0038733 -0.54428798 0
6.7757897 7.0402002 1.3957391 0
7.8954625 5.923337 0.011109114 0
6.693645 7.1184955 1.3968248 0
5.9522667 7.8542256 -0.56713068 0
-1.4758375 9.498107 2.246942 0
9.3848238 -3.0557249 0.18384051 0
7.8157759 6.0043187 0.56360567 0
6.4782658 7.3421211 1.2611043 0
7.8883762 5.9131761 -0.53276885 0
7.1738296 6.6390839 1.3913758 0
6.2436867 7.5640035 1.1392276 0
6.0332651 7.7640653 0.90409875 0
6.0647154 7.7375145 0.93420768 0
7.6431532 6.1535769 1.1139424 0
7.9132943 5.8957815 -0.38058329 0
5.8572397 7.9505396 -0.088171601 0
7.6897621 6.130693 0.90410089 0
7.8886909 5.9178629 -0.54456288 0
7.5731792 6.2421145 1.1145453 0
7.3282509 6.4752126 1.3903081 0
-9.7450781 1.2789776 -0.98548388 0
-9.7452707 -1.2789831 -0.98550749 0
-9.7227211 -1.4426591 -0.98345947 0
6.3755984 7.4389086 1.2640896 0
7.8894787 5.9184995 0.56365025 0
7.886795 5.912055 0.66618347 0
7.9671125 5.8356442 -0.26653349 0
7.2729387 6.5434909 1.3756297 0
5.9567814 7.8616314 0.56699228 0
6.129415 7.7020946 -0.84954286 0
7.9710131 5.838706 0.010775805 0
5.8701968 7.9428573 -0.28468597 0
7.9677939 5.8361793 0.28757572 0
7.5368881 6.2692604 1.2355349 0
-9.157589 3.002027 2.1825683 0
6.038939 7.7746763 -0.8515079 0
7.2557592 6.5618639 1.3915622 0
7.9994874 5.794754 0.26512277 0
6.0513744 7.7857533 0.66797459 0
6.0402756 7.7768002 0.84844637 0
6.270844 7.5339193 1.2670224 0
5.8738494 7.9490466 -0.00021469593 0
5.8532643 7.9419394 0.59668589 0
9.3896809 -3.0572338 0.42412543 0
7.8101053 5.999599 0.83936691 0
6.8503742 6.9427299 1.6086955 0
6.5348783 7.2838364 1.4008565 0
5.860322 7.9572086 0.2544204 0
7.1518731 6.6416402 1.5701964 0
7.9143014 5.8968987 0.58658957 0
7.8132529 6.0022187 -0.82511449 0
7.6792336 6.1227632 1.1410127 0
9.3821211 -3.0548849 0.66442871 0
9.1769981 -3.0511658 2.0666599 0
8.007534 5.8034296 -0.057043493 0
8.6094856 4.7649608 -0.98919415 0
6.4549971 7.3657598 1.3744133 0
7.8831835 5.9134111 0.83946323 0
6.4522891 7.3634105 1.4026306 0
6.2784481 7.5124097 1.4051461 0
7.8848405 5.9147501 -0.82509446 0
7.2481875 6.5474081 1.5677519 0
8.0436192 5.7515736 0.28743243 0
6.1209993 7.6891389 1.1287692 0
6.2112684 7.6172419 1.1278682 0
5.8766432 7.9537811 0.28374779 0
8.0484409 5.7552485 0.010242224 0
9.0818901 -3.0530133 2.4711883 0
7.4765272 6.3344855 1.3767667 0
7.4888391 6.3175321 1.3911042 0
6.6493006 7.1503954 1.608804 0
5.9731617 7.867733 0.59640574 0
5.9549174 7.8585739 0.84973383 0
7.9709558 5.8386612 0.56389427 0
7.8858604 5.9113917 0.90410173 0
6.6721606 7.1351395 1.5883465 0
6.8717117 6.9448318 1.5816216 0
7.0622654 6.7445779 1.6101749 0
-1.4780664 9.6606083 1.5660262 0
5.9552975 7.8591971 -0.85591197 0
7.9162679 5.8990808 -0.70641065 0
7.0650854 6.7507086 1.575038 0
7.823945 5.9939575 0.9094193 0
6.7735186 7.0417638 1.5851536 0
8.008831 5.8048267 -0.38035053 0
9.3984652 -3.0599632 -0.54550815 0
7.4182124 6.4057312 1.3922596 0
7.6347947 6.179769 1.2348726 0
7.7194691 6.0750155 1.232609 0
-9.7453804 1.4436328 -0.9862442 0
7.2397795 6.5455956 1.6679902 0
9.3861485 -3.0561366 -0.78900719 0
5.8750381 7.9510608 -0.57244933 0
7.9769006 5.843328 -0.54733187 0
0.75494051 9.8248529 -0.98862815 0
6.9725299 6.8532457 1.5790529 0
6.1712036 7.6410074 1.2712703 0
5.9649167 7.8505449 0.93723452 0
6.5736394 7.2348413 1.5926223 0
8.0915289 5.6961904 0.4258492 0
6.3740206 7.4498019 1.4055936 0
8.0991592 5.7012787 -0.055339515 0
5.8657451 7.9353142 -0.85895455 0
6.8516951 6.9549251 1.6743643 0
5.8766913 7.9538627 0.56765378 0
-9.7251911 -1.6073248 -0.98477483 0
6.0375571 7.7724805 1.1309793 0
7.7373323 6.0860095 1.1162822 0
7.0905423 6.7148104 1.6710567 0
6.9333134 6.8768597 1.6734505 0
8.0476036 5.7546101 -0.54753381 0
7.3486705 6.4595861 1.5664787 0
8.0942287 5.7033224 -0.37900305 0
7.5708647 6.2400131 1.392065 0
8.0577869 5.7623706 -0.26888621 0
7.0140743 6.7980552 1.6726148 0
5.8493481 7.9995198 -0.046585858 0
8.0106697 5.8068094 0.58656418 0
8.6889057 4.6647582 -0.98885417 0
8.0492401 5.755857 0.56409085 0
7.8100824 5.9995799 1.116266 0
