# .PCD v0.7 - Point Cloud Data file format
VERSION 0.7
FIELDS x y z intensity
SIZE 4 4 4 4
TYPE F F F F
COUNT 1 1 1 1
WIDTH 1457
HEIGHT 1
VIEWPOINT 0 0 0 1 0 0 0
POINTS 1457
DATA ascii
-2.5658791 -4.1416616 1.3281112 0
4.0303545 3.0252953 0.32610893 0
-1.8174883 -4.1674285 2.1987309 0
1.3218261 -4.2405262 2.4035842 0
1.684411 -4.2390437 2.1680517 0
3.5267961 3.4974744 0.91485298 0
3.1742444 3.8657277 0.69969296 0
3.2886779 3.7330604 0.8722921 0
-1.93968 -4.1644125 2.0993731 0
3.6432819 3.3770978 0.91606247 0
-0.23818392 -4.1949291 2.804286 0
-2.4200995 -4.1678743 1.5147692 0
3.5863006 3.4385769 0.91535234 0
3.9343414 3.0533772 0.84994483 0
-1.0505005 -4.1843109 2.6292114 0
2.7177403 -4.2589316 0.040884137 0
3.7002699 3.315943 0.91664678 0
-1.4332162 -4.1809435 2.4489405 0
1.2976439 -4.2349143 2.431978 0
2.2943842 -4.2595496 1.4580698 0
-2.3006914 -4.1613822 1.7099537 0
-1.3131113 -4.1828465 2.5132234 0
-2.8559315 -4.1419759 0.47534198 0
2.9286098 4.1106052 0.26339054 0
-2.2512543 -4.1699758 1.7570828 0
1.5034156 -4.2480707 2.2887545 0
5.0074143 -0.68608528 0.013442159 0
-2.1781101 -4.1534214 1.8843634 0
-2.0610933 -4.1587152 2.0011625 0
0.49256229 -4.2131181 2.7487085 0
-0.63712025 -4.1843653 2.7629981 0
3.7182062 3.3149192 0.85780495 0
1.8204514 -4.2499828 2.043277 0
4.0216975 3.0211043 0.50176483 0
-1.7429599 -4.1674809 2.2697239 0
3.0348442 4.0249491 0.3857969 0
-1.6938509 -4.1715631 2.2997744 0
2.859268 4.1612701 0.26211655 0
3.373657 3.6467695 0.93816292 0
-0.18116212 -4.2038031 2.8038423 0
3.5553548 3.4455962 1.0270844 0
2.9830272 4.0645585 0.38818955 0
3.4108198 3.6199682 0.91305465 0
3.8040426 3.2035604 0.91630173 0
3.1123016 3.9213681 0.71423 0
3.2868402 3.73406 0.91184807 0
1.5557818 -4.2322226 2.291307 0
-0.38541412 -4.1921253 2.8039584 0
-0.78284204 -4.1722298 2.7503338 0
-1.0540721 -4.1922112 2.6270626 0
3.223747 3.7901614 0.91121125 0
-2.3141723 -4.1590619 1.7143524 0
0.057445258 -4.2063541 2.8098989 0
2.6514249 -4.2709527 0.56766385 0
3.0259566 4.0166459 0.55251396 0
0.88969946 -4.2181644 2.6478596 0
3.1960018 3.82376 0.87414038 0
3.3511341 3.6798108 0.91218704 0
-1.1268584 -4.1759858 2.6260591 0
1.5371445 -4.2399487 2.2954166 0
2.9930406 4.0526919 0.48086035 0
-0.3118872 -4.2009268 2.805964 0
3.8160954 3.1962121 0.91722733 0
-2.0611281 -4.1634588 2.0094192 0
3.4663472 3.5425208 1.0287921 0
3.418721 3.5882587 1.0298843 0
-0.090345621 -4.2106872 2.809217 0
1.9597772 -4.257421 1.9145508 0
1.0878339 -4.2367501 2.549227 0
4.9931841 -0.83727652 0.018702507 0
3.9977856 3.0245528 0.71083683 0
-1.5075614 -4.167799 2.4497852 0
3.5154696 3.4973462 1.0274831 0
2.9356284 4.10814 0.38899875 0
-1.9421459 -4.163702 2.1310863 0
-2.9196742 -4.1263041 0.31505716 0
-1.5692027 -4.1732302 2.4025412 0
3.0669632 3.9670401 0.71475768 0
-1.9839516 -4.1661911 2.088726 0
3.2507305 3.7853317 0.87193733 0
3.6551142 3.3538425 1.0240145 0
-0.16423559 -4.2117982 2.8090189 0
-2.7909555 -4.1547914 0.77857602 0
1.9701663 -4.2538753 1.9209099 0
3.8336921 3.1516171 1.0193008 0
-2.6408772 -4.1491108 1.2165998 0
0.2802166 -4.2047157 2.8143692 0
0.13216019 -4.2139421 2.8132873 0
-1.6126891 -4.182929 2.3650815 0
-2.3069797 -4.1564951 1.7586817 0
2.3164868 -4.2520461 1.4987702 0
2.0137661 -4.2450871 1.9039859 0
3.5047052 3.4951324 1.0968385 0
-0.45932069 -4.1980262 2.8061762 0
2.3981595 -4.2580934 1.3516625 0
2.8704643 4.179637 0.038729787 0
-0.017177105 -4.2137647 2.8205454 0
-0.53276205 -4.1905699 2.8050954 0
-2.5021837 -4.1502638 1.4939407 0
1.2891896 -4.2332706 2.4770741 0
1.3814423 -4.2430983 2.4112153 0
3.929204 3.0742071 0.91769964 0
3.7517495 3.2578492 1.0210427 0
2.8956833 4.1591854 0.22035444 0
-2.1807199 -4.1655617 1.9039292 0
3.0539963 3.9902856 0.69550472 0
3.6161697 3.4069543 1.0244435 0
-1.8262559 -4.1630964 2.2512844 0
2.9839041 4.0654016 0.55192786 0
-1.1844966 -4.1785321 2.6216178 0
2.9304442 4.1135197 0.47808468 0
2.1506166 -4.2581582 1.7263923 0
3.1053374 3.9152257 0.8752864 0
-2.7138448 -4.1503797 1.0726917 0
0.20674342 -4.2158403 2.8154373 0
1.7946178 -4.2503309 2.1120958 0
3.7085431 3.3091698 1.0220369 0
3.0227594 4.013659 0.71490586 0
1.883505 -4.2446065 2.0479398 0
-2.4846175 -4.1555076 1.5229329 0
3.3334327 3.6860645 1.0307943 0
2.7351882 -4.2695265 0.22829413 0
-1.6623524 -4.1712847 2.3674481 0
-2.4201515 -4.1606474 1.6129341 0
3.6543691 3.3513422 1.0899251 0
5.0196924 0.76112729 0.011018395 0
2.1040184 -4.2634978 1.7816373 0
-1.9952661 -4.1526933 2.1340599 0
2.7295887 -4.2633133 0.39593184 0
3.3840058 3.6431198 1.029512 0
1.536159 -4.2521505 2.3116045 0
-1.4430894 -4.1742744 2.5075159 0
3.9563873 3.0528674 0.90649104 0
2.3287039 -4.2474599 1.5270255 0
3.161118 3.8785338 0.87307328 0
2.6518836 -4.2714763 0.72644705 0
5.0229673 -0.76101005 0.0101403 0
-2.579381 -4.1615229 1.3565172 0
3.2424076 3.7961633 0.94225746 0
3.039465 3.968601 0.9076919 0
1.7518138 -4.2446022 2.1757178 0
3.8038988 3.2111208 1.0190871 0
4.9991198 0.91238815 0.017400265 0
-1.2031174 -4.1791821 2.6298566 0
-2.1188293 -4.157793 2.0131717 0
2.8955164 4.1590157 0.3872149 0
2.4302628 -4.2631626 1.323329 0
-0.60683596 -4.1938806 2.8071876 0
4.0295739 3.0249171 0.67147571 0
3.4013274 3.6081398 1.1194081 0
3.5018368 3.4881396 1.1880207 0
2.8056753 4.2390261 0.034665823 0
0.88784385 -4.2387161 2.6623333 0
-0.91695344 -4.1808686 2.7428148 0
2.4862657 -4.2694173 1.2000312 0
4.0949063 3.0001788 0.2833221 0
3.0627086 3.9631779 0.87526089 0
-2.8656073 -4.1538577 0.62256408 0
-2.9251003 -4.1327763 0.46680713 0
0.35628429 -4.216301 2.8197107 0
1.3672709 -4.2235408 2.4797072 0
2.5639925 -4.2656751 1.0448539 0
2.528528 -4.2690158 1.1156737 0
4.1014628 3.0061302 0.066837788 0
2.731185 -4.2824769 0.25447893 0
3.6388178 3.3721449 1.1207645 0
-1.8230286 -4.1684909 2.2735016 0
3.1756775 3.8677394 0.9081763 0
3.8008611 3.2019308 1.082983 0
3.5973716 3.3950284 1.1865045 0
-1.9405435 -4.1573653 2.1968634 0
0.15030241 -4.2194867 2.8376408 0
3.244642 3.7804096 1.031808 0
2.9417343 4.114181 0.55117601 0
1.6204646 -4.2392488 2.2997119 0
-2.8543448 -4.1400275 0.77411586 0
2.9943275 4.0546737 0.69294071 0
2.8884993 4.1518722 0.55329019 0
2.8049703 4.2378311 0.25478339 0
2.8530583 4.2077727 0.21894658 0
1.4391816 -4.2402258 2.4175181 0
3.1449931 3.864717 1.0337903 0
-2.3954604 -4.1490641 1.7154875 0
3.2953351 3.7382863 1.0306354 0
3.8593793 3.1220267 1.1222658 0
3.4658499 3.5549104 1.119436 0
-2.7908676 -4.1546798 0.9240467 0
-2.3005383 -4.165648 1.8068945 0
3.1120687 3.9246085 0.90730006 0
2.7933085 4.2381382 0.39029455 0
-2.5598931 -4.1284633 1.5230358 0
3.9938407 3.0208676 0.91680515 0
3.9426665 3.0575552 1.0146377 0
2.8699019 4.1787143 0.47435629 0
2.848105 4.2025838 0.38760328 0
-2.2457113 -4.1610274 1.8894814 0
1.6233747 -4.2423801 2.3009927 0
2.249253 -4.2624774 1.6433768 0
2.7266016 -4.2744503 0.4728328 0
0.97151411 -4.2348571 2.655838 0
-2.0635376 -4.1594386 2.0911345 0
-2.2311106 -4.1627913 1.9052083 0
-2.3683817 -4.1506486 1.7611791 0
3.199023 3.8262746 1.0323489 0
3.901794 3.1120949 1.0156512 0
0.6818316 -4.2208018 2.7679176 0
3.7002959 3.3159711 1.1207631 0
3.4639287 3.5408368 1.1880972 0
-1.817431 -4.1678061 2.2975326 0
2.9319236 4.104475 0.71530855 0
1.7695606 -4.2499294 2.1829627 0
2.3870096 -4.2441993 1.4994264 0
3.6506293 3.3510866 1.1853567 0
3.587899 3.4404023 1.1198626 0
3.3805177 3.6510658 1.0997996 0
-1.5871308 -4.1742182 2.4547749 0
-0.68113005 -4.1969581 2.8095043 0
2.8045259 4.2502322 0.21957254 0
3.0982311 3.9345391 0.94793189 0
3.3709087 3.6334312 1.1892278 0
-2.4450059 -4.1656971 1.6295506 0
-2.5393639 -4.1526504 1.5161105 0
-2.4935575 -4.13797 1.6298018 0
2.0333719 -4.2636876 1.920271 0
5.0301924 0.83648187 0.0087839365 0
3.3502164 3.678633 1.1181718 0
2.6483767 -4.2674713 0.88427085 0
2.80288 4.2342892 0.47226822 0
2.882463 4.1457267 0.71620965 0
-2.5677319 -4.1454167 1.4945357 0
-2.0603225 -4.1669588 2.0988872 0
0.43256125 -4.2250195 2.8245816 0
1.4950279 -4.2323532 2.4226005 0
3.5637012 3.4510605 1.186397 0
-1.0532697 -4.1760311 2.7334585 0
1.0478933 -4.225872 2.65801 0
3.7609763 3.2589357 1.1207607 0
0.31857896 -4.2167277 2.8542233 0
-2.1813715 -4.1554832 2.0008664 0
3.4233656 3.5915928 1.1882974 0
0.58125114 -4.2084556 2.826015 0
2.4733853 -4.2538295 1.3508911 0
3.5342948 3.5062892 1.119084 0
2.9911022 4.0723219 0.71215385 0
0.50713718 -4.2185626 2.8256478 0
-1.6936529 -4.1726556 2.3996744 0
2.736558 -4.2710462 0.55665952 0
4.1218004 2.9927394 0.31026721 0
5.0210209 -0.91223145 0.011531711 0
4.025722 3.0230527 0.84152722 0
2.7549343 4.2914352 0.22039115 0
-1.7204943 -4.1776972 2.3753512 0
2.8638299 4.1687536 0.68962097 0
3.7041919 3.306581 1.1841615 0
2.3000119 -4.2646022 1.606627 0
1.880329 -4.2484026 2.1158078 0
1.952372 -4.2463708 2.0541804 0
4.1310096 2.9970357 0.12838864 0
2.1743205 -4.2608638 1.7850552 0
-2.7143791 -4.1510758 1.2141937 0
2.7445326 4.3058524 0.028410077 0
-2.8505805 -4.1354046 0.92130357 0
-2.6594384 -4.1525226 1.3272539 0
3.7507491 3.2572732 1.1833612 0
-2.7836905 -4.1456041 1.0692652 0
-2.1790516 -4.1549911 2.0176373 0
3.8195672 3.1997468 1.1208532 0
-0.75534594 -4.196507 2.8111606 0
-2.0569346 -4.1559911 2.1404157 0
-1.280334 -4.1846952 2.6344671 0
-1.3122751 -4.1859231 2.6169851 0
2.9363897 4.1229658 0.68970859 0
3.1099684 3.9193103 1.0329691 0
2.9770768 4.0588379 0.87492561 0
-2.9310381 -4.1398582 0.61656022 0
-2.6459424 -4.1559072 1.3559086 0
2.75211 4.2883019 0.38816547 0
2.3141246 -4.2490144 1.6448877 0
2.8508182 4.2054262 0.55090678 0
-1.7697675 -4.163271 2.3773818 0
5.0144134 -0.98772126 0.013302207 0
3.9557941 3.0525846 1.0744832 0
1.8192559 -4.2480831 2.183197 0
2.7439792 4.3048835 0.24946356 0
2.7239494 -4.2698054 0.68766427 0
3.927906 3.0729597 1.12149 0
2.728689 -4.2623153 0.71945238 0
3.2414153 3.7955015 1.1042904 0
3.0319438 4.0222397 0.87312692 0
2.8151693 -4.2617068 0.21537888 0
1.0743906 -4.2206516 2.676882 0
3.295331 3.7452838 1.1171529 0
-0.82897615 -4.1890621 2.8112197 0
-2.42011 -4.1664147 1.709839 0
-1.5693414 -4.1725731 2.5033679 0
2.5832326 -4.2645574 1.1328015 0
-1.9023443 -4.1648808 2.2767181 0
2.7377191 4.29392 0.46928173 0
-1.8915837 -4.1788168 2.2612512 0
2.6155651 -4.2514892 1.1143045 0
3.8022747 3.2102165 1.1822267 0
2.0641093 -4.2657328 1.925148 0
3.2334461 3.8033712 1.1166502 0
5.0199299 0.98776078 0.011824012 0
3.16908 3.8584788 1.116287 0
3.8473587 3.1589732 1.1814438 0
4.1216688 2.9926779 0.48658556 0
1.2969182 -4.2340946 2.5649309 0
-1.9403 -4.1601825 2.2625797 0
2.8024514 4.2479954 0.55132324 0
4.1090283 3.0129981 0.49184996 0
3.1927009 3.8210125 1.1905044 0
2.5644877 -4.2662573 1.1975242 0
-1.3548675 -4.1748862 2.6357348 0
2.9939516 4.0540948 0.90364152 0
-3.0053422 -4.1347685 0.29845583 0
2.0987809 -4.2561464 1.9241261 0
2.9253905 4.1054907 0.9030847 0
2.245486 -4.2660689 1.7288857 0
-2.30071 -4.1608586 1.9039289 0
-1.6653751 -4.1729889 2.4584718 0
3.5183132 3.5031197 1.257853 0
3.0167589 4.0080533 1.0337887 0
3.5727742 3.4231293 1.3242377 0
4.0929422 2.9983957 0.70441782 0
3.8960514 3.1091092 1.1804103 0
3.3439822 3.6941047 1.188447 0
3.2948356 3.7378941 1.1890802 0
1.4532551 -4.2364936 2.4872234 0
2.9346983 4.1072202 0.87450308 0
3.0699213 3.9697251 1.032639 0
-2.3127925 -4.1556358 1.9072483 0
-1.1858166 -4.1741734 2.7255435 0
3.2469344 3.782263 1.1895949 0
-2.1453903 -4.1571503 2.0942888 0
1.7079238 -4.2472582 2.305707 0
3.6892643 3.3040779 1.3244201 0
0.65954697 -4.2216425 2.8330104 0
5.0152774 1.0631979 0.012781262 0
1.6923192 -4.2524438 2.3109937 0
3.8038056 3.203439 1.2479514 0
2.8279471 -4.2767658 0.024548888 0
3.666877 3.3582089 1.2524726 0
-2.3130529 -4.1659932 1.894402 0
2.84899 4.2035108 0.71332276 0
-2.4202728 -4.1437278 1.807464 0
3.9437451 3.0580966 1.1794007 0
2.7157435 4.3444042 0.21675479 0
2.6477294 -4.2667322 1.0399971 0
-1.8196136 -4.1534257 2.3950369 0
4.0196419 3.0201094 1.0100456 0
2.8851531 4.1484656 0.87520957 0
0.49666071 -4.2189856 2.8733928 0
1.129215 -4.2342739 2.6646061 0
2.5255992 -4.2635274 1.3225504 0
2.9630349 4.0769811 0.95145851 0
-2.7778487 -4.138217 1.2126807 0
3.5199423 3.4894178 1.3239644 0
-2.4816563 -4.1487217 1.7172481 0
2.8060892 4.239727 0.68579459 0
3.1114361 3.9236929 1.1152245 0
3.0993898 3.9353609 1.1087039 0
0.87215948 -4.2187986 2.7866626 0
4.1851258 2.967598 0.058375597 0
1.5277021 -4.2431293 2.4470158 0
1.5599574 -4.2397842 2.4326515 0
2.7971973 4.242331 0.71446633 0
-2.4383781 -4.1559582 1.7649741 0
2.6624372 4.3813992 0.21858311 0
-1.4293183 -4.1639457 2.6369908 0
1.8823804 -4.2428746 2.1889544 0
-2.5394716 -4.1576486 1.6130838 0
2.2438257 -4.2553034 1.7882991 0
-0.9043963 -4.195663 2.815357 0
0.73493671 -4.2156439 2.8350959 0
3.5580854 3.4473841 1.3461143 0
3.4023998 3.6094763 1.3236557 0
-1.8266127 -4.1638265 2.3841038 0
3.3815467 3.65171 1.2615774 0
3.6952512 3.3012614 1.3454342 0
3.0472109 3.98016 1.1146717 0
2.829056 -4.2786446 0.24557161 0
2.4281836 -4.2591286 1.5279917 0
3.6060886 3.4005587 1.3458527 0
-2.2419631 -4.1549773 2.0228219 0
3.4646983 3.5535171 1.3237264 0
-1.9962554 -4.1545157 2.2675076 0
3.3720992 3.6343117 1.3469141 0
2.8262818 -4.2736874 0.37910044 0
4.1232815 2.9934304 0.66021144 0
3.9989419 3.0256331 1.1204941 0
1.9673852 -4.247376 2.1198263 0
-2.5655253 -4.1423659 1.6321778 0
3.5159383 3.4976628 1.3462409 0
-2.7127271 -4.1489244 1.3553025 0
-2.3672454 -4.1489263 1.8962694 0
2.1481194 -4.2527556 1.92715 0
3.6421995 3.3758972 1.3240492 0
2.0247607 -4.2512274 2.0612669 0
5.0125513 -1.138617 0.012933135 0
2.7626743 4.3000236 0.5490768 0
3.9481218 3.0489285 1.2422651 0
3.7545424 3.2521951 1.3242987 0
2.926105 4.0987186 1.0340087 0
3.7897596 3.2032473 1.3448582 0
3.1085975 3.9181011 1.1905407 0
2.9799006 4.0615525 1.0329096 0
3.4721568 3.5465665 1.3463883 0
-1.9386035 -4.1731963 2.2964935 0
-1.9824165 -4.1616445 2.2802022 0
3.7474847 3.255394 1.3450518 0
-2.9238946 -4.1313381 0.91595435 0
-2.8564832 -4.1426535 1.0654805 0
3.8354807 3.1525798 1.3445829 0
-1.4391097 -4.1907725 2.6125767 0
2.7199638 4.3492236 0.38257957 0
2.8203304 -4.267271 0.54621279 0
-2.1810982 -4.1597104 2.0981066 0
3.8641996 3.1267955 1.324519 0
2.030225 -4.2607398 2.0479147 0
2.7104557 4.3383656 0.55024636 0
-2.0598943 -4.1715379 2.1969526 0
3.8118405 3.1918809 1.3243594 0
-2.7453516 -4.1444921 1.3267317 0
3.2854986 3.7322867 1.3232189 0
1.7605512 -4.2408547 2.3219376 0
2.9851382 4.0405264 1.1138225 0
-0.97898912 -4.1930871 2.8173113 0
1.7892288 -4.2366681 2.3087816 0
2.7356665 -4.2700572 0.8769151 0
3.6610923 3.3575163 1.3454363 0
-2.3012428 -4.1460099 2.0005057 0
3.1640506 3.8810465 1.1896216 0
-2.6447871 -4.154357 1.4954575 0
2.7254236 -4.272387 0.89956141 0
2.7421968 4.3017621 0.68314594 0
5.0360155 -1.0636431 0.0072232485 0
-2.9426544 -4.1537132 0.76353526 0
1.7542936 -4.2486701 2.3176067 0
2.8456993 4.2000632 0.87402803 0
-2.1246917 -4.1678915 2.1489553 0
-3.0164423 -4.1476288 0.45053101 0
4.1932974 2.9748056 0.27235818 0
2.8701248 4.17908 0.90015763 0
-2.4966869 -4.1424303 1.7669008 0
-1.6935279 -4.1733446 2.5001137 0
-1.0525615 -4.1824703 2.8173785 0
2.6692579 4.3894172 0.38320363 0
1.2097666 -4.2368884 2.6701193 0
5.0248685 1.139058 0.0096304417 0
3.4334092 3.5988023 1.3464142 0
2.4794414 -4.2611585 1.5006747 0
-1.745594 -4.1765504 2.4633803 0
-2.4203506 -4.1328788 1.903928 0
3.5091288 3.4977288 1.4207499 0
3.3378825 3.689456 1.3468138 0
0.81333792 -4.2230296 2.8411441 0
2.3337321 -4.2575688 1.7305155 0
-2.8427472 -4.1257854 1.21106 0
3.3541632 3.6836979 1.3231618 0
3.2397015 3.7764158 1.3472246 0
-2.2994502 -4.1447201 2.0262973 0
0.67628837 -4.2133307 2.8923049 0
2.1725564 -4.258461 1.9296653 0
-2.226274 -4.1502676 2.0970099 0
-2.5392599 -4.1478148 1.7106652 0
2.831949 -4.2835469 0.46320939 0
1.6229465 -4.2416301 2.4413469 0
-1.314191 -4.178874 2.7197161 0
2.3027709 -4.2670794 1.7553039 0
-1.883809 -4.1634631 2.3908422 0
-2.6586049 -4.1514249 1.5158257 0
5.0126586 1.2141776 0.012035251 0
3.2498839 3.8011491 1.264327 0
3.292403 3.7359846 1.3469448 0
2.8039286 4.2360659 0.89886123 0
2.9169335 -4.2558651 0.018118858 0
-3.0135498 -4.1442776 0.60551345 0
3.9357705 3.0540943 1.3438226 0
1.5393819 -4.2464223 2.4944074 0
2.566293 -4.2683792 1.3496546 0
2.5921834 -4.272141 1.2869525 0
3.0203977 4.0114527 1.1906749 0
-3.0009067 -4.1296291 0.76046252 0
2.963238 4.0771337 1.1117731 0
2.6658826 4.3854494 0.54897892 0
2.9688456 4.0509243 1.1912129 0
2.8885059 4.1518788 1.033036 0
4.9989181 -1.2889566 0.014564514 0
3.0740507 3.9734738 1.1899549 0
4.0191703 3.019881 1.1767406 0
2.8246734 4.2152557 0.95490897 0
3.1680861 3.8570836 1.3226759 0
3.3702228 3.6446192 1.4237289 0
2.7655129 4.3031731 0.71074069 0
4.1939831 2.9754102 0.48579234 0
2.6285553 4.4416161 0.21205151 0
3.1986525 3.8259664 1.34723 0
4.126358 2.9948659 0.8318525 0
2.8043458 4.2500377 0.87303877 0
-1.5685703 -4.1762266 2.6055498 0
3.8995361 3.1109209 1.3439347 0
2.3188293 -4.2550521 1.7922781 0
3.2351699 3.8057191 1.3227162 0
3.664396 3.356847 1.4161736 0
3.932936 3.041692 1.4095066 0
2.7127075 4.3409371 0.71182382 0
-3.0867183 -4.1357121 0.28390062 0
-2.3999677 -4.1598091 1.9104857 0
-2.6627114 -4.1594729 1.5242801 0
2.8263097 -4.2739906 0.68090963 0
3.8031824 3.2031198 1.4126384 0
3.9348311 3.0796173 1.3242114 0
4.2321777 2.9665198 0.10714483 0
1.8175477 -4.2453694 2.3246493 0
3.1060748 3.9159348 1.3224568 0
0.89093781 -4.2237473 2.8456893 0
2.7322004 -4.2662115 1.0351229 0
5.0261722 -1.2148551 0.0084097385 0
2.7168005 -4.2572856 1.1114419 0
-1.9370455 -4.1539774 2.3951182 0
2.6263418 4.4389377 0.38080835 0
2.9308848 4.1142197 1.1121005 0
2.6199481 -4.2594271 1.3218275 0
3.5069966 3.4916241 1.5049707 0
-1.128527 -4.1858149 2.8215265 0
-1.5106864 -4.1805835 2.6450586 0
2.0963144 -4.2526841 2.0679655 0
2.5769041 4.4808269 0.21264398 0
4.1074777 3.0115905 0.91004151 0
-2.1854784 -4.1657052 2.1545949 0
2.2370348 -4.246326 1.9332018 0
-2.0634501 -4.1591907 2.2840273 0
5.011488 1.2897673 0.011189461 0
4.9920096 -1.364019 0.014972806 0
3.1061704 3.9401693 1.2680261 0
3.6015975 3.3977096 1.5054543 0
-2.7848766 -4.1471038 1.3545535 0
2.8287644 -4.2763638 0.70711434 0
3.2279398 3.786515 1.4266983 0
4.2326536 2.9667335 0.28949678 0
4.9942331 1.3641944 0.01437521 0
2.6202826 4.4316049 0.54779869 0
2.411536 -4.2747617 1.6491129 0
1.9603277 -4.2582426 2.1997924 0
-2.5710719 -4.1531115 1.7193632 0
1.2914902 -4.2409849 2.67629 0
2.7583547 4.2952304 0.87275404 0
3.630652 3.3630846 1.5270495 0
2.9990399 -4.2225032 0.0146842 0
3.159121 3.8768225 1.3471844 0
-1.4442285 -4.1695518 2.7119277 0
-1.9398572 -4.1629658 2.3942318 0
-1.824353 -4.1728187 2.4670601 0
-1.5842847 -4.1632566 2.6453323 0
-2.6582351 -4.1440668 1.6137352 0
3.3965123 3.6021397 1.52758 0
2.7430692 4.3032899 0.89644808 0
0.96771789 -4.2188301 2.8490038 0
3.688942 3.3037302 1.5269716 0
3.0716925 -4.1737738 0.015126109 0
2.6622941 -4.2833652 1.1934962 0
4.2257476 2.9636309 0.47054124 0
2.0593739 -4.2550902 2.1252122 0
2.5241809 -4.26087 1.5287969 0
3.5627005 3.4504054 1.5053819 0
1.295213 -4.2321677 2.6983509 0
-2.0663233 -4.1727104 2.2790046 0
-2.1811225 -4.1593332 2.1954327 0
3.744648 3.2537606 1.506291 0
3.5770106 3.4279678 1.5272745 0
-2.9328594 -4.1420307 1.0612661 0
3.112813 3.9218192 1.3472791 0
-2.4412603 -4.1601934 1.902478 0
3.0480304 3.9813826 1.3220824 0
2.8677073 4.1751142 1.1111311 0
3.5193903 3.4887688 1.5274208 0
2.9218943 -4.2798877 0.19223368 0
2.8518605 4.2065182 1.0318321 0
2.2421877 -4.2591934 1.9311659 0
-1.2033894 -4.1806564 2.8236647 0
-1.8175116 -4.1672754 2.4964089 0
2.8190184 -4.2658563 0.87038964 0
3.3770893 3.6380031 1.5045941 0
3.8771615 3.0992875 1.5070251 0
2.5798306 4.4844732 0.37943709 0
3.1446915 -4.125627 0.015122533 0
-2.5392423 -4.1469984 1.8073682 0
-2.0598919 -4.1715622 2.2951252 0
2.5812819 -4.2629046 1.4427991 0
4.1193681 2.9916046 1.0032358 0
2.6715362 4.3920956 0.70995051 0
2.8841016 4.1473951 1.1908144 0
3.4636648 3.5522664 1.5276451 0
-3.0948813 -4.1449008 0.43907464 0
3.4290674 3.5956857 1.5048923 0
2.8017342 4.2472219 1.0322438 0
2.9310665 -4.2790484 0.23530424 0
-2.6465642 -4.1567416 1.6352987 0
2.9198842 -4.277782 0.363603 0
3.7074468 3.3085177 1.5062134 0
3.0671656 3.9672236 1.3473444 0
3.7516804 3.2491968 1.5270288 0
3.280067 3.7251065 1.5280237 0
3.796689 3.2071059 1.5066803 0
3.6634002 3.3589346 1.5060109 0
-2.7227557 -4.1619854 1.4963849 0
1.6250768 -4.2519999 2.5009835 0
2.9402714 4.1127334 1.1900233 0
1.0835609 -4.2316332 2.8101964 0
2.5749576 4.4784012 0.54630852 0
2.53332 4.5303082 0.20948815 0
-2.7430463 -4.1397729 1.5245765 0
2.4766316 -4.2577581 1.6505761 0
-2.4203045 -4.1393032 2.0002897 0
2.0233333 -4.2541857 2.191556 0
-2.3007622 -4.1594052 2.0978124 0
4.0060163 3.0322421 1.3238783 0
-1.9954715 -4.1530714 2.4022746 0
1.370961 -4.2352972 2.6804037 0
4.2005987 2.9812453 0.69597113 0
-1.2777567 -4.1717677 2.8250818 0
-2.5738325 -4.1538515 1.7716309 0
2.4273031 -4.2574201 1.732724 0
-2.312304 -4.1544228 2.1013606 0
2.8273766 4.2174163 1.1142678 0
3.2896001 3.7337842 1.504393 0
4.995296 1.4400043 0.012349129 0
2.7170968 4.3459496 0.87146282 0
-2.4972277 -4.1432009 1.9046683 0
-2.3716207 -4.1555576 2.0339637 0
1.6958313 -4.2583952 2.4550371 0
3.3468912 3.6743658 1.5280316 0
-3.0900145 -4.1394224 0.59643155 0
1.885311 -4.2473865 2.3334699 0
2.6223707 4.4341316 0.70985156 0
3.339926 3.6910131 1.504631 0
-2.4822581 -4.1501007 1.9125371 0
2.4792552 4.5665164 0.21061516 0
3.2212658 -4.0826216 0.013384342 0
-1.9017103 -4.16291 2.4697256 0
-2.2470131 -4.1631293 2.1603932 0
3.4848752 3.555423 1.505282 0
-1.6934969 -4.1735158 2.6011591 0
1.530834 -4.2464705 2.5844212 0
2.8264177 -4.2741742 0.89498991 0
2.8389611 4.1930041 1.1907429 0
-2.1229801 -4.1649432 2.2839334 0
3.8132844 3.1933506 1.5270765 0
2.8055542 4.238821 1.1099434 0
1.7021945 -4.232101 2.5025554 0
3.291297 -4.0300298 0.014036775 0
2.2979219 -4.2627258 1.9039922 0
3.094558 3.9319344 1.4286201 0
3.5118792 3.4993434 1.5819782 0
2.5333281 4.5303187 0.37779438 0
2.9298358 -4.27703 0.45611936 0
0.87411523 -4.221282 2.9161346 0
-3.0140259 -4.1448293 0.90752178 0
2.7564247 4.2930889 1.0319571 0
4.0207934 3.0206666 1.3427495 0
5.0022869 -1.4406565 0.010467768 0
-2.925395 -4.1331277 1.2080044 0
3.146265 3.8658068 1.50392 0
2.991765 4.0507283 1.321613 0
3.0260909 4.0167713 1.347286 0
3.6567681 3.352659 1.5794842 0
1.8865801 -4.2636089 2.3185 0
2.9712598 4.0831761 1.2703159 0
2.6532588 -4.273047 1.348601 0
4.2932534 2.9486246 0.042409658 0
3.2485836 3.7835963 1.5043747 0
2.9218888 -4.279882 0.53089917 0
4.984251 1.5147427 0.013290763 0
3.8714604 3.1339786 1.5270591 0
2.7361698 -4.2706156 1.1914243 0
-2.7819626 -4.1434193 1.4967644 0
3.8559976 3.1636233 1.5072237 0
-2.8562765 -4.1423993 1.3538375 0
-2.1465693 -4.1603384 2.2886765 0
2.9209878 -4.2625155 0.67613798 0
4.1057987 3.0100667 1.1169271 0
-1.9419038 -4.1462646 2.491106 0
1.7535321 -4.2474213 2.4604688 0
2.9788537 4.0605459 1.3473588 0
3.9436455 3.0580468 1.5077311 0
-2.7083166 -4.1431799 1.6366845 0
-2.3015485 -4.1480017 2.1635513 0
2.9974794 -4.2628193 0.18143046 0
2.5748222 -4.2784061 1.5019752 0
2.4034131 -4.2646399 1.7975262 0
-2.4285076 -4.1414542 2.0371237 0
2.6725767 4.3933187 0.87063146 0
3.3661995 -3.9841788 0.012479544 0
2.1752584 -4.2621412 2.0765071 0
1.7656505 -4.2459908 2.46264 0
4.2944555 2.9496546 0.26072598 0
2.6534534 4.3708386 1.0327747 0
-1.5691066 -4.1736856 2.7074986 0
3.1037986 3.9138687 1.503911 0
2.7162046 -4.2562423 1.3210534 0
3.2070384 3.8329461 1.5043603 0
4.9941931 -1.5158141 0.010611415 0
-2.7781541 -4.1506352 1.5151794 0
2.0361564 -4.2677174 2.2096078 0
-3.1635385 -4.1293507 0.43112934 0
2.1485653 -4.2537203 2.1295824 0
2.9311106 4.1036706 1.3474299 0
3.9313354 3.0762565 1.5271039 0
-2.6586089 -4.1507611 1.7211763 0
3.8079665 3.2055702 1.5764748 0
-2.0611119 -4.1585174 2.3921919 0
2.4865406 4.5761471 0.37598062 0
2.3200495 -4.256618 1.9404118 0
-1.3547696 -4.1744294 2.8299599 0
1.0517312 -4.2411003 2.860146 0
3.2343907 3.8046577 1.5286607 0
2.7132313 4.3415351 1.0312983 0
4.246377 2.9584253 0.70063066 0
-1.6667694 -4.1780591 2.6535516 0
2.7999756 4.245326 1.190146 0
4.1959643 2.9771576 0.90628105 0
3.3828766 3.6525431 1.5834155 0
4.2886782 2.9447041 0.47766399 0
-3.0932944 -4.1431146 0.74921548 0
-2.1814456 -4.1589823 2.2896085 0
-2.3922076 -4.1413093 2.1036015 0
3.170891 3.8610208 1.5288084 0
4.2243938 2.9630229 0.82253528 0
4.1202612 2.9920213 1.1725824 0
2.7446387 4.3060384 1.1084996 0
-2.6388896 -4.1464438 1.7744771 0
2.5375638 4.5357547 0.54207253 0
4.248672 2.9739296 0.64343965 0
3.7377834 3.2498083 1.6672547 0
4.9783506 -1.5900244 0.012556791 0
-1.8192697 -4.1556911 2.5948718 0
-2.6591253 -4.1617851 1.7098151 0
2.4374075 4.6191831 0.20600069 0
2.5832522 4.4887371 0.7070576 0
4.9796653 1.590185 0.012201905 0
3.0017648 -4.2671819 0.35221076 0
2.8285325 -4.276114 1.0287962 0
2.9352489 4.1211534 1.3211087 0
4.3294506 2.9318326 0.08704114 0
-2.1808231 -4.1639667 2.2935276 0
3.6527557 3.3523934 1.6661739 0
2.6262603 4.438839 0.87000221 0
-3.1783488 -4.1455488 0.26550496 0
3.5076165 -3.8806245 0.011848688 0
3.2371328 3.7926457 1.5855734 0
2.6215663 -4.2623577 1.5296308 0
3.3753781 3.6367373 1.6624634 0
3.6098454 3.4029419 1.6656696 0
3.3280182 3.6819382 1.661901 0
2.9257183 -4.2838936 0.69572234 0
-2.5395718 -4.1623106 1.9039289 0
2.9084225 -4.2657743 0.86287415 0
-3.0153949 -4.1464152 1.056295 0
2.8888431 4.1522222 1.3473502 0
-2.3008029 -4.1582694 2.1949379 0
3.4723699 3.5467148 1.6638417 0
1.9566017 -4.2526827 2.343555 0
2.8861806 -4.2644095 0.94384396 0
2.3838692 4.656312 0.20634675 0
3.7897987 3.203269 1.668425 0
4.9636583 1.6641978 0.013907909 0
-1.9837531 -4.1656032 2.4752162 0
3.5205827 3.5007992 1.6645646 0
1.9723171 -4.2589021 2.3230653 0
2.584615 -4.2657285 1.5966065 0
3.4457366 -3.9441049 0.0089244843 0
3.2329848 3.7709861 1.6608649 0
4.9661584 -1.6645398 0.013231874 0
3.0691023 3.9689817 1.5041012 0
3.7042606 3.306622 1.6672425 0
1.1300303 -4.2373242 2.8644395 0
3.5686829 3.4543219 1.665315 0
-2.0627825 -4.1664047 2.4141207 0
-1.4302962 -4.16821 2.832715 0
1.4584184 -4.2521558 2.6902933 0
2.9632051 4.0771093 1.4300448 0
-2.4202502 -4.1468768 2.0971086 0
3.6284847 3.3606799 1.7298265 0
3.577733 -3.8279588 0.011344671 0
1.8191594 -4.24793 2.4698451 0
2.560946 -4.262094 1.6535892 0
3.4538872 3.5404332 1.7309797 0
2.2428868 -4.2540617 2.081882 0
3.958328 3.053792 1.5733299 0
3.2862363 3.7311437 1.6617467 0
2.8341534 4.2228317 1.272436 0
2.7323523 -4.2663798 1.347771 0
3.4316413 3.5975335 1.6636364 0
2.4413614 4.624568 0.37325025 0
3.0213451 4.0123377 1.5040007 0
2.8412745 4.1954279 1.3473861 0
-2.3653331 -4.146028 2.1699839 0
2.6935823 4.3580542 1.1158979 0
2.5367196 4.5346708 0.7059226 0
2.4913568 4.5825133 0.54033321 0
-2.5719955 -4.1513114 1.9108063 0
4.2421598 2.956562 0.87563527 0
3.1165268 3.9310596 1.529264 0
-2.6582346 -4.1440554 1.8073373 0
4.338099 2.9355698 0.27012062 0
2.8276966 -4.276341 1.1076603 0
3.8848844 3.103303 1.67033 0
-1.7445303 -4.1728878 2.6572866 0
2.5796578 4.4842582 0.86929107 0
4.0020733 3.0285585 1.5274274 0
3.0039883 -4.2694459 0.52125502 0
1.2065225 -4.2254124 2.8667965 0
-2.5712523 -4.1535091 1.9159747 0
2.1050332 -4.2649226 2.2168534 0
2.6184185 4.4293485 1.0308213 0
2.3435957 -4.2773986 1.9364915 0
-1.6946015 -4.1674218 2.7017891 0
-2.7782078 -4.1513124 1.6126885 0
2.8755946 4.1880527 1.3206644 0
-2.2305887 -4.1614404 2.293545 0
2.6831212 4.3738337 1.1069803 0
2.7641568 4.3016682 1.1892334 0
2.4800489 -4.2618937 1.8015738 0
4.3309231 2.9324689 0.45427525 0
3.0343621 -4.2786226 0.22480071 0
1.7936398 -4.2478514 2.5118155 0
2.8049977 4.2378778 1.3205525 0
-2.8569682 -4.143249 1.4975816 0
-3.1748323 -4.1417031 0.58506429 0
3.0969489 3.93363 1.5872312 0
3.6494672 -3.7771242 0.0099874735 0
2.2361894 -4.2466879 2.1333852 0
2.4848816 4.5739541 0.70598769 0
3.028239 -4.2688947 0.44900703 0
-2.243624 -4.1576581 2.2968194 0
3.7130325 -3.7163999 0.011301875 0
2.2926123 -4.2579589 2.0523629 0
3.0545406 3.9910977 1.5295216 0
4.9571428 -1.7394791 0.012758732 0
2.7116902 4.3397751 1.1895666 0
1.5378091 -4.2418718 2.6939073 0
2.3904738 4.6655831 0.37246287 0
3.9370637 3.0547433 1.6716075 0
-2.9354432 -4.1451125 1.3529208 0
2.0222108 -4.2531185 2.335623 0
4.9604421 1.7399787 0.011864662 0
-3.0991356 -4.1496897 0.90018821 0
2.3959684 -4.255363 1.9460732 0
3.7530212 3.250602 1.7300354 0
3.5253427 3.4957659 1.7315918 0
1.8804697 -4.2399335 2.4768903 0
2.736491 4.2917695 1.3203392 0
1.2979641 -4.2352762 2.8336325 0
3.69822 3.3137329 1.7304769 0
2.8257444 -4.273108 1.1881601 0
2.531074 4.5274262 0.86883378 0
4.1052265 3.009547 1.3228729 0
2.0551937 -4.2456951 2.3263984 0
3.6583316 3.3535175 1.7417929 0
3.8616714 3.1242945 1.7293031 0
2.0226693 -4.2482004 2.3512812 0
3.8562117 3.1637383 1.670483 0
-1.5071425 -4.1660857 2.8369074 0
2.6610889 -4.2819891 1.5030063 0
4.0306716 3.0254488 1.508842 0
3.5175588 3.5026767 1.7429268 0
-2.1211596 -4.1618071 2.4208074 0
-2.0618052 -4.1511035 2.4899721 0
-3.1690533 -4.1353822 0.74209189 0
3.7808595 -3.6607621 0.01079452 0
3.346446 3.6737945 1.7329066 0
-2.4769554 -4.1379499 2.107316 0
-1.8207015 -4.1608868 2.6596572 0
4.3007407 2.95504 0.68880248 0
-2.0634956 -4.1593199 2.479125 0
3.4086392 3.6172512 1.732604 0
3.1035855 3.9136806 1.660509 0
3.1542971 3.8726892 1.6611053 0
2.5322611 -4.2760115 1.7361418 0
-2.7892199 -4.1525965 1.6396799 0
4.1965151 2.9776433 1.1145172 0
3.9026656 -3.534148 0.013681769 0
3.843317 -3.5990465 0.011869788 0
-2.7472472 -4.1483722 1.7230725 0
3.3740041 3.646987 1.7440412 0
3.800699 3.2018478 1.7405212 0
1.5264831 -4.2418289 2.7212524 0
2.6642904 4.3835778 1.1894519 0
3.9182892 3.0637138 1.7292106 0
2.924161 4.1035371 1.5299278 0
2.4468362 4.6320248 0.53778797 0
3.2065938 3.832576 1.6618428 0
3.5897577 3.4425247 1.7316853 0
-2.8449471 -4.1615491 1.525709 0
-2.5394778 -4.1579351 2.0007439 0
-2.7133737 -4.1497664 1.7786405 0
2.3441095 4.7133384 0.19995785 0
2.887254 -4.2652674 1.1053097 0
2.575382 4.47893 1.0298352 0
-2.5070148 -4.1571488 2.0462379 0
-3.0876822 -4.1367974 1.0527616 0
3.2875888 3.7350495 1.7335744 0
2.4270766 -4.2569809 1.9381974 0
2.8065553 4.2524199 1.3470769 0
1.0862544 -4.234859 2.9432998 0
-2.181093 -4.1597905 2.3912344 0
4.9487243 -1.8145845 0.011831284 0
2.9903655 4.0716133 1.5043199 0
2.9357369 -4.2867098 0.88912952 0
2.9966176 4.0581985 1.5299425 0
2.6195135 4.4395127 1.1055456 0
4.2410064 2.9704859 0.99432892 0
-3.0194545 -4.1511188 1.204092 0
-2.3009334 -4.1546378 2.2920942 0
2.4825416 4.5708609 0.86823279 0
-2.8969238 -4.1380143 1.5153201 0
3.8188882 3.1990554 1.7304959 0
2.7546849 4.2911587 1.3471888 0
2.5748513 -4.2574558 1.7506832 0
4.1292515 2.9962156 1.3412228 0
1.2887317 -4.2317352 2.874568 0
3.9686499 -3.4765012 0.012934923 0
-2.7778487 -4.1467738 1.710156 0
-3.2596886 -4.1415634 0.25146604 0
2.9177969 -4.2755952 1.0234774 0
4.9550695 1.8156383 0.010107875 0
-1.9392159 -4.1681991 2.5942299 0
2.8197036 -4.2627969 1.3200474 0
3.2296681 3.7982256 1.7344152 0
-2.304903 -4.1532478 2.303494 0
3.6935463 3.3002472 1.8278363 0
-2.6419301 -4.1505232 1.9158103 0
2.8908739 4.1542897 1.5041002 0
3.5122945 3.4952021 1.8235816 0
-2.3121479 -4.1540356 2.297194 0
4.3971114 2.9234986 0.027833462 0
-1.8186464 -4.1597981 2.6965337 0
-2.6583424 -4.1462035 1.9039285 0
2.8320487 4.2211499 1.4311161 0
2.5547402 -4.2547989 1.8052967 0
3.0153158 -4.2809777 0.68618232 0
4.932013 1.8883065 0.012867093 0
1.620751 -4.2400408 2.699893 0
-2.4344954 -4.1502528 2.1781502 0
4.0299616 -3.4139388 0.013464808 0
-3.2455552 -4.126543 0.57787591 0
3.4671812 3.5431018 1.8226967 0
2.9456506 4.1180553 1.5043271 0
2.6957157 4.3598619 1.2742864 0
2.3220053 -4.2591281 2.0901501 0
2.178436 -4.266469 2.2254589 0
4.2488003 2.9594955 1.0478973 0
3.4209735 3.5898757 1.8217583 0
-2.1794329 -4.1556268 2.4273171 0
3.03193 -4.2747588 0.66768634 0
2.4455106 4.6302195 0.70256865 0
3.9492128 3.0494485 1.7389956 0
3.7416337 3.2520251 1.8293359 0
-2.4202027 -4.1535091 2.1944253 0
2.9632347 4.0771313 1.5883147 0
4.3470535 2.9394395 0.63138312 0
2.6461949 -4.2649798 1.656623 0
4.9364309 -1.8891054 0.011664271 0
4.2932715 2.9486401 0.90149301 0
2.4002008 4.6792364 0.53566462 0
2.8649669 4.170619 1.5303792 0
3.0700591 3.9698503 1.6611625 0
2.3500998 4.7220068 0.36715341 0
4.3864932 2.9146607 0.46889788 0
4.2221284 2.9620054 1.1683831 0
3.5659099 3.4525065 1.8254193 0
3.1004105 -4.2711625 0.3354845 0
-3.0061507 -4.135705 1.352246 0
3.1709445 3.8610961 1.7352813 0
3.6126661 3.4047315 1.8265934 0
2.6789353 4.3662529 1.3196975 0
4.0922308 -3.352392 0.013383031 0
2.9241705 -4.2677364 1.1054461 0
3.2440703 3.7972722 1.7446816 0
2.5326726 4.5294776 1.0286841 0
-1.5860811 -4.1701756 2.8431392 0
2.5568907 4.4952302 1.117399 0
1.7717025 -4.2520866 2.6044514 0
3.1088569 -4.2795186 0.15719533 0
3.6601477 3.3569357 1.8279023 0
-2.6597941 -4.1532779 1.9192065 0
1.8833534 -4.2557597 2.5197563 0
-3.1732087 -4.1399274 0.89498949 0
3.3817692 3.6414652 1.8216444 0
4.4025226 2.9280031 0.24739254 0
2.7132108 4.3415117 1.3470125 0
2.7255268 -4.2725682 1.5306747 0
-3.2649052 -4.1471076 0.41220856 0
2.6272209 4.4400015 1.1884341 0
3.1079974 3.9187171 1.7358584 0
2.6210907 -4.2614965 1.7376944 0
2.7406662 -4.2756042 1.5038456 0
-2.8590255 -4.1457753 1.6416909 0
3.0093064 -4.2748599 0.85345578 0
2.9746695 4.0565233 1.6606103 0
4.4342356 2.8979237 0.064732552 0
2.2408109 -4.251318 2.2303431 0
-2.937043 -4.1470203 1.4985226 0
3.798264 3.207983 1.8317486 0
2.796771 4.2418714 1.504072 0
2.8512592 4.2058883 1.5042663 0
-2.5393431 -4.1516862 2.0973728 0
3.0290687 4.0195537 1.6613469 0
2.5748057 4.4782119 1.1886158 0
2.3313339 -4.2527471 2.1391816 0
3.3405085 3.691457 1.821384 0
4.3389678 2.9359453 0.81100231 0
-3.0884864 -4.1377025 1.2022376 0
4.9245434 -1.9637399 0.011095047 0
2.3039303 4.7709885 0.19324422 0
2.4787443 -4.2603149 1.9529626 0
2.3980632 4.6762357 0.70106721 0
2.6632321 4.3823338 1.347043 0
4.4334288 2.8975887 0.25327611 0
4.156435 -3.2926662 0.012398481 0
2.1471298 -4.2506142 2.3331227 0
3.2934072 3.736773 1.8205501 0
-2.9309039 -4.1488919 1.5262001 0
3.9984274 3.0251527 1.7308689 0
2.8311551 -4.2789412 1.3464454 0
2.4439104 4.6280398 0.86543798 0
3.889637 3.1057742 1.8345499 0
-2.7775273 -4.1427073 1.8071897 0
4.1905346 2.9723685 1.3221959 0
3.0997822 3.9356391 1.7456226 0
3.9320478 3.0522258 1.8357228 0
2.3010037 4.7666211 0.36501527 0
3.8483081 3.1594841 1.8335513 0
1.9584728 -4.2554746 2.4918771 0
4.0261693 3.0232692 1.6750667 0
2.3529751 4.7261672 0.5334698 0
3.2469196 3.7822509 1.8198481 0
3.1474569 3.866828 1.8178935 0
-1.9055932 -4.1749773 2.6686306 0
-2.8357561 -4.1433988 1.724905 0
-2.8977981 -4.1461077 1.6122724 0
3.5107987 3.498709 1.9040073 0
-1.6625209 -4.1626091 2.8464699 0
4.9328694 1.9653687 0.0088217258 0
2.1039467 -4.2633972 2.3649316 0
-3.1661119 -4.1321654 1.0484687 0
3.2005286 3.8275278 1.8192225 0
3.6537173 3.3509843 1.9040089 0
-2.6580343 -4.1400704 2.0004268 0
4.269609 -3.1587689 0.014408946 0
4.3867335 2.9148607 0.68391877 0
1.3734125 -4.2431078 2.8841219 0
2.8069515 4.2411885 1.5309145 0
-2.7901261 -4.1537423 1.7830423 0
-2.1509836 -4.1722741 2.487278 0
2.4859574 4.5636005 1.1029714 0
4.1035628 3.0080369 1.5284879 0
-2.2426851 -4.1561422 2.4362571 0
-2.0612133 -4.1574335 2.5903158 0
-2.3718154 -4.1558528 2.3124137 0
2.4908106 4.5817914 1.0272843 0
3.1420908 -4.2821488 0.21294188 0
2.3472178 4.7178364 0.70029932 0
-3.2561443 -4.1377969 0.73243082 0
-2.5834491 -4.1671476 2.0545523 0
2.5648847 4.5243616 1.1029375 0
2.9364524 4.1089554 1.661095 0
2.8240592 4.2147651 1.5895059 0
2.8986876 -4.2744045 1.2647252 0
2.2960289 -4.2610264 2.2011087 0
-2.180994 -4.1613235 2.4900837 0
1.7074149 -4.2459116 2.7081048 0
2.6179464 4.4365754 1.3191266 0
2.9233119 -4.281373 1.1843405 0
-1.9792085 -4.1521425 2.6689448 0
2.5233893 -4.2593865 1.9422977 0
-3.3385093 -4.132802 0.23858118 0
-2.7139611 -4.1505313 1.9211471 0
3.1122458 -4.2828717 0.5045529 0
-2.3008561 -4.1567855 2.3901806 0
-1.940757 -4.1556225 2.6926281 0
4.2226129 -3.2345922 0.010531664 0
2.5509703 4.4899149 1.276489 0
3.0343285 -4.2785692 0.88519251 0
2.3942461 4.6708779 0.86474973 0
3.0052345 -4.2707143 1.0184627 0
-2.4202423 -4.147984 2.2912331 0
2.6199858 4.4312453 1.3468739 0
3.8001444 3.2015636 1.9040105 0
4.8545117 2.17997 0.017087221 0
-2.9241347 -4.1316247 1.6432928 0
3.1009378 -4.2716842 0.67765272 0
3.0569725 3.9947269 1.7376473 0
2.6953795 4.3595772 1.4323444 0
1.9688877 -4.2508874 2.5253141 0
3.3754399 3.647886 1.9040062 0
3.1384041 -4.2764735 0.43859553 0
2.302933 4.7695003 0.53197902 0
2.7594693 4.2964673 1.5043359 0
2.9897749 4.0476646 1.7380235 0
4.9178329 2.0395422 0.0088143349 0
3.4623659 3.5506942 1.9364934 0
-2.7428443 -4.1393595 1.9212512 0
2.2565584 4.8189068 0.18951762 0
4.8883677 -2.1104777 0.012479067 0
4.9184279 -2.0396674 0.0086513758 0
4.3326144 2.9331996 0.98831004 0
4.2540178 2.9618008 1.2197067 0
1.5164392 -4.2311149 2.8573167 0
2.8148608 -4.254591 1.5311862 0
3.3418233 3.6678617 1.9378877 0
-2.400311 -4.1606278 2.3034687 0
3.6405199 3.3740332 1.9349765 0
2.5351365 4.5326395 1.187668 0
2.0263803 -4.2570834 2.4807701 0
3.8599577 3.1225989 1.9323192 0
-2.5738013 -4.1591291 2.114526 0
2.1673474 -4.2513666 2.3712592 0
4.2221022 2.9619935 1.3399979 0
2.0231252 -4.2488604 2.5001588 0
2.405334 -4.2670336 2.099319 0
2.8926623 4.1561103 1.6612258 0
3.114455 3.9232676 1.8189542 0
4.8939457 2.1117358 0.01094687 0
4.4837523 2.8821082 0.018428564 0
4.4487071 2.903933 0.43535775 0
4.3866148 -3.0286229 0.014025092 0
4.1389041 3.0007191 1.510363 0
3.5266762 3.4973333 1.9365308 0
3.7550135 3.2526891 1.9340048 0
1.2967706 -4.2339277 2.9690261 0
-2.8967278 -4.136199 1.7101308 0
2.744967 4.3066134 1.531359 0
3.5860977 3.4383452 1.9360206 0
1.4539887 -4.238719 2.8896155 0
2.3427868 4.7114244 0.86430371 0
2.4433007 4.6272097 1.0265821 0
4.3374934 -3.1019862 0.011471272 0
-2.2999663 -4.1455274 2.4420259 0
3.4075036 3.6158359 1.9378817 0
-2.6419151 -4.1505036 2.0579081 0
-2.5121565 -4.1644764 2.1890073 0
3.2834485 3.7295763 1.93906 0
-2.228986 -4.15729 2.4899144 0
2.2986071 4.7630453 0.69871134 0
4.3003902 2.95474 1.1111963 0
3.7021527 3.3179729 1.9349953 0
2.257879 4.82094 0.36003089 0
-3.0112979 -4.1416688 1.4992913 0
2.9226432 -4.2652311 1.3190867 0
2.8234479 -4.2706318 1.5047566 0
2.9650972 4.0785341 1.7461903 0
-3.345063 -4.1395702 0.40068936 0
2.7365587 -4.2710471 1.660006 0
-2.4321506 -4.1468072 2.3184333 0
3.6036944 3.39904 1.9870229 0
3.0181901 4.0093904 1.8177825 0
2.3182104 -4.2542577 2.239959 0
3.9464386 3.0481265 1.9040123 0
3.2378089 3.7930965 1.9040052 0
2.4844768 4.5734186 1.1875898 0
3.4668767 3.5428896 1.9828131 0
2.7151313 4.3437052 1.5044383 0
3.8152432 3.1953447 1.9340662 0
-3.089895 -4.1392879 1.351236 0
2.5755587 4.4791503 1.3467151 0
-3.0173576 -4.1374407 1.5140059 0
2.4208264 4.6315989 1.1012677 0
-3.3372602 -4.1315122 0.56486887 0
2.6496902 -4.2689714 1.8116632 0
2.4180038 4.6295214 1.118669 0
-3.1658216 -4.1318479 1.1997521 0
3.1364331 -4.2734394 0.66091007 0
3.6527607 3.3523962 1.9890997 0
3.923099 3.0683382 1.9329593 0
-2.5394542 -4.1568441 2.1947184 0
4.489584 2.8868229 0.23938501 0
2.9312296 4.1147676 1.7393334 0
2.5885813 -4.2690892 1.9039986 0
2.2545359 4.8157935 0.5296489 0
-2.7780392 -4.1491828 1.9039289 0
2.5216124 4.5152841 1.3468045 0
2.5608804 -4.2620173 1.9596024 0
4.8454485 2.2553129 0.014580369 0
-1.7434462 -4.1691556 2.8540571 0
-3.2598608 -4.1417465 0.88759023 0
3.2034514 -4.276473 0.13961899 0
2.6643262 4.3836198 1.5043863 0
3.2329555 3.7709622 1.9766561 0
2.9161482 -4.2738676 1.3454933 0
2.8512895 4.2059197 1.6615927 0
3.5658593 3.4524734 1.9866723 0
3.0768757 3.9760385 1.8195827 0
3.2833149 3.7288506 1.9782706 0
-3.0202575 -4.1407695 1.5268093 0
2.9742916 4.05616 1.8178096 0
2.5568423 4.5087576 1.3185062 0
3.5220475 3.5017884 1.9855456 0
4.8817816 -2.1865323 0.0095716715 0
4.4995518 -2.8948808 0.013738036 0
-2.5701592 -4.1487727 2.193063 0
-2.6581924 -4.1432171 2.0971768 0
1.7937487 -4.2481275 2.7157629 0
3.3351004 3.6873355 1.9801815 0
4.4519749 2.9052901 0.6181916 0
2.0547922 -4.2447925 2.5309072 0
4.8529801 -2.2572401 0.012497187 0
-2.783936 -4.1459146 1.925981 0
2.4289937 -4.2607002 2.1454699 0
-2.181875 -4.1476951 2.5871558 0
2.8950865 -4.2715263 1.4254748 0
2.3975368 4.6754966 1.0255055 0
4.453814 -2.970695 0.010801196 0
3.2318079 3.8011401 1.9413803 0
2.866648 4.1733766 1.7401621 0
4.0194712 3.0200267 1.8413377 0
3.7082777 3.3090119 1.9921765 0
3.3856494 3.6443355 1.9819745 0
3.9226456 3.047507 1.9998482 0
2.2503307 4.8093195 0.6968047 0
3.1084332 -4.2790999 0.84449577 0
3.2059255 -4.2788515 0.31680501 0
3.4349644 3.5999188 1.9836562 0
-2.6549876 -4.1430712 2.1169186 0
2.2443643 -4.2637305 2.3415635 0
-1.8183917 -4.1533394 2.8557348 0
3.7562776 3.2604563 1.9942513 0
4.189394 2.9713628 1.5291774 0
2.6851435 4.3774958 1.5319265 0
4.1178637 2.9909027 1.6786789 0
3.8428473 3.1565449 1.9973309 0
4.2823086 2.9392462 1.3213662 0
-2.4202764 -4.1432319 2.3882954 0
4.4009099 2.9266605 0.89553893 0
-3.2512286 -4.1325722 1.0433784 0
2.8079185 4.2538896 1.6618661 0
-2.4838245 -4.1536903 2.3076622 0
4.2488661 2.9595246 1.3918285 0
4.4387689 2.8998063 0.80144995 0
-3.0163574 -4.1301465 1.6123718 0
2.2166872 4.8795152 0.18159103 0
2.2120507 4.8721485 0.35577047 0
2.754375 4.2908149 1.6614007 0
2.2403779 -4.2507453 2.3812201 0
1.7717583 -4.2521424 2.7462413 0
-3.4204021 -4.1251554 0.22466588 0
4.5571046 2.8287816 0.01285398 0
4.0950551 3.0003138 1.7337123 0
-2.9305382 -4.1481948 1.7274042 0
-2.7098749 -4.1452093 2.0637331 0
3.0135415 -4.2791715 1.1811339 0
3.8910255 3.1064959 1.999686 0
-2.5390027 -4.1358552 2.2901797 0
2.6201382 -4.2597713 1.9463658 0
4.4969306 2.8927619 0.45757371 0
3.8067875 3.2127295 1.9967604 0
3.5081894 3.4971774 2.0648353 0
3.038197 -4.2847157 1.1015426 0
4.3393483 2.9361095 1.1633086 0
2.478934 4.566092 1.3465548 0
3.2045262 -4.2775064 0.49243915 0
2.4887445 4.5692039 1.318102 0
-3.3427415 -4.1371727 0.72303188 0
3.1756704 3.8677294 1.9432225 0
-2.0606828 -4.1631069 2.6916037 0
-2.3006241 -4.1632524 2.4895103 0
2.6974194 4.3613057 1.5897233 0
-2.875828 -4.1664085 1.7885996 0
4.5615144 -2.832243 0.011559844 0
2.4458222 4.6306438 1.1863956 0
-2.3123786 -4.1546082 2.4953775 0
3.2443912 -4.2744055 0.20324671 0
2.827884 4.2178221 1.7467257 0
1.5404614 -4.2495456 2.8997765 0
2.6252668 4.4376369 1.5046707 0
2.7320411 -4.2839761 1.7415688 0
2.6164751 4.4338188 1.5322187 0
3.1543617 3.8727443 1.9772341 0
4.8395529 -2.3318083 0.010885596 0
3.2050059 3.8312545 1.978698 0
2.3069241 4.775456 0.86028129 0
2.7064726 4.333817 1.6614182 0
-2.7774255 -4.1414204 2.0006378 0
3.1121681 3.9444225 1.9040047 0
-2.8981171 -4.1490612 1.8067815 0
-3.0866756 -4.135664 1.5000793 0
3.1135902 3.92681 1.944334 0
3.6579964 3.3533335 2.0662162 0
2.942162 4.114604 1.8193672 0
2.8068151 4.2409573 1.7415864 0
-2.3706546 -4.1540933 2.4542689 0
2.1023576 -4.2611666 2.5150528 0
4.8438468 2.3329728 0.0096933842 0
2.2488894 4.8071008 0.86096251 0
-2.0693915 -4.1759911 2.6809502 0
2.3575625 4.7058983 1.0991573 0
2.391746 4.6673689 1.186497 0
2.2020004 4.8561807 0.69467556 0
2.572753 4.4756541 1.5046065 0
4.2251773 2.9633749 1.5114609 0
2.9543622 4.0704494 1.9040031 0
2.2128882 4.8734794 0.52456331 0
4.4252186 2.8941793 0.98218179 0
3.103405 -4.2741251 1.0121887 0
4.6592779 -2.6864958 0.014004827 0
4.6147189 -2.7625687 0.011685491 0
2.3533602 4.7267246 1.0240567 0
2.2943738 -4.2595406 2.349915 0
-3.424535 -4.1293035 0.38952291 0
2.4911847 -4.2753701 2.1089292 0
-2.8365152 -4.1448975 1.9253349 0
4.5516982 2.8664868 0.038753748 0
2.5674794 4.5047369 1.4324123 0
4.4888463 2.8862264 0.67645472 0
2.0121276 -4.2435288 2.6238451 0
2.1605766 4.9151368 0.35359156 0
4.8142738 -2.4031756 0.012273788 0
-2.9325206 -4.1416264 1.7900877 0
3.0500274 3.9843628 1.9453681 0
4.8155022 2.4035277 0.011931419 0
-2.5055184 -4.1550164 2.3296223 0
3.1413922 -4.2810736 0.87996167 0
2.8945448 4.1580267 1.8191178 0
2.823935 -4.2711573 1.6631004 0
-2.657867 -4.1367383 2.1936095 0
-3.0148678 -4.1458049 1.64694 0
2.9131536 -4.2707305 1.5058309 0
4.6200132 2.7666035 0.010148764 0
2.1675143 4.9265175 0.17782307 0
2.2976151 4.7615643 1.0242807 0
4.7094259 -2.6147664 0.014401078 0
-2.8543909 -4.1400838 1.9308372 0
2.7357969 -4.2702017 1.8167471 0
1.8810169 -4.2500758 2.7237067 0
2.4026546 -4.2636948 2.2515795 0
4.3907042 2.9181657 1.1088169 0
-3.3403776 -4.1347313 0.88138694 0
3.3816397 3.6517682 2.0641813 0
4.6680408 2.6929777 0.011488438 0
3.6860268 3.3005874 2.1375508 0
2.9865892 4.0427604 1.9465759 0
3.5046279 3.4900246 2.1445367 0
2.5501506 4.4957743 1.5326387 0
3.8094084 3.2063091 2.067728 0
-3.1757317 -4.1426868 1.3501889 0
2.1093647 4.9591274 0.17834461 0
3.1197023 3.9278955 1.9784653 0
4.7563219 -2.5408108 0.015417814 0
2.847945 4.2024159 1.8190717 0
3.249711 -4.2823439 0.42811036 0
-3.4244487 -4.1292167 0.55331069 0
2.3341875 -4.2584844 2.3470616 0
3.5748861 3.4255412 2.1398118 0
2.5836279 -4.2648926 2.0575812 0
2.1608374 4.9155645 0.522937 0
3.6445417 3.3473456 2.1509228 0
-2.6454761 -4.1552815 2.2027473 0
2.7448781 4.3064575 1.7429255 0
2.6670611 4.3868351 1.6621721 0
-2.1468999 -4.1612325 2.6838329 0
-2.1822569 -4.1417856 2.6857932 0
4.3296838 2.9319332 1.338491 0
2.4244478 4.6391482 1.3174976 0
2.4350374 4.6457205 1.2745667 0
2.4400809 4.6228237 1.346166 0
3.5563972 3.4462788 2.1475282 0
2.8949397 -4.271409 1.5852818 0
2.1476605 -4.2517624 2.5395975 0
4.5651875 2.8718631 0.22733819 0
3.213881 -4.2865 0.66320759 0
4.7611289 -2.5447023 0.014938116 0
1.624072 -4.2492218 2.9071643 0
-3.0173705 -4.1375351 1.7093859 0
2.6516132 -4.2711673 1.9677322 0
3.0292757 -4.2705412 1.3180276 0
-2.8971767 -4.1403551 1.9039289 0
-3.1142337 -4.1388035 1.5275722 0
-3.1370568 -4.1269388 1.5132984 0
3.0754697 3.9747622 1.9782553 0
2.1692142 -4.2539091 2.5239758 0
-2.5696301 -4.1499324 2.3126433 0
4.7994986 -2.4775777 0.010442615 0
3.2421792 3.796011 2.0632765 0
4.0194597 3.0448015 1.9376621 0
2.5319195 4.528511 1.5048881 0
4.4821343 2.8808005 0.89258933 0
3.0252888 4.0160222 1.9771547 0
-3.2585211 -4.1403227 1.1961226 0
4.8010883 2.4780581 0.0099976063 0
2.2883976 4.7698145 1.0976039 0
3.6389499 3.3722913 2.1401479 0
4.7230201 2.6245246 0.010537744 0
3.4694188 3.5446599 2.1448319 0
3.4029865 3.6102073 2.1436272 0
3.4638011 3.5524313 2.1428413 0
4.7666416 2.547997 0.012514591 0
-2.7452731 -4.1443315 2.1218529 0
2.6759834 4.3609071 1.7436458 0
2.8032339 4.2488389 1.8193491 0
2.8226833 -4.2678461 1.7432227 0
4.8087058 2.4706917 0.014599681 0
-2.3963075 -4.1510835 2.5009465 0
3.6984072 3.3031392 2.1546001 0
3.0897257 3.9285078 2.0620987 0
-3.0190759 -4.1385927 1.7291448 0
2.2863586 4.7704468 1.1181445 0
2.7497411 4.2856731 1.8185693 0
3.2817047 3.7275863 2.1381574 0
2.3509777 4.7232771 1.1853257 0
3.2455173 -4.2760859 0.65326232 0
3.955673 3.052527 2.0691962 0
4.849895 2.3931007 0.016600013 0
2.9774384 4.0591855 1.9765358 0
-2.7851493 -4.147449 2.0713413 0
3.8091354 3.1891267 2.1380882 0
3.7550139 3.2526891 2.1390724 0
3.301331 -4.2739077 0.30160272 0
3.862834 3.1254447 2.1372032 0
3.0175145 -4.283216 1.3441452 0
4.7719092 2.5481286 0.011907101 0
2.3220551 -4.2591915 2.3942506 0
3.5270503 3.4977729 2.142688 0
-2.7774484 -4.1417089 2.0974653 0
3.8309889 3.150162 2.1609354 0
3.38094 3.6408517 2.1423316 0
1.5234067 -4.2385473 2.9984264 0
2.9289653 4.1111703 1.9489024 0
3.4287479 3.5954564 2.1442168 0
2.8590105 4.1608477 1.9493742 0
2.1152112 4.9690342 0.34830809 0
3.1354768 -4.2719669 1.0993589 0
-1.9056233 -4.1750712 2.8682909 0
3.7472525 3.25526 2.1574461 0
-2.5710299 -4.1499767 2.3374507 0
4.2527037 2.9612203 1.5626719 0
2.5586154 4.496779 1.5904475 0
-2.70454 -4.1382613 2.2070355 0
4.5695891 2.8736176 0.4158138 0
2.934212 -4.2842083 1.5327013 0
2.1611345 4.9160519 0.69002271 0
-2.4201891 -4.1553888 2.4880433 0
-3.084579 -4.1333041 1.6488539 0
2.6232991 4.4352551 1.6626432 0
2.5688429 -4.2713771 2.1163473 0
2.2547357 4.8161011 1.0223641 0
-2.3006039 -4.1638188 2.588824 0
4.5544581 2.8675869 0.60540712 0
-3.4274423 -4.1322212 0.71419036 0
4.0212412 3.0208836 2.0092614 0
3.1067176 -4.2774024 1.1777527 0
2.5682173 4.4700022 1.6622324 0
3.9210634 3.0663807 2.1372583 0
3.3128505 -4.2846694 0.1168313 0
3.349371 3.6775482 2.1460292 0
2.5330415 -4.2774739 2.153228 0
3.6194124 3.4090116 2.1527197 0
