# .PCD v0.7 - Point Cloud Data file format
VERSION 0.7
FIELDS x y z intensity
SIZE 4 4 4 4
TYPE F F F F
COUNT 1 1 1 1
WIDTH 1460
HEIGHT 1
VIEWPOINT 0 0 0 1 0 0 0
POINTS 1460
DATA ascii
11.890583 -2.697171 -0.8714087 0
10.051381 6.8115234 1.4203942 0
10.229416 6.6874418 0.31719959 0
6.3912935 10.419741 0.32350993 0
10.230611 6.6815658 -0.47029376 0
10.225862 6.6783586 0.60436165 0
9.4036818 7.3260059 2.7266703 0
11.738354 -2.7058733 2.1113167 0
8.6579323 7.9234295 3.4399571 0
9.0719833 7.6026878 3.0778027 0
-11.724074 3.0880132 1.6187048 0
-5.3880568 10.963879 0.62423265 0
-5.5287495 10.463775 3.0952415 0
9.9250851 6.9158244 1.8192413 0
9.6393461 7.148356 2.3769267 0
6.7794666 9.5486279 3.5457001 0
10.242503 6.6895971 0.24668765 0
10.230603 6.6881857 -0.56901205 0
6.5858607 10.024224 2.4249907 0
11.901165 -2.6994839 0.90417099 0
6.4931054 10.165575 2.0677595 0
6.6901355 9.7525606 3.1477385 0
10.230929 6.6883903 0.61080194 0
-0.99649286 12.159156 -0.99112844 0
6.3924465 10.421497 0.6139462 0
9.992157 6.871212 1.6724467 0
-5.3848391 10.956734 0.90415311 0
9.1677837 7.5286169 3.0275345 0
10.112573 6.7779779 1.3179474 0
10.192777 6.7201138 -0.97545552 0
10.190223 6.7177958 1.0235703 0
6.3876047 10.414123 0.90416574 0
6.5951667 9.954217 2.745604 0
-5.5498099 10.448867 3.1905231 0
10.237362 6.6861248 -0.8327682 0
11.894815 -2.698096 1.1983297 0
10.317204 6.6120882 0.22615039 0
6.4065537 10.393825 1.0684743 0
10.307207 6.6032715 0.62501693 0
-11.539454 -3.6208072 1.9933531 0
9.1824398 7.5112262 3.0835171 0
-0.83405256 12.189658 -0.99017572 0
10.23236 6.6892858 0.9041698 0
9.0682411 7.6065035 3.1994448 0
10.234591 6.6842537 0.96267307 0
10.237615 6.6925759 -0.86835206 0
10.322181 6.6164775 -0.17378336 0
9.3476553 7.3793826 2.9204266 0
9.5516109 7.2301207 2.6238494 0
-5.3967018 10.953531 1.1531579 0
10.349087 6.5839386 -0.11335886 0
9.8859749 6.9734278 2.0298686 0
6.4254665 10.362763 1.3454614 0
10.318236 6.6129985 -0.57460725 0
-11.118924 3.239435 4.0503521 0
8.7926769 7.8340969 3.4435768 0
10.046577 6.8070359 1.8208804 0
10.222903 6.6833639 1.1973174 0
10.180446 6.7089205 1.4226193 0
10.35489 6.587738 0.24603868 0
9.2934227 7.4270973 3.0292768 0
9.5282307 7.2432694 2.7367876 0
9.7591286 7.0590115 2.3847182 0
6.5622749 10.040072 2.6255713 0
10.352193 6.5859728 -0.47452056 0
9.8157825 7.0361819 2.2241974 0
-5.3909998 10.970414 1.1842413 0
9.9310122 6.9229083 2.0691981 0
-5.4188709 10.852696 1.9262915 0
6.3351583 10.522384 -0.13069803 0
-5.3476706 11.055745 -0.22129512 0
6.3295307 10.510652 0.61078811 0
8.9113579 7.7246656 3.4409208 0
6.3936443 10.423321 1.194437 0
-5.4683704 10.69198 2.594727 0
9.9850693 6.8661246 2.0325439 0
6.3363023 10.524768 0.24033856 0
10.111211 6.77703 1.6777067 0
10.313199 6.6085558 -0.97734046 0
10.229479 6.6808009 1.321574 0
11.896074 -2.6983714 1.4928682 0
9.6684637 7.1181211 2.6240098 0
-5.4817576 10.644376 2.7758808 0
-11.528556 -3.6172488 2.266542 0
6.5753121 10.004458 2.7951126 0
-5.6038532 10.185609 4.000421 0
-0.67527056 12.236333 -0.99154925 0
11.732253 -2.7036417 2.4931421 0
10.36176 6.592236 0.60550463 0
6.4047389 10.389411 1.4983191 0
6.6566482 9.8478899 3.1492043 0
6.5022426 10.171248 2.3416171 0
9.6439095 7.1581163 2.6435618 0
9.9237461 6.9145374 2.2229874 0
6.3375716 10.527414 -0.50362962 0
6.4192348 10.350235 1.7148066 0
-5.3866777 10.960817 1.4641428 0
-11.362907 -3.6119304 3.0253186 0
10.320866 6.6153178 1.0250914 0
-11.721712 3.0876381 2.0997095 0
-5.3601236 11.073492 0.20983171 0
10.358096 6.5898371 -0.8385663 0
-5.3891888 10.941007 1.6388283 0
9.3076401 7.4315562 3.0948286 0
-5.352983 11.063316 0.64135122 0
6.3329659 10.517814 -0.87724519 0
-11.929446 3.0318561 0.073770285 0
10.355082 6.5878634 0.96513426 0
10.448751 6.5093393 -0.17510563 0
6.3906918 10.418824 1.4847724 0
9.4205379 7.3268032 3.0319915 0
-5.3568497 11.068827 -0.65578079 0
9.0373325 7.6241961 3.4419785 0
10.450632 6.5109506 0.22555089 0
-11.93242 3.0326414 0.35092008 0
10.233621 6.6900754 1.4913728 0
-0.51301122 12.267377 -0.99124682 0
9.8755684 6.9657307 2.3919303 0
10.445318 6.5063972 -0.57687914 0
-11.929158 3.03178 0.62776279 0
6.5013514 10.181574 2.444447 0
10.223214 6.6765709 1.6820722 0
10.476274 6.4902911 0.24517918 0
10.472341 6.4877958 -0.47870296 0
10.481535 6.493629 -0.11662942 0
6.339788 10.532035 0.98265886 0
6.3804131 10.403169 1.7745538 0
-5.5365396 10.434766 3.545496 0
10.315076 6.6102114 1.4256384 0
9.5351286 7.2128534 3.0309615 0
10.455341 6.5149856 0.62595725 0
9.4177647 7.3377275 3.101151 0
10.521902 6.439991 0.014403582 0
9.659565 7.1642275 2.7491331 0
10.106717 6.7739005 2.0398431 0
9.8003788 7.0209432 2.6287284 0
11.906393 -2.7006264 1.7887554 0
9.9363222 6.9264493 2.363584 0
10.190145 6.7177262 1.8264194 0
-0.35052371 12.296983 -0.99105585 0
6.3028183 10.609222 -0.22551483 0
10.443837 6.5051279 -0.98111403 0
6.5618858 10.039515 2.9171338 0
10.52599 6.4423904 -0.2841332 0
10.481032 6.49331 0.60631919 0
10.52747 6.4432592 0.31122863 0
6.3046861 10.613957 0.20871592 0
10.357425 6.5893974 1.3264675 0
9.3575163 7.3868093 3.2171326 0
-5.3598771 11.073141 1.0738087 0
9.1652727 7.5257483 3.4444079 0
-11.936831 3.0338063 0.90414917 0
6.4023418 10.383578 1.9302759 0
-5.414444 10.846576 2.3601732 0
9.6332378 7.1505485 2.9361331 0
10.524061 6.4412584 -0.58337617 0
6.3014369 10.60572 0.64252949 0
-0.18563795 12.312397 -0.98938811 0
10.231725 6.6888881 1.7856152 0
-5.53615 10.431076 3.6285863 0
9.9860573 6.8668332 2.3979657 0
6.6885366 9.7491016 3.5839186 0
-5.3939095 10.976874 1.7461302 0
-11.536195 -3.6197431 2.5434284 0
-11.255938 3.2048841 3.9608703 0
10.475849 6.4900222 0.96767652 0
10.063773 6.8231001 2.2291231 0
9.7643204 7.0629683 2.7539601 0
6.337358 10.526969 1.3549862 0
10.575184 6.4011021 -0.17650789 0
10.457039 6.5164404 1.0270774 0
11.719901 -2.6991236 2.8781931 0
6.5992346 9.9633598 3.1833925 0
10.535875 6.4481931 0.6076349 0
6.4239826 10.35978 2.0902555 0
10.489079 6.4984155 -0.84600389 0
9.5304585 7.2450709 3.1087518 0
10.59396 6.3888826 -0.11871964 0
-11.936893 3.0338225 1.180722 0
-5.3842821 10.955498 2.0260243 0
10.595444 6.3897943 0.24434376 0
10.530117 6.4448133 -0.88544846 0
-5.3521075 11.062068 1.5064583 0
11.901936 -2.6996524 2.0846882 0
10.589784 6.4132538 0.22479558 0
10.579468 6.4046679 0.62637007 0
10.581306 6.4061985 -0.58031261 0
9.9280853 6.9187083 2.6326249 0
6.3017826 10.606597 1.076767 0
9.9236517 6.9180002 2.656837 0
-5.3929195 10.947227 2.1291361 0
9.2946444 7.4284525 3.4479408 0
10.22258 6.6831613 2.0799146 0
6.3868275 10.412938 2.0672481 0
10.316921 6.6118388 1.8293498 0
10.472529 6.4879155 1.3301225 0
10.232404 6.682776 2.0480978 0
6.5782437 10.009952 3.1773453 0
10.542289 6.4519577 0.90417385 0
10.599716 6.3924198 0.60714364 0
10.179782 6.7083178 2.2303236 0
-11.722919 3.0878298 2.5852618 0
-5.4663377 10.6887 3.0869293 0
10.450985 6.5112534 1.428932 0
-5.481174 10.643593 3.2168169 0
6.497273 10.173661 2.8213389 0
-0.025678873 12.357265 -0.99167717 0
10.361957 6.5923643 1.6905327 0
9.6777134 7.1275377 3.0397105 0
6.5064402 10.181058 2.7791195 0
10.609322 6.3983226 -0.48472238 0
10.526057 6.4424305 1.2004476 0
10.107973 6.774775 2.4069853 0
10.598436 6.3916335 -0.85044897 0
6.2558465 10.71295 -0.13796276 0
9.8836727 6.971725 2.763346 0
6.2934647 10.585509 1.5105968 0
0.1397773 12.367075 -0.98989904 0
6.2559552 10.713185 0.23796058 0
9.6472702 7.1545768 3.1181245 0
-11.943318 3.0355201 1.4579051 0
10.579026 6.4043002 1.0281699 0
-11.533507 -3.6188655 2.8207228 0
6.5603037 10.037251 3.2105126 0
6.2545977 10.710248 -0.51500869 0
10.598931 6.3919373 0.97042537 0
-11.350924 -3.6094964 3.5104799 0
10.04645 6.8069167 2.634377 0
10.590127 6.4135399 -0.98758137 0
6.34237 10.537418 1.7313149 0
6.2563391 10.714015 0.6134553 0
9.6322279 7.1498322 3.2325726 0
9.4210224 7.3273249 3.4507928 0
9.7943649 7.0149927 3.0403137 0
12.130314 -2.6815555 0.23363411 0
10.711008 6.2994299 -0.17863208 0
12.137043 -2.6839082 -0.15133983 0
9.9873142 6.8677363 2.7685449 0
10.714927 6.3025975 0.22433162 0
-5.388526 10.964921 2.3099947 0
0.30299926 12.391583 -0.99023664 0
-11.473143 3.1465356 3.6201849 0
6.4232421 10.358291 2.4682341 0
10.724997 6.2938457 -0.12201887 0
10.473312 6.4884124 1.695111 0
9.7539692 7.0550795 3.1244273 0
6.3845634 10.40949 2.3599143 0
6.2557707 10.712785 -0.89486563 0
10.531942 6.4458847 1.4973614 0
10.72683 6.2949362 0.24323809 0
10.352544 6.5862026 2.0554738 0
10.445105 6.5062137 1.8327188 0
10.222129 6.682879 2.3761923 0
10.593595 6.3886576 1.3345072 0
11.909811 -2.7013736 2.3831735 0
-11.942905 3.0354109 1.7355049 0
12.139854 -2.6848912 -0.53786105 0
6.4095507 10.401115 2.3695121 0
10.714108 6.3019361 0.6270498 0
10.727067 6.2950773 -0.48886341 0
10.717764 6.3048911 -0.58392167 0
9.9222393 6.917058 2.9535289 0
-5.4214625 10.85628 2.8021469 0
10.728438 6.2958932 0.60819447 0
-5.3129692 11.204988 1.1622772 0
9.543746 7.2218809 3.4527507 0
12.149038 -2.6881022 0.61811209 0
10.319624 6.614223 2.2368917 0
-5.3630199 11.077621 1.9448056 0
6.2082357 10.804256 0.01658237 0
10.588814 6.412447 1.4325671 0
6.262949 10.728316 0.99024987 0
10.236006 6.6852088 2.4176636 0
10.709825 6.2984729 -0.9899838 0
-5.2894454 11.284235 -0.22941166 0
-5.2902093 11.285357 0.20748317 0
10.725767 6.2943039 -0.85764349 0
0.46609318 12.41826 -0.99113011 0
12.139387 -2.6847279 -0.92653346 0
9.8622627 6.9558878 3.1316729 0
10.721273 6.2916303 0.97319174 0
-11.525606 -3.6162856 3.0989823 0
10.799354 6.158968 -0.98790884 0
10.177822 6.7065392 2.6399441 0
6.2126303 10.811387 -0.28156364 0
-5.3887424 10.940262 2.6217401 0
6.3411255 10.534823 2.109406 0
11.731193 -2.7032537 3.2753229 0
6.2540431 10.709048 1.366293 0
11.886542 -2.6962879 2.679183 0
9.929533 6.9201012 3.0473595 0
10.831348 6.1824818 -0.49176103 0
10.535556 6.4480052 1.7950542 0
10.889865 6.0207777 -0.98631799 0
10.72185 6.3081946 1.0307627 0
6.2177267 10.819658 0.31213796 0
6.2120132 10.810387 0.60856879 0
-11.939881 3.0346119 2.0137386 0
-5.2921162 11.288159 0.64397597 0
12.150764 -2.6887059 1.0035014 0
6.4992299 10.164208 3.2166576 0
6.5990081 9.9628506 3.6261711 0
6.1997476 10.839519 0.2057029 0
10.833884 6.1839418 0.60879576 0
0.63047218 12.434184 -0.99098432 0
10.114472 6.7793012 2.7807286 0
10.842735 6.1997914 0.003189683 0
10.844609 6.1944938 0.22373688 0
10.84236 6.1995864 -0.29862332 0
6.3827581 10.40674 2.654103 0
-5.2969422 11.295251 -0.66909814 0
-5.3900795 10.968369 2.5950761 0
10.848372 6.1974478 -0.18093252 0
10.715001 6.2878981 1.339035 0
10.477569 6.4911132 2.0639596 0
-5.5422645 10.443719 4.0494308 0
6.5008497 10.180601 3.2082071 0
10.847658 6.2024946 0.30380011 0
10.85398 6.1955123 0.2421993 0
12.198213 -2.6865046 -0.50150752 0
10.577828 6.4033036 1.8370166 0
10.840695 6.1986718 -0.60155869 0
12.209222 -2.688333 -0.1303041 0
10.842672 6.1929736 0.62761998 0
0.7958225 12.438331 -0.98967767 0
10.607693 6.3973212 1.7031827 0
9.6757298 7.1255178 3.4588022 0
6.3068171 10.61936 1.9527488 0
6.2141123 10.813792 0.90417266 0
6.4182067 10.348167 2.8490357 0
10.84775 6.1969595 -0.5869329 0
6.2009053 10.842581 0.6457541 0
10.845562 6.2013435 0.60420716 0
-5.2889667 11.283531 1.0807669 0
10.862925 6.2006621 -0.12579042 0
-11.918653 3.0290055 2.290837 0
10.519197 6.4384036 2.0917506 0
10.992788 5.8921885 -0.98694348 0
-11.727992 3.088635 3.0770617 0
-5.4766355 10.637504 3.6630783 0
10.448814 6.5093927 2.2414403 0
10.214175 6.6704664 2.785501 0
6.4009027 10.380078 2.8068593 0
10.715652 6.3031831 1.4350839 0
6.2077551 10.803477 1.1995873 0
12.210876 -2.6886077 0.61091328 0
10.839715 6.1981335 0.90417767 0
10.236741 6.6920295 2.6765614 0
12.149664 -2.6883211 1.3901701 0
12.226795 -2.691252 0.24020493 0
-5.4623771 10.682305 3.5847425 0
9.9877415 6.8680425 3.1449823 0
10.365559 6.5947227 2.4288943 0
6.1693797 10.897272 0.23565829 0
10.839511 6.1904922 1.0317421 0
-5.3569832 11.069017 2.3835874 0
6.2550035 10.711125 1.7460411 0
10.853241 6.1950865 -0.86499774 0
-5.3213439 11.219414 1.6567888 0
9.9253712 6.9191461 3.2534504 0
10.849089 6.1926956 0.97635365 0
10.849349 6.2034225 -0.90771246 0
6.1994748 10.838796 1.0861874 0
6.174211 10.90813 -0.14551139 0
12.21305 -2.6889689 -0.87742126 0
6.1707988 10.900462 -0.52713633 0
10.589484 6.3861318 2.0701883 0
10.066872 6.825995 3.0554285 0
11.095067 5.7629156 -0.98774469 0
10.32153 6.6159039 2.6490133 0
9.8004093 7.0209732 3.4625397 0
10.838911 6.1976919 1.2039721 0
0.95912516 12.468564 -0.99187434 0
6.1653709 10.888263 -0.90990341 0
10.719695 6.2906909 1.7081759 0
10.972492 6.0837502 -0.18243217 0
12.218799 -2.6899238 0.98221278 0
6.2088909 10.80532 1.4954243 0
10.975336 6.0908766 -0.12808174 0
1.1248797 12.463335 -0.98999619 0
6.3445892 10.542044 2.4936168 0
6.1762376 10.912685 0.61603606 0
10.978607 6.0926981 0.24119067 0
10.981053 6.0902753 0.22296607 0
11.185757 5.6253037 -0.98708212 0
10.972832 6.0840087 -0.58954287 0
-5.2935781 11.290308 1.5199749 0
-5.3927488 10.974298 2.8826532 0
10.477164 6.4908562 2.436192 0
11.902044 -2.6996763 2.9825482 0
-5.4228482 10.858196 3.248785 0
10.576972 6.4025903 2.2460339 0
-11.922111 3.0299187 2.5720129 0
10.979778 6.0933504 -0.49921876 0
10.852034 6.1943917 1.3452492 0
12.148793 -2.6880167 1.7791569 0
-12.211748 2.961117 -0.31321287 0
12.204074 -2.6874781 1.3534272 0
6.3026118 10.608699 2.393683 0
10.844209 6.19418 1.4379392 0
6.1735001 10.906533 0.99681973 0
10.527809 6.4434586 2.392241 0
10.225531 6.685009 2.9746993 0
10.72033 6.3069658 1.8430424 0
10.983281 6.0919728 0.6284827 0
6.3913336 10.419801 2.9531798 0
-12.221668 2.9625466 0.17942095 0
6.2004571 10.841394 1.5285497 0
10.117054 6.7810984 3.1598253 0
1.28945 12.477911 -0.99084449 0
10.845949 6.2015562 1.5044665 0
-11.367846 -3.6129332 4.0105696 0
10.970334 6.0880909 0.97918153 0
-12.215184 2.9616122 0.67186463 0
10.353912 6.5870981 2.801708 0
-5.3139362 11.206654 2.1516404 0
6.2080517 10.803957 1.7917414 0
10.195621 6.7226958 3.0611382 0
10.446912 6.5077629 2.653615 0
6.1665492 10.890911 1.3776217 0
6.2575808 10.716702 2.1298308 0
10.997302 6.1031084 0.61058271 0
11.288243 5.4958043 -0.9884671 0
9.9334049 6.9238238 3.4698772 0
10.987057 6.097403 -0.87338519 0
-12.218265 2.9620562 -0.80840468 0
1.4546156 12.477974 -0.99019921 0
-5.3957019 10.951864 3.1234617 0
11.369689 5.3521032 -0.98702466 0
10.98609 6.0941138 1.0347281 0
10.69547 6.2868686 2.2489204 0
10.725486 6.2941365 2.0810814 0
6.4222193 10.356235 3.240675 0
10.85135 6.1939979 1.7161298 0
11.105721 5.9757295 0.22242641 0
6.3352299 10.522533 2.8767977 0
-11.49308 3.1527154 4.1388617 0
12.204989 -2.6876299 1.7278178 0
10.839614 6.1980782 1.8049204 0
-5.3873758 10.962367 3.169054 0
-5.2919569 11.287926 1.9610887 0
10.516644 6.4369044 2.6916132 0
6.5040016 10.175361 3.6681786 0
1.6196631 12.478157 -0.98985922 0
-12.21508 2.9615972 1.1647892 0
10.604446 6.3953271 2.4473431 0
11.111689 5.9925213 -0.13187432 0
11.103722 5.9882326 -0.50431353 0
11.111042 5.9921732 0.24000573 0
10.232917 6.6831231 3.1705813 0
11.100725 5.9866204 0.61118972 0
-5.3626409 11.07708 2.8304689 0
6.4034719 10.386328 3.2553959 0
10.979513 6.0932026 1.3505921 0
10.849096 6.1980166 1.8470736 0
10.974528 6.0853019 1.4411294 0
12.149496 -2.6882622 2.1716931 0
11.147926 5.9409022 -0.0071777105 0
11.111752 5.9801912 -0.59380829 0
11.11111 5.9797158 0.62909043 0
11.122815 5.9883752 -0.18573081 0
6.1967783 10.831662 1.972199 0
6.2078571 10.803642 2.0890656 0
6.0907679 11.068539 0.20261335 0
-5.2373343 11.499335 0.033014417 0
-5.2367611 11.480098 0.67453682 0
-11.721301 3.0875728 3.5731945 0
-11.931781 3.0324726 2.8562589 0
-5.2368755 11.498233 0.3239783 0
11.468821 5.2199812 -0.98846745 0
10.059223 6.8188496 3.4749985 0
11.906676 -2.7006884 3.28689 0
-5.2258911 11.512763 0.20481062 0
6.0802832 11.085144 0.2332747 0
6.0808306 11.086424 -0.15211815 0
-5.2182398 11.501167 0.64634681 0
10.481607 6.4936752 2.8148041 0
10.329158 6.6226315 3.0687084 0
11.158532 5.9463348 -0.31361759 0
10.225217 6.684813 3.2769322 0
-5.2369881 11.498503 0.61422217 0
11.100387 5.9864378 0.98260152 0
10.581156 6.4060731 2.6607976 0
11.109146 5.9911528 -0.88026893 0
6.3932409 10.422707 3.252996 0
6.1724615 10.904199 1.7634449 0
1.7847052 12.489487 -0.9911778 0
11.107477 5.9770293 1.0361309 0
11.156504 5.9452963 0.60061002 0
-5.2318568 11.521805 -0.23807472 0
11.166497 5.9504151 0.29618621 0
11.157977 5.9460511 -0.62048244 0
6.0942287 11.078106 0.64896417 0
11.555699 5.079895 -0.98840547 0
-5.2356167 11.49521 0.90416551 0
-5.2279711 11.515916 -0.681777 0
10.842297 6.1995506 2.1069784 0
6.0849257 11.095993 -0.53981054 0
6.2592821 10.720383 2.517915 0
6.0842595 11.094437 0.61830163 0
10.720781 6.291338 2.4562342 0
10.854151 6.1956105 2.090786 0
-5.2296362 11.480844 1.1936636 0
10.437531 6.4997249 3.0689735 0
12.204896 -2.6876144 2.105336 0
11.156206 5.9451432 0.90418231 0
10.350895 6.5851231 3.1823654 0
6.3070889 10.620049 2.8433161 0
-5.4146209 10.846821 3.6984539 0
10.980132 6.0935473 1.7238121 0
6.0798097 11.084038 -0.92773354 0
-5.3104415 11.200633 2.6509533 0
10.583817 6.3826494 2.8212433 0
6.0897183 11.065638 1.0953424 0
11.159211 5.9466829 -0.92927504 0
11.636936 4.936429 -0.98782551 0
1.9499233 12.491586 -0.99165344 0
-5.2841873 11.276508 2.4040687 0
10.974524 6.0852995 1.8507876 0
6.206851 10.80201 2.3874869 0
11.236467 5.8857784 -0.13503855 0
11.101293 5.9869251 1.3554721 0
-12.222754 2.962703 1.6602013 0
11.102217 5.9731379 1.4441705 0
-5.4699941 10.694601 4.0960093 0
-5.2465987 11.497617 1.1738706 0
11.250308 5.874352 -0.1876114 0
10.191963 6.7193756 3.4831066 0
11.251638 5.8753071 0.22140038 0
6.0856314 11.097643 1.0041575 0
-5.2295008 11.518234 1.0892506 0
11.716321 4.7920141 -0.98728037 0
11.2486 5.892087 0.23870027 0
2.1149783 12.484125 -0.99124515 0
10.706655 6.2959099 2.6660774 0
11.244667 5.8900418 -0.51119602 0
11.240691 5.8879743 0.61254406 0
-5.230485 11.482883 1.4835794 0
12.149299 -2.6881933 2.5684626 0
10.855499 6.2030425 2.2604725 0
11.24948 5.8737583 0.62995315 0
-11.932458 3.0326514 3.1414037 0
10.532001 6.445919 2.9974034 0
11.252945 5.876245 -0.59843576 0
2.2794118 12.464636 -0.98964846 0
6.1720438 10.903259 2.151145 0
11.16832 5.9513488 1.2080643 0
6.3371019 10.526435 3.2716417 0
10.838552 6.1974955 2.4096384 0
11.795433 4.6475544 -0.98699284 0
-5.3854742 10.934813 3.6252785 0
-11.622045 -3.6159003 3.6864376 0
11.238248 5.8867044 -0.88828337 0
6.1993275 10.838407 2.4217293 0
6.088789 11.063067 1.5433507 0
6.0827379 11.09088 1.3907239 0
6.0230408 11.211613 -0.0012417436 0
11.24787 5.8726025 1.0388541 0
11.101657 5.9871216 1.7306244 0
10.476391 6.4903655 3.1968756 0
-5.3602519 11.073675 3.2809172 0
11.158476 5.9463062 1.5117605 0
6.2536659 10.708232 2.9075623 0
6.0266314 11.217831 0.30077624 0
10.985585 6.0965838 2.101172 0
11.250677 5.893167 0.98727787 0
-5.2420931 11.489594 1.6738782 0
-5.2285609 11.516809 1.5332706 0
11.877104 4.5045099 -0.9873538 0
10.318032 6.6128187 3.4892411 0
2.4449012 12.468048 -0.99115694 0
11.361903 5.7773976 -0.13830864 0
10.971266 6.0828156 2.2633252 0
10.581828 6.4066324 3.0805578 0
12.21243 -2.6888659 2.4885497 0
10.72096 6.2914438 2.8374414 0
6.4028425 10.384797 3.709445 0
6.0288992 11.221761 0.60253584 0
10.867606 6.2033577 2.4722261 0
-5.2356834 11.495371 1.7750199 0
-12.219487 2.9622321 2.157836 0
11.364918 5.7789102 -0.51614153 0
11.384501 5.7637019 -0.19000608 0
11.117684 5.9845796 1.8574185 0
11.954359 4.359036 -0.98738527 0
11.38583 5.7646275 0.22060311 0
10.838239 6.1894932 2.6731939 0
2.6097136 12.457333 -0.99121904 0
6.3008976 10.604353 3.2932405 0
11.379752 5.786355 0.23750126 0
6.0287752 11.221545 0.90417993 0
6.081665 11.088374 1.7797127 0
11.371045 5.7819853 0.61372852 0
12.018298 4.2068338 -0.98587441 0
11.248992 5.8922906 1.3630223 0
11.385183 5.7641764 -0.60222197 0
-11.843236 3.0490348 3.6954679 0
6.2229872 10.828194 2.6920419 0
11.161274 5.9477391 1.8165946 0
6.1690044 10.896428 2.5418317 0
11.252925 5.8762307 1.4498334 0
11.389703 5.7673244 0.63087916 0
10.532779 6.4463754 3.3031902 0
5.9944263 11.291263 -0.16026628 0
-5.2891307 11.283772 2.8553984 0
-5.3072748 11.195178 3.1554585 0
2.7741375 12.441748 -0.99097157 0
10.598408 6.3916159 3.2105932 0
-5.2204933 11.504582 1.9783034 0
5.995338 11.29348 0.23049474 0
6.0261374 11.216976 1.2056956 0
11.103962 5.9883623 2.109386 0
11.375943 5.7844439 -0.89762712 0
5.9924445 11.286441 0.62077236 0
5.9802098 11.308617 0.19930589 0
10.85352 6.2057128 2.7167521 0
6.0924158 11.073093 1.9955583 0
11.373162 5.7830477 0.99036872 0
12.153524 -2.6896706 2.9717221 0
-11.729436 3.0888643 4.0809383 0
-5.2336893 11.474628 2.1753285 0
12.09692 4.0620928 -0.98667514 0
5.9960923 11.295316 -0.55288559 0
10.708178 6.2971416 3.0870795 0
6.1950564 10.827107 2.8730168 0
11.383111 5.7627339 1.0413172 0
10.981128 6.0941014 2.4809632 0
11.235695 5.8853769 1.7393298 0
-5.2375603 11.49988 2.0672348 0
2.9382985 12.423866 -0.99073052 0
10.456369 6.5158668 3.5001717 0
5.9907227 11.282252 -0.9459461 0
6.0199461 11.206252 1.5069618 0
5.9818716 11.313424 0.65218282 0
11.485007 5.687448 0.28831697 0
12.168148 3.9136584 -0.98675036 0
6.2110329 10.808796 2.9912305 0
11.497348 5.6718416 -0.14222956 0
12.202569 -2.687228 2.8734672 0
5.9939413 11.290083 1.0115993 0
11.494501 5.6919723 -0.021188796 0
11.482616 5.6863084 0.59648037 0
3.1025963 12.40733 -0.99094558 0
11.116808 5.9839311 2.2723551 0
-5.1580501 11.742863 -0.24568319 0
10.861856 6.2000465 2.8548555 0
11.516299 5.6498146 0.21985841 0
11.166243 5.9502845 2.122798 0
11.254304 5.8772211 1.8632121 0
11.496911 5.69312 -0.33146143 0
-5.2295628 11.480668 2.3579469 0
11.497064 5.6717043 0.6148504 0
3.2648609 12.374887 -0.98948193 0
-5.1463528 11.741204 0.67776382 0
11.378458 5.785706 1.3688669 0
11.511695 5.6787872 0.23626566 0
6.0844111 11.09479 2.1733975 0
11.524646 5.6554513 -0.19285476 0
10.981022 6.090251 2.6833448 0
11.506627 5.6763339 -0.52329397 0
11.516485 5.64994 0.63154542 0
5.981297 11.311761 1.1056089 0
11.221778 5.8781414 2.1177166 0
11.518094 5.6510267 -0.60621309 0
-5.1592703 11.744771 0.64935207 0
-5.1674552 11.757571 0.2017827 0
-5.352746 11.062979 3.7360077 0
11.496827 5.6930799 -0.64288712 0
11.482656 5.686327 0.90418744 0
12.241973 3.7663352 -0.98746157 0
10.725337 6.2940483 3.2261691 0
6.259336 10.720499 3.3098087 0
-5.1599555 11.745843 -0.69540524 0
10.575168 6.4010892 3.5046473 0
-12.218336 2.9620664 2.6598632 0
10.84416 6.2005744 3.0221176 0
11.392375 5.7691846 1.4543886 0
11.099901 5.9861765 2.4911392 0
12.303106 3.6133101 -0.98675382 0
11.494106 5.6917839 -0.95559728 0
11.4751 5.6827264 1.2117007 0
5.9953671 11.293551 1.4041185 0
11.150225 5.9420795 2.4278388 0
11.510036 5.6779838 -0.90661526 0
6.171258 10.901494 2.9403389 0
6.0295563 11.222898 1.8105164 0
11.366031 5.779469 1.7476654 0
10.976333 6.0914316 2.8654976 0
11.51316 5.6794963 0.99455011 0
10.851656 6.2000256 3.0990181 0
6.202116 10.794327 3.2927442 0
6.0939898 11.077446 2.4514525 0
3.4313941 12.373435 -0.99214971 0
12.597926 -2.6715565 0.22596633 0
-5.1623197 11.74954 1.0974984 0
-5.2828598 11.274558 3.3089132 0
-5.3911648 10.944301 4.1421447 0
12.372546 3.463876 -0.98744667 0
12.605845 -2.6741989 -0.17442554 0
5.980299 11.308873 1.5604613 0
3.5931845 12.338695 -0.99097884 0
12.597191 -2.6713111 -0.57534122 0
-11.632185 -3.6193645 4.2130337 0
11.533428 5.6613817 1.0448101 0
-5.2345352 11.525864 2.4325001 0
12.595481 -2.6707406 0.6253885 0
11.496218 5.6712947 1.373682 0
-5.1551709 11.757448 1.1834753 0
11.631043 5.5630727 -0.14611095 0
11.389528 5.7672029 1.8689709 0
11.637839 5.5662432 0.2351203 0
6.3042021 10.612731 3.7562251 0
6.0241175 11.213477 2.1131465 0
12.158211 -2.6913092 3.3819828 0
-5.2358389 11.495743 2.6544955 0
12.437372 3.3123934 -0.9878093 0
12.197309 -2.6863544 3.2651882 0
12.588988 -2.6685746 1.0248942 0
6.0837831 11.093324 2.5702846 0
11.263642 5.883924 2.2818217 0
11.118846 5.9854393 2.6925352 0
5.8943901 11.473758 -0.56404322 0
11.660562 5.5425305 -0.19550943 0
5.8988943 11.485178 -0.16782302 0
-5.2429037 11.491036 2.6855924 0
5.9959021 11.294852 1.7990186 0
5.8990164 11.485486 0.22801399 0
11.640672 5.5675645 -0.52980101 0
11.492797 5.6911597 1.5204618 0
11.520857 5.6528926 1.4579048 0
10.71231 6.3004818 3.5159616 0
3.7575803 12.320032 -0.99209833 0
6.1976805 10.834049 3.3341255 0
12.601693 -2.6728132 -0.97977793 0
10.969872 6.0817533 3.1039 0
10.862361 6.2003374 3.2451715 0
11.658561 5.5412211 -0.61112726 0
-5.1604667 11.746642 1.5468881 0
3.917881 12.278471 -0.99065197 0
11.64818 5.5710678 0.6164788 0
11.66264 5.543891 0.63264489 0
11.674338 5.5515499 0.21851099 0
11.628729 5.5619926 0.99737692 0
10.845003 6.2010369 3.3315234 0
12.498405 3.1593339 -0.987957 0
11.488052 5.6673422 1.7550163 0
5.9003477 11.488862 0.62344933 0
11.639105 5.5668335 -0.91507018 0
12.546989 3.0016494 -0.98676383 0
11.376638 5.7847924 2.1328325 0
11.245997 5.8907337 2.5075655 0
-5.3172154 11.212301 3.6724424 0
-5.1521096 11.751808 1.690156 0
4.0793877 12.244235 -0.99040687 0
11.483373 5.6866689 1.8287055 0
11.167224 5.9507871 2.7389202 0
5.899034 11.485532 1.0192428 0
11.114245 5.9938974 2.8826118 0
6.0219231 11.209678 2.417347 0
11.661869 5.5433865 1.0469911 0
6.1669931 10.891908 3.3414173 0
5.9820075 11.313817 2.0189047 0
5.8652239 11.552705 0.19591117 0
4.2397251 12.204841 -0.98980248 0
4.3964624 12.150706 -0.98762548 0
-5.2216225 11.506293 2.8840261 0
5.9905391 11.281807 2.1949615 0
12.604279 -2.6736758 1.4273949 0
5.9051819 11.501118 -0.96695042 0
10.835807 6.1875839 3.522995 0
12.610954 2.8496008 -0.98787141 0
11.631698 5.5633779 1.3803346 0
-11.871655 3.0573995 4.228581 0
11.388508 5.7664924 2.2872324 0
-5.2350054 11.493743 2.9507136 0
-12.656132 2.8518724 0.027504802 0
11.249333 5.8736525 2.7002368 0
10.982367 6.0947914 3.2592173 0
-12.655896 2.8518174 0.32026505 0
6.0951247 11.080584 2.9124916 0
-12.230775 2.9638588 3.1700621 0
-5.1575069 11.742014 1.998539 0
11.77481 5.4564686 0.23374414 0
11.098767 5.9705858 3.1122856 0
11.777489 5.4576721 -0.15078968 0
11.352686 5.7727714 2.5156016 0
5.8684711 11.562554 0.65566981 0
12.696244 -2.5309629 -0.98542273 0
11.770794 5.4546642 -0.53603995 0
5.8971901 11.480857 1.4161108 0
11.534397 5.6620364 1.8763373 0
12.664619 2.6938083 -0.98792303 0
-12.637459 2.8475096 0.90416729 0
-12.654103 2.8513985 0.61241722 0
4.5593624 12.122966 -0.989066 0
11.491329 5.6689281 2.141012 0
6.0826254 11.090618 2.9721735 0
12.585 -2.667244 1.8290172 0
11.487561 5.6886644 2.1388764 0
11.805695 5.4337001 -0.19881296 0
12.709914 2.5353074 -0.98718393 0
11.80616 5.4339957 0.21768856 0
11.75989 5.4497657 1.0011785 0
11.66756 5.547112 1.4634681 0
11.819376 5.4205475 -0.033914685 0
5.8253078 11.627168 -0.019869268 0
11.157692 5.9459047 3.0480356 0
11.819181 5.4204617 0.27936268 0
11.789135 5.462904 0.61792982 0
11.808642 5.4158053 -0.66248965 0
12.752325 -2.37608 -0.98636973 0
12.752995 2.3762825 -0.98645568 0
12.783798 -2.2138805 -0.98445356 0
5.8269377 11.630186 0.28854632 0
11.806339 5.4341092 -0.61691821 0
5.8677692 11.560426 1.1160531 0
-5.1507945 11.749386 2.1999421 0
5.8250847 11.626754 0.59662414 0
11.811252 5.4372253 0.6338166 0
11.828866 5.4247398 -0.34917188 0
11.782266 5.4598179 -0.92558265 0
-12.648009 2.8499746 1.1957729 0
12.983459 -0.19271833 -0.98425078 0
6.0267029 11.217956 2.7249641 0
-5.0915241 11.983636 -0.2545054 0
11.247364 5.8914442 2.898716 0
4.7230339 12.09668 -0.99099278 0
-5.0925846 11.985349 0.19911385 0
11.810999 5.4168468 0.90419269 0
11.827991 5.4243531 0.59172297 0
-5.2925038 11.288729 3.7765951 0
5.9794235 11.30634 2.4795821 0
-5.2305717 11.483091 3.2473412 0
12.95695 0.96327668 -0.98518825 0
4.8790855 12.041667 -0.98956025 0
-5.086493 11.975514 -0.70898759 0
12.829549 -2.05598 -0.98465705 0
12.992274 0.19284479 -0.98548985 0
12.924093 -1.3475066 -0.98522961 0
12.958733 -0.96340472 -0.9854393 0
5.9896131 11.279553 2.5965862 0
11.103562 5.9881473 3.2739787 0
12.823605 -2.1120911 -0.98505902 0
-5.2453146 11.49533 3.2001529 0
12.882195 -1.7308999 -0.98554993 0
12.806777 2.2204657 -0.98738861 0
11.651932 5.5728178 1.768208 0
6.1938772 10.823987 3.7983813 0
12.988356 0.57868332 -0.9864949 0
10.9764 6.086729 3.5362592 0
-5.0931611 11.986279 0.65230513 0
11.820512 5.4210491 -0.98141539 0
12.763029 2.4930267 -0.98584199 0
12.493559 3.6179066 -0.98493063 0
12.686273 2.8710778 -0.98587048 0
11.81216 5.4378014 1.0506141 0
12.93877 1.3489856 -0.98730266 0
5.8310633 11.637831 0.90418756 0
12.76967 -2.4942796 -0.98679173 0
-12.646662 2.8496599 1.4876304 0
12.600191 3.247148 -0.98611462 0
12.998923 -0.57913846 -0.98798144 0
-5.0821395 11.968487 1.1049714 0
12.848475 2.0611119 -0.98706484 0
5.0382252 11.998055 -0.98986816 0
12.897981 1.7329495 -0.98778713 0
11.389899 5.7674608 2.7106304 0
11.489425 5.6895528 2.4503145 0
11.776318 5.4571457 1.3879697 0
12.877171 -1.8984749 -0.98538411 0
5.9044337 11.499222 1.8181 0
11.536145 5.6632171 2.297266 0
12.845523 2.1155787 -0.98817801 0
-5.1582212 11.743131 2.4547744 0
11.818656 5.420229 1.2164259 0
12.398057 3.9919503 -0.98693347 0
5.8063593 11.698786 0.22512341 0
11.673398 5.5509343 1.8829961 0
11.493069 5.6697707 2.531225 0
5.807128 11.700821 -0.17663312 0
11.919231 5.3474207 -0.15525746 0
12.889524 1.9016354 -0.9869498 0
5.8042326 11.69316 -0.57910824 0
12.27928 4.3592224 -0.9870857 0
5.828578 11.633225 1.2119222 0
-5.220212 11.504156 3.3448968 0
-12.75456 2.8279533 -0.34045249 0
12.915155 -1.7384415 -0.98517668 0
5.1967225 11.952046 -0.9901613 0
11.923723 5.3493619 0.23211944 0
11.912454 5.3444915 0.61906624 0
11.63221 5.5636168 2.1540051 0
11.917329 5.3465986 -0.54395926 0
-12.764399 2.8292277 0.17035007 0
6.0191927 11.204947 3.0310068 0
5.8726892 11.57535 1.5795388 0
11.254014 5.8770127 3.1285295 0
-5.0678759 12.055875 0.0012772083 0
12.604577 -2.6737757 2.2391605 0
12.156429 4.7253737 -0.9882021 0
12.947983 -1.5772598 -0.9846096 0
12.012913 5.08393 -0.98778105 0
-12.754485 2.8279436 0.6808753 0
11.808384 5.4354062 1.4685299 0
11.949132 5.3216686 0.21661019 0
5.8089709 11.705696 0.62640548 0
6.0928488 11.074291 3.3777523 0
-5.0691319 12.059154 0.30262446 0
-5.0712781 12.043029 0.68179488 0
11.372252 5.7825909 2.9129591 0
5.8026915 11.689082 -0.98394668 0
6.0806189 11.085929 3.3798094 0
11.944878 5.3190546 -0.62186778 0
11.817363 5.4196577 1.5289321 0
12.977684 -1.4155204 -0.98394191 0
11.910307 5.343564 1.0061479 0
11.227 5.8808565 3.2897706 0
11.916746 5.3463464 -0.93507469 0
5.5069828 11.839399 -0.98895288 0
-12.656107 2.8518667 1.7808328 0
5.3564568 11.909464 -0.99119151 0
-5.3160691 11.210327 4.1933079 0
12.963653 1.5807941 -0.98658192 0
11.962003 5.3295784 -0.20287126 0
12.942952 1.7451305 -0.98868704 0
11.171708 5.953084 3.3640108 0
-5.0703411 12.062312 0.60348582 0
11.95163 5.3232036 0.63484097 0
12.985127 1.4170878 -0.98487592 0
11.106906 5.9766064 3.5465055 0
5.829896 11.635669 1.5201204 0
5.8997536 11.487356 2.2197893 0
-5.0658388 12.050556 0.90417838 0
-12.765757 2.8294036 -0.85428989 0
5.807734 11.702423 1.0281229 0
11.935905 5.3135409 1.0526659 0
-5.0888209 11.979273 1.5607743 0
11.78474 5.4609294 1.7773156 0
11.657736 5.5406809 2.302556 0
-12.230441 2.9638107 3.6851387 0
5.6640263 11.788788 -0.98952329 0
13.020209 -1.2564147 -0.9851706 0
-5.1543097 11.75586 2.7155285 0
11.795904 5.4274888 1.8874283 0
-12.758271 2.828434 1.1920485 0
11.496055 5.6927123 2.7642913 0
5.8688951 11.563841 2.0435486 0
5.9927349 11.287148 3.0059872 0
11.529312 5.6586022 2.7210119 0
-5.0745726 12.04931 1.1949816 0
13.049575 -1.0946038 -0.98503864 0
13.050222 1.0947208 -0.98511934 0
11.82085 5.4211988 1.8424172 0
5.982513 11.315279 2.9482038 0
-12.653704 2.851305 2.0743077 0
13.038158 1.2599266 -0.98741627 0
12.049331 5.2296567 -0.15912795 0
12.052198 5.2308478 0.23086154 0
-5.0712452 12.064671 1.204931 0
5.7508745 11.817536 0.19212186 0
5.8086557 11.704862 1.4316025 0
11.635164 5.5649953 2.5474288 0
11.928428 5.3513947 1.3964169 0
12.599093 -2.6719458 2.6501801 0
12.048903 5.2294793 0.62047613 0
11.499988 5.67312 2.9282358 0
12.055736 5.2323165 -0.55120862 0
5.8355322 11.646111 1.8297536 0
11.395868 5.7716179 3.141223 0
13.085608 0.93389744 -0.98602545 0
-5.0663013 12.051765 1.5053656 0
13.090085 -0.93464094 -0.98658264 0
11.948617 5.3213525 1.4736516 0
-5.2409348 11.487531 3.7188911 0
-5.1635594 11.751479 2.917846 0
-12.259077 2.9545579 3.7817507 0
6.0261583 11.217012 3.3441534 0
12.091202 5.206707 0.21552646 0
5.7531624 11.824826 0.65941143 0
-5.0871315 11.976545 2.0183077 0
11.785501 5.4612718 2.1693323 0
11.809711 5.4162779 2.1556091 0
-12.752052 2.8276284 1.7044806 0
12.096768 5.2100191 -0.20567274 0
13.113602 -0.77170688 -0.98629773 0
11.36597 5.7794385 3.3105679 0
12.05666 5.2327003 -0.94544947 0
5.8593473 11.53488 2.5077941 0
-12.655769 -3.6605327 -0.34218121 0
11.484258 5.6870904 3.0773172 0
13.128695 -0.60765332 -0.98525882 0
11.250194 5.8742704 3.5613852 0
-12.652722 2.8510759 2.3691173 0
-5.074121 12.04845 1.7098405 0
5.9020972 11.493297 2.6287715 0
13.134762 0.60848337 -0.98601079 0
13.127341 0.77378744 -0.98800397 0
5.8065639 11.699327 1.8366914 0
13.146842 -0.44418329 -0.98489034 0
11.924513 5.3497028 1.7875135 0
12.103599 5.2140827 0.63612521 0
11.659336 5.5417285 2.7294791 0
12.106172 5.2156134 -0.62926018 0
12.070474 5.2384367 1.0117276 0
5.7529283 11.82408 1.1273634 0
11.804705 5.4330721 2.3128891 0
-5.0670013 12.053593 1.8069127 0
5.8350716 11.645257 2.1397514 0
13.156092 0.44531423 -0.98603451 0
5.7050138 11.9021 0.22240841 0
-5.2234464 11.509058 3.8153381 0
12.159273 5.1436338 -0.048218608 0
13.164387 -0.28070074 -0.98473704 0
-12.686635 -3.6663427 0.16939926 0
5.7073712 11.908617 -0.18503386 0
12.161514 5.1445484 0.26971459 0
6.0908656 11.068809 3.8503351 0
-12.672123 -3.6636109 0.68174279 0
12.093889 5.2083063 1.0568972 0
13.174026 0.11648268 -0.98389792 0
-12.665861 -3.6624324 -0.8570863 0
13.173563 0.28168958 -0.98587024 0
5.9889917 11.278042 3.4177837 0
11.5262 5.6565008 3.1510067 0
11.952093 5.3234887 1.8969319 0
11.768095 5.4534521 2.5618966 0
12.165823 5.146306 0.58702028 0
13.186217 -0.11762017 -0.98540127 0
12.17438 5.1497965 -0.36882448 0
-5.0233679 12.231133 -0.26372153 0
12.193905 5.1153517 0.22933018 0
12.064661 5.2360229 1.4034538 0
11.633236 5.564095 2.9452152 0
-5.0255504 12.234771 0.19600546 0
-5.0188828 12.223655 0.65516818 0
12.201715 5.1184649 -0.16432899 0
5.7122469 11.922095 -0.59510279 0
5.7120214 11.921473 0.62935114 0
11.818741 5.4202671 2.4721761 0
-5.0197062 12.225028 -0.72458589 0
-12.64757 2.8498719 2.6648867 0
13.199033 0.046360672 -0.98524213 0
12.595671 -2.670804 3.0669127 0
-12.740468 2.826128 2.21895 0
12.175617 5.1503015 -0.6898371 0
12.194085 5.1154237 0.62207305 0
5.8277559 11.631703 2.4493675 0
-12.667481 -3.6627374 1.1942058 0
5.7515292 11.819623 1.5966363 0
12.224534 5.0846233 -0.20813185 0
11.377353 5.7587242 3.571332 0
-5.0668821 12.053281 2.1093209 0
13.207715 -0.21060467 -0.9848634 0
5.9815903 11.31261 3.421061 0
11.920803 5.3480997 2.1817145 0
5.8048997 11.694925 2.2450457 0
12.092262 5.2073379 1.4792442 0
12.206514 5.120378 -0.55973643 0
-5.1598654 11.766095 3.2381992 0
5.7088118 11.9126 1.0366557 0
12.177308 5.1509914 0.90419936 0
13.216284 -0.044999897 -0.98736691 0
-5.0702949 12.041155 2.2268949 0
11.505059 5.6755748 3.3316917 0
-5.0931439 11.986251 2.4818733 0
5.897356 11.481277 3.0393357 0
13.218792 -0.37467396 -0.98506856 0
11.489172 5.6894326 3.3956251 0
11.791942 5.4249744 2.7388506 0
13.229455 0.20920253 -0.98753834 0
13.220399 0.53916371 -0.98439884 0
12.203913 5.1193409 -0.95695102 0
12.169048 5.1476216 1.2214594 0
12.061048 5.2345228 1.7974329 0
12.238257 5.092525 0.63708198 0
-5.1614971 11.748254 3.3847723 0
13.230129 0.37410551 -0.98646247 0
12.252523 5.1007385 0.21403062 0
12.241422 5.0943465 -0.63411295 0
-5.0268154 12.236879 1.1154728 0
13.009667 -2.6559689 0.22680509 0
13.234752 -0.53864992 -0.9861623 0
-12.24314 2.9656408 4.2120934 0
11.947914 5.32092 2.3227205 0
12.214074 5.1233907 1.0164261 0
-12.65616 -3.6606061 1.7076225 0
13.022125 -2.6578553 -0.17213023 0
5.7477231 11.807497 2.0674715 0
12.236649 5.0915985 1.0602643 0
11.816927 5.4194655 2.7892656 0
13.013806 -2.6565957 0.62466788 0
13.232182 -0.86778212 -0.98497915 0
5.8268709 11.630064 2.7618582 0
12.08833 5.2049985 1.903718 0
5.7126608 11.923239 1.446609 0
-12.648885 2.8501792 2.9634435 0
12.168462 5.1473827 1.5390344 0
11.668836 5.5479474 3.1645517 0
13.247576 -0.70298207 -0.98715878 0
-5.2331605 11.473686 4.2435741 0
-5.0186582 12.223281 1.5758076 0
-5.0710459 12.064151 2.4144313 0
13.242765 0.86770636 -0.98627865 0
-12.239365 2.9490612 4.3153009 0
13.002638 -2.6549044 1.0224972 0
11.914381 5.3453245 2.5794423 0
13.256308 0.70279455 -0.98823118 0
5.8704085 11.568431 2.9878566 0
-4.9801292 12.327836 0.68548512 0
13.237663 1.0322571 -0.98565221 0
12.208749 5.1212687 1.4113469 0
12.338587 4.99827 0.22772062 0
13.237868 -1.0322586 -0.98567736 0
5.6228094 12.06794 0.27486682 0
13.03674 -2.6600683 -0.57360095 0
13.013997 -2.6566246 -0.97392857 0
5.6269917 12.072281 0.18850267 0
11.517863 5.6508708 3.5860376 0
5.6281805 12.078613 -0.041486382 0
12.350113 5.0026741 -0.16936761 0
11.78746 5.4621515 2.9677916 0
11.635953 5.5653629 3.3506918 0
13.237097 -1.196793 -0.98587179 0
13.238237 1.1968174 -0.98601186 0
13.064185 -2.6478996 -0.19683886 0
12.063256 5.2354398 2.1955287 0
12.233794 5.0899553 1.4847429 0
-5.0625701 12.026426 2.7464952 0
13.228855 -1.3611389 -0.98543775 0
12.374158 4.9698219 -0.21199065 0
13.070711 -2.6499739 0.21823609 0
5.8100991 11.708681 2.6613851 0
-12.745848 2.8268247 2.7397401 0
5.6291666 12.080572 0.58937275 0
12.351851 5.0033379 0.62392712 0
5.7093549 11.914101 1.8572853 0
13.217889 -1.5252807 -0.9849577 0
-5.0875964 11.977296 2.94713 0
12.355965 5.0049095 -0.56824386 0
12.601513 -2.6727531 3.4927826 0
13.240662 1.3615615 -0.98688841 0
5.6025033 12.115775 -0.1934371 0
12.175519 5.1502614 1.8578477 0
-4.9807773 12.329116 1.2057643 0
12.37632 4.9710259 -0.63906658 0
12.38884 4.9779978 0.21301579 0
11.937772 5.3146877 2.7515407 0
13.010951 -2.6561632 1.422719 0
13.233003 1.5260385 -0.98681569 0
12.381002 4.9736333 0.63822746 0
12.348596 5.0020943 -0.96826589 0
13.077542 -2.6521447 0.63328886 0
12.20578 5.1200852 1.8085978 0
13.07893 -2.6525857 -0.61490941 0
5.6065092 12.127365 0.21927452 0
-5.0700502 12.061552 2.7197232 0
5.6350393 12.099265 0.66338873 0
13.199833 -1.8537024 -0.9853406 0
5.6328936 12.087979 0.90419638 0
11.795934 5.4275079 3.1741529 0
-5.1519427 11.751501 3.76231 0
13.227576 -1.6906762 -0.98730719 0
-12.671185 -3.6634343 2.2266707 0
5.8314886 11.638618 3.0782185 0
12.363024 5.007607 1.0214918 0
11.827454 5.4241161 3.1105628 0
5.6078548 12.131257 -0.60931015 0
5.9816847 11.312883 3.9022398 0
13.163721 2.180629 -0.98465478 0
13.235765 1.6912044 -0.98831475 0
-5.0240254 12.232228 2.041081 0
13.215428 1.8549325 -0.98726141 0
5.9040899 11.498349 3.4640431 0
13.077491 -2.6521285 1.0489705 0
13.195924 -2.0185256 -0.98659825 0
13.17051 -2.1813605 -0.9854933 0
12.164982 5.1459627 2.1762817 0
5.6325402 12.090886 1.1388879 0
-12.665613 2.8540876 3.2673397 0
12.107039 5.2161298 2.3356991 0
5.7515726 11.819761 2.5455189 0
12.235156 5.0907393 1.9121897 0
5.6109982 12.140354 0.63236523 0
13.116114 -2.5059321 -0.9836998 0
13.200355 2.0189393 -0.98714471 0
13.148036 -2.3443291 -0.98503792 0
13.00004 -2.6545112 1.823595 0
5.6336899 12.089561 1.2192545 0
-5.1617961 11.748721 3.8601942 0
11.658963 5.5414848 3.6012917 0
12.351628 5.003253 1.4192376 0
12.396457 4.9822392 1.0647283 0
11.921281 5.3483062 2.9854648 0
-12.888113 -3.6698182 0.30007994 0
12.063658 5.2356067 2.5978403 0
-4.9390588 12.460906 -0.27184677 0
13.163754 2.3462508 -0.98698223 0
-4.981483 12.33051 1.7280631 0
-12.899726 -3.6732445 -0.0036359429 0
11.779726 5.4586768 3.3738184 0
5.712347 11.922373 2.2737494 0
5.6112404 12.141053 1.0462387 0
-4.944757 12.470721 0.1931752 0
5.8057933 11.697289 3.0782423 0
12.205064 5.1197996 2.2094297 0
12.376028 4.9708633 1.490437 0
13.115103 2.6719341 -0.98648417 0
5.6291156 12.079403 1.6152356 0
-4.9421568 12.466242 0.65813434 0
13.079964 -2.6529143 1.4664042 0
13.152878 2.5109618 -0.98825586 0
5.6354084 12.092977 1.5348327 0
-4.9432735 12.468165 -0.7395072 0
13.093339 2.8351815 -0.98698771 0
-5.0714884 12.065308 3.0280089 0
-12.90823 -3.6757534 0.60180593 0
12.983524 -2.6520102 2.2262521 0
12.160173 5.1440015 2.4962959 0
5.8744531 11.580699 3.4717908 0
13.067273 2.9978044 -0.98724699 0
12.345564 5.0009356 1.8192673 0
-12.902833 -3.6741612 0.90418065 0
-5.0182724 12.222637 2.5076697 0
12.088447 5.2050676 2.7655773 0
13.036735 3.1596479 -0.98723805 0
5.6100965 12.137744 1.4613106 0
-12.885356 -3.6690047 1.2060003 0
13.001214 3.3204751 -0.98689437 0
12.235245 5.0907903 2.3431954 0
5.8336296 11.642586 3.3964825 0
-12.746405 2.8268969 3.2657585 0
-12.65827 -3.6610034 2.7467587 0
11.830485 5.4254556 3.4333229 0
5.6329012 12.087994 1.8506169 0
12.879362 3.7990355 -0.98566175 0
-4.947103 12.474762 1.1240864 0
13.069973 -2.649739 1.8849726 0
11.953051 5.3240767 3.1922731 0
12.931642 3.6424088 -0.98725879 0
12.977499 3.4839172 -0.98832476 0
-5.0720143 12.044433 3.2778921 0
12.842676 3.9595397 -0.98632717 0
5.7071457 11.907993 2.6907809 0
-5.0987163 11.995247 3.425312 0
12.378179 4.9720607 1.9202905 0
5.7496948 11.81378 3.0260692 0
12.804401 4.1197848 -0.9870851 0
-12.396968 -3.6557114 3.8590593 0
12.204906 5.1197362 2.614783 0
5.6070147 12.128827 1.8779526 0
-4.9839153 12.335313 2.2541416 0
12.759631 4.2782874 -0.98730695 0
-5.0676146 12.055193 3.3360529 0
12.069119 5.2378745 3.0069466 0
12.653866 4.5902205 -0.98653114 0
-12.899661 -3.6732254 1.5088434 0
5.6315908 12.087703 2.0961981 0
12.711378 4.4357729 -0.98737252 0
11.921278 5.3483052 3.3966017 0
11.814016 5.4389791 3.6213346 0
5.6298704 12.081971 2.1670628 0
12.60649 4.7480402 -0.98729086 0
12.349545 5.0024571 2.2239902 0
12.552211 4.9035592 -0.98744643 0
12.175709 5.1503386 2.8209038 0
-4.9493437 12.478621 1.5919647 0
5.5051956 12.356365 0.18433368 0
5.8084435 11.704301 3.5062904 0
-12.898084 -3.6727598 1.8118808 0
5.5051765 12.360576 0.21598351 0
5.5070286 12.366192 -0.20427102 0
5.5035791 12.355728 -0.62499905 0
-5.1573277 11.76142 4.3012457 0
13.015803 -2.656898 2.6418076 0
12.61606 4.9269137 -0.1810323 0
5.5057783 12.358427 0.66710365 0
-5.0192966 12.224345 2.9812236 0
5.6041613 12.120572 2.2976322 0
12.620243 4.9284439 0.22354245 0
12.244003 5.0958328 2.780947 0
13.087705 -2.6553745 2.3110175 0
12.38625 4.9765558 2.355092 0
12.097182 5.2102656 3.2071514 0
-12.679952 2.8503017 3.8692341 0
5.5099535 12.375064 0.6356827 0
12.618616 4.9278483 0.62782717 0
5.8700547 11.567358 3.9572763 0
5.7059526 11.904696 3.1151586 0
-4.8994279 12.647915 0.16153979 0
12.641573 4.9159884 0.20966601 0
5.5031652 12.354474 1.0550241 0
12.195667 5.1160541 3.0234084 0
5.6332788 12.088744 2.486248 0
-4.9428506 12.467437 2.0608878 0
12.63095 4.9323597 -0.58855569 0
-4.8874292 12.6607 0.27924132 0
-12.897413 -3.6725619 2.1159186 0
12.651315 4.9108758 -0.40215826 0
-4.8975649 12.644101 0.68978608 0
-4.8893356 12.666138 -0.034484804 0
12.16659 5.1466188 3.1440496 0
5.6312513 12.086565 2.5803504 0
5.5066791 12.361613 1.1506736 0
12.643873 4.9172268 0.64177942 0
12.057899 5.2332149 3.4182792 0
-12.664271 -3.662133 3.2754507 0
12.616819 4.9271913 1.0324745 0
-13.313404 2.6816163 -0.36859375 0
12.353929 5.0041318 2.6335979 0
11.958075 5.3271642 3.6382074 0
12.649173 4.9100733 -0.73115158 0
-4.8897047 12.667192 0.59172642 0
12.667969 4.9301958 -0.2244997 0
-13.327512 2.6832387 0.16090262 0
5.7488928 11.811223 3.5135756 0
-5.0944953 11.988433 3.9049487 0
-13.314402 2.681731 0.69026685 0
12.65997 4.9258909 -0.65893769 0
-12.749288 2.8272703 3.7995481 0
12.669581 4.9177232 0.57804859 0
12.68132 4.9221234 -0.076565623 0
-4.990808 12.348926 2.7866924 0
12.684961 4.9234877 0.25076938 0
-13.315679 2.6818779 -0.90048087 0
12.663207 4.9153337 0.90420985 0
-4.8978319 12.644648 1.2186346 0
5.5076151 12.36797 1.4775267 0
12.653558 4.9224391 1.0750418 0
-5.0747495 12.049648 3.8146477 0
5.6295786 12.081391 2.8053064 0
12.616943 4.9272366 1.4386508 0
5.5041652 12.352721 1.6351502 0
-12.369371 -3.6467226 4.4027328 0
13.011779 -2.6562886 3.0568619 0
13.084325 -2.6543005 2.7388022 0
-4.8695493 12.726176 -0.28211343 0
-4.889513 12.666645 1.2166469 0
-4.8976183 12.689769 0.90419388 0
12.381481 4.9738998 2.792522 0
-12.90484 -3.6747532 2.4222362 0
5.6076422 12.130643 2.7251353 0
-4.8755713 12.736899 0.18973923 0
-4.8662672 12.720331 -0.75532532 0
12.665473 4.916183 1.2302697 0
12.238624 5.0927358 3.2216263 0
-13.322362 2.6826463 1.2204661 0
-4.8752685 12.736361 0.66164994 0
12.650843 4.9209781 1.5094309 0
-5.0194235 12.224556 3.460988 0
5.5042095 12.357641 1.9005339 0
12.345066 5.0007453 3.0458603 0
-4.8897152 12.667222 1.5294685 0
-4.9504743 12.480569 2.5373955 0
-12.880443 -3.6675549 2.7259226 0
12.198044 5.117002 3.4413261 0
12.09661 5.2099247 3.653717 0
5.4198961 12.548813 -0.064702749 0
12.178104 5.1513162 3.4734163 0
5.4157782 12.54001 0.58192849 0
12.61965 4.9282265 1.8476634 0
-4.8981948 12.645391 1.7494841 0
-4.8702283 12.727386 1.1335859 0
5.4221849 12.553707 0.25859857 0
12.667903 4.9170938 1.5568042 0
5.630003 12.082378 3.0691862 0
5.7089844 11.913076 3.5495152 0
5.3945994 12.582469 -0.2132563 0
5.5063057 12.360292 2.1240497 0
5.4192553 12.547444 0.90420544 0
-13.438766 2.6442451 0.2867192 0
5.3971477 12.590588 0.21273911 0
5.6351509 12.092465 3.129467 0
-13.447532 2.6460295 -0.02347815 0
-4.8922453 12.67444 1.8434906 0
13.07349 -2.6508567 3.1703787 0
5.3967505 12.589323 -0.64159143 0
12.652455 4.9218459 1.9468694 0
-12.669801 2.8476272 4.4195061 0
5.4180536 12.544875 1.2266078 0
-13.34273 2.6849887 1.7542629 0
12.671798 4.9185538 1.8842788 0
-4.9892316 12.345813 3.3225946 0
-12.665977 -3.6624541 3.8107891 0
5.4009371 12.602661 0.63888168 0
-4.873981 12.734068 1.6081035 0
-13.45871 2.6483049 0.59514773 0
5.6078944 12.131372 3.1569495 0
5.3753548 12.636985 0.18021154 0
13.017421 -2.6571429 3.4809961 0
12.619635 4.9282207 2.2599416 0
5.7499094 11.814462 4.0104461 0
5.5085716 12.370873 2.3303504 0
-4.9407806 12.463871 3.0135651 0
-4.8880854 12.662572 2.1570048 0
12.393041 4.9803371 3.239862 0
5.3983107 12.594294 1.0653057 0
-12.894037 -3.671566 3.0369272 0
12.23712 5.0918698 3.6702304 0
-13.466347 2.6498597 0.90418923 0
5.3780198 12.646955 0.67136848 0
5.6266956 12.075663 3.4508181 0
-4.9027953 12.654807 2.2848301 0
12.344727 5.0006156 3.4666014 0
-5.0663471 12.033628 4.3541183 0
12.664977 4.915997 2.211947 0
5.4235802 12.556689 1.549968 0
12.644138 4.9173694 2.3864179 0
13.518826 -2.6356299 0.2420218 0
13.515837 -2.635066 -0.42276669 0
-12.76489 2.8292913 4.3456559 0
13.524146 -2.6366339 -0.090351701 0
-13.320646 2.6824491 2.2875211 0
5.3747549 12.634741 1.1626422 0
5.3975105 12.591744 1.4932132 0
5.5071959 12.363442 2.6169837 0
-13.474157 2.6514499 1.2135983 0
-4.8725162 12.73146 2.0847578 0
13.515306 -2.6349659 -0.75715995 0
13.524507 -2.6367018 0.57316363 0
-5.0193472 12.224429 3.9484625 0
12.914042 4.8580093 -0.23412997 0
-13.459396 2.6484449 1.5226407 0
-4.8906221 12.669809 2.4736657 0
-12.88172 -3.6679316 3.3458939 0
12.616624 4.9271197 2.6761849 0
5.5042686 12.357821 2.7605472 0
5.4248095 12.559319 1.873929 0
5.6329436 12.092238 3.567781 0
12.923079 4.8627076 0.20575762 0
12.91787 4.8599987 0.64553976 0
13.072697 -2.6506047 3.6109939 0
13.535801 -2.6388328 0.90421629 0
12.926888 4.8600602 -0.61080468 0
12.926941 4.8647156 -0.67708087 0
12.672806 4.9189315 2.5425324 0
12.931692 4.8617396 0.63258421 0
-4.8100271 12.966462 0.15720117 0
12.945265 4.8664851 -0.1962111 0
12.948743 4.8677015 0.21850038 0
5.3762341 12.640275 1.6564403 0
5.4173546 12.543381 2.1971684 0
12.91555 4.8587928 1.085619 0
12.380715 4.9734735 3.6880798 0
5.6090064 12.13459 3.5965424 0
-13.465471 2.6496816 1.8331401 0
-4.8103609 12.967171 0.69421232 0
13.594398 -2.6304922 -0.22311097 0
5.4021902 12.606653 1.9258032 0
13.54142 -2.6398931 1.2356701 0
-4.7951927 12.994352 -0.29253346 0
12.934388 4.8626823 1.0470071 0
13.607182 -2.6343541 0.20937228 0
-4.8004689 13.004072 0.18629026 0
13.59691 -2.6312506 0.64184034 0
13.521856 -2.6362019 1.5665555 0
13.598482 -2.631726 -0.65778732 0
-4.9050016 12.659325 2.8246584 0
-4.9465833 12.473866 3.5020118 0
-4.8716311 12.729883 2.565495 0
-4.8931332 12.676973 2.7924027 0
