# .PCD v0.7 - Point Cloud Data file format
VERSION 0.7
FIELDS x y z intensity
SIZE 4 4 4 4
TYPE F F F F
COUNT 1 1 1 1
WIDTH 1428
HEIGHT 1
VIEWPOINT 0 0 0 1 0 0 0
POINTS 1428
DATA ascii
8.6122971 -4.0036764 1.365608 0
-0.61498189 9.5262184 -0.98306048 0
-8.3960457 4.5119953 1.1167879 0
-5.753274 7.6580853 0.60129321 0
-5.7612333 7.6652074 -0.45534706 0
-6.8160696 5.8688235 3.3580055 0
8.528286 -3.998014 1.8715143 0
-8.7820187 -3.8248444 0.69065022 0
-7.4632988 5.1654468 3.1389151 0
-6.5626163 6.3032613 3.0734801 0
-8.4968386 4.4482684 -0.52103901 0
-5.8535576 7.5050979 1.3348751 0
-8.4979153 4.4486361 0.6146059 0
-8.5614014 -3.8234699 2.1200833 0
-7.599287 5.0714002 2.9917941 0
7.6270089 5.7690578 -0.98882782 0
8.5971851 -3.997 1.5958364 0
-8.7760801 -3.8221183 0.90407157 0
-8.3881903 4.507535 1.3293147 0
-5.8304849 7.5344334 1.3037226 0
-6.2915258 6.7950411 2.5921159 0
7.7076259 5.6675825 -0.98529255 0
-5.757225 7.6616206 -0.81013095 0
-8.4834852 4.4437065 -0.90125299 0
-0.49186373 9.5585785 -0.9829762 0
-6.1386709 7.014658 2.3886645 0
-8.173975 4.6838884 1.960072 0
-7.748271 4.9714322 2.8055849 0
-6.2499294 6.8456187 2.5960205 0
-5.7013321 7.7534199 0.24915004 0
-5.7551665 7.6597786 0.95304132 0
-6.1300955 7.0402064 2.3605628 0
-7.3224916 5.2673206 3.371254 0
-5.6908693 7.7379718 0.68651736 0
8.6369267 -3.9983861 1.4676123 0
-5.6742983 7.7810812 -0.10277635 0
-5.6729312 7.7798223 0.24971676 0
-8.7732735 -3.8208299 1.1172693 0
-6.7395697 6.0086479 3.3656187 0
-5.9190688 7.4212432 1.6571631 0
-8.3798342 4.50279 1.541842 0
-8.4928732 4.4469137 0.99259949 0
8.4459019 -4.008142 2.3504608 0
-8.3211288 -3.8336275 2.998378 0
-5.9829226 7.2879648 2.0084794 0
-6.2777281 6.7952747 2.7170644 0
7.8014936 5.5812945 -0.98523843 0
-5.7056589 7.759809 0.46749437 0
-5.8553123 7.507535 1.5510709 0
-6.5017071 6.4325981 3.0788078 0
-8.7657366 -3.8173699 1.330312 0
-0.37004972 9.5963192 -0.98405743 0
-5.6777954 7.7843018 0.60179853 0
8.5251656 -3.9966123 2.1421242 0
-8.1635132 4.6775446 2.1720929 0
-8.1901312 4.6642466 2.1053991 0
-5.6870651 7.7928386 -0.45804799 0
-7.9476128 4.8461246 2.5858293 0
-8.0336914 4.76612 2.4658039 0
-8.3395605 4.5564957 1.7405417 0
-6.4225874 6.5701933 2.98861 0
-5.8253555 7.5299745 1.6571124 0
-8.6308899 4.3398495 0.25639713 0
-5.9970579 7.2559972 2.1879039 0
-6.1911469 6.907896 2.7164576 0
8.8009052 -3.9998558 0.022773743 0
-6.1608887 6.9826531 2.6024501 0
-5.6679974 7.7752786 0.95372736 0
-5.7030964 7.7560258 0.90407741 0
-6.0535088 7.1613359 2.3633916 0
-5.6799049 7.7862444 -0.81338668 0
-7.6053905 5.0696931 3.1631312 0
-5.8487835 7.4984674 1.766788 0
8.8024807 -4.0005364 0.29147041 0
-6.1360474 7.0114226 2.6046345 0
-8.6461763 4.3340273 0.23497224 0
-6.6631842 6.1496768 3.3740625 0
8.8055773 -4.0018744 -0.24738365 0
8.6159449 -4.0052881 1.829504 0
-5.9922867 7.2711811 2.2136092 0
8.7991772 -3.9991093 -0.51807249 0
-8.6403399 4.3321261 -0.52973258 0
-8.6534119 4.3363838 -0.14734727 0
-5.7633266 7.6670804 1.3069928 0
8.6366262 -3.9981701 1.7696433 0
-5.6976557 7.7479925 1.1219187 0
7.9046755 5.5047407 -0.98760724 0
8.8009663 -3.9998822 0.55990076 0
-6.3244638 6.6960955 2.9918995 0
-7.7462025 4.9755945 3.0085859 0
-8.6431665 4.3463616 0.47203267 0
-5.9053245 7.4096355 2.0113614 0
-7.4590759 5.1692033 3.3868699 0
-6.43085 6.5558386 3.0815544 0
-8.768692 -3.8187268 1.5442388 0
-8.6348648 4.341958 0.68838906 0
-8.497983 4.4486589 1.3725448 0
-5.5965371 7.9062228 0.24918497 0
-8.3941374 4.5109119 1.7570484 0
-8.6454029 4.333775 0.61641347 0
-7.8885412 4.8692279 2.8264439 0
-0.24900103 9.6383867 -0.98612201 0
-5.6008859 7.9103446 -0.1045897 0
7.9892602 5.4086056 -0.9859879 0
8.5961924 -3.9965615 2.0602241 0
-6.5765066 6.2829952 3.3796701 0
-0.12151718 9.6523323 -0.98390615 0
8.8048172 -4.0015464 -0.79268062 0
-8.1618071 4.6765099 2.3866177 0
-5.9700627 7.2774158 2.3649628 0
-8.5630379 -3.8239262 2.5054944 0
-5.6045756 7.9138412 -0.46000141 0
-6.3467312 6.6700974 3.0805535 0
-8.6381321 4.3436913 0.90407467 0
-5.6012053 7.9106469 0.60232723 0
-8.6352272 4.330461 0.9977448 0
-6.1220875 7.0340118 2.721426 0
8.4416361 -4.0049863 2.6581852 0
8.8480206 -3.9973915 -0.33173209 0
-6.0715036 7.1207409 2.6094241 0
-5.7003794 7.7520132 1.3402231 0
8.814064 -4.0055423 0.82937753 0
-5.9988852 7.2583885 2.4059303 0
-5.7517667 7.6567364 1.6606317 0
8.524147 -3.9961548 2.4175093 0
8.8539391 -4.0015135 0.27445698 0
8.8575249 -4.0040097 -0.02862668 0
-8.7682905 -3.8185422 1.7586703 0
-8.3896666 4.5083733 1.9714355 0
-6.2376614 6.8336544 2.9994633 0
-5.8559437 7.5084128 1.9856634 0
-8.6577139 4.3377848 -0.91743004 0
-8.3301077 4.5531149 2.1201739 0
8.8482246 -3.9975336 -0.63733637 0
-6.4875593 6.4151292 3.3852158 0
-5.6047745 7.9140296 -0.81735694 0
8.8036728 -4.0010519 1.0986021 0
0.0023472309 9.6825171 -0.98461437 0
8.8551989 -4.0023904 0.57696962 0
-5.9048266 7.4149504 2.2208838 0
-8.6401148 4.3447433 1.1198988 0
-6.2646704 6.785759 3.0807638 0
-8.1811886 4.660903 2.4852867 0
-5.8320484 7.5357928 2.0155499 0
-5.6020837 7.9114795 0.95607615 0
-7.7487268 4.9716253 3.187964 0
8.0939617 5.3327479 -0.98918223 0
-8.4919825 4.4466095 1.7537556 0
-5.6988983 7.7498269 1.5587037 0
-7.5959053 5.0692205 3.4028707 0
0.12963068 9.6950235 -0.98275948 0
-7.8838568 4.8717175 3.0231066 0
-5.696466 7.8014956 1.3105659 0
-5.5478621 8.0126381 0.23988914 0
8.6438866 -4.0033822 2.076817 0
-5.5216069 8.0353107 -0.10613352 0
-8.6307812 4.3397918 1.3354647 0
-8.3017054 -3.8243959 3.4058275 0
8.1736345 5.2319899 -0.9870739 0
8.5992146 -3.9978967 2.2946956 0
-6.0469179 7.1560855 2.7251778 0
8.849926 -3.9987175 -0.94587898 0
-8.7638845 -3.81652 1.9735003 0
-5.5238943 8.0375423 -0.46241349 0
-8.0318718 4.7654095 2.8483086 0
-5.5298424 8.0433426 0.2483654 0
8.8611488 -4.0065331 0.88025796 0
-6.3999834 6.549377 3.3920193 0
-5.5525923 8.020072 0.46127629 0
-8.8073568 4.2202616 -0.15319306 0
-5.9074984 7.4114714 2.3722861 0
-5.8538179 7.5054603 2.2040715 0
-8.1705685 4.6818228 2.6050045 0
8.8087368 -4.0032401 1.3707509 0
8.2564316 5.1346364 -0.98598564 0
-5.9972696 7.2562742 2.6247041 0
-8.8121605 4.2217507 0.23280466 0
0.25417805 9.7217979 -0.98349428 0
-5.5265465 8.0401287 0.60295415 0
-5.5509748 8.0175295 0.68286872 0
-5.9927387 7.2716608 2.6200733 0
-5.6007147 7.910182 1.310936 0
-8.8067503 4.2200737 -0.54063869 0
-8.6570444 4.3375669 1.3826694 0
-8.3974867 4.5128136 2.18874 0
-5.5456257 8.0091219 0.90408099 0
-5.7535405 7.6583238 2.0190618 0
-5.7032728 7.7562857 1.778749 0
-8.8119297 4.2216792 0.61859107 0
-6.1645966 6.9863749 3.0122695 0
-8.638176 4.3437147 1.5523314 0
-5.6894493 7.7950339 1.6663797 0
-6.205328 6.9185448 3.0891404 0
-5.5196061 8.0333605 0.95738697 0
-5.5304017 8.0438881 -0.82182455 0
-5.8171062 7.5604563 2.2287016 0
0.38019955 9.7401047 -0.98315632 0
8.3449812 5.0427351 -0.98644197 0
8.864193 -4.0086536 1.1848562 0
-8.767662 -3.8182538 2.1905427 0
8.8073711 -4.0026503 1.6445212 0
-8.8824253 4.1678391 0.24622762 0
-5.8500147 7.5001779 2.4232717 0
-8.8133163 4.2221088 -0.93133664 0
-8.5665503 -3.8249054 2.8967423 0
8.6427765 -4.0025849 2.3864393 0
-8.6291456 4.3389244 1.7685595 0
-5.5527258 8.0202827 1.1253703 0
-8.8093853 4.2208905 1.0047042 0
-5.9851575 7.2897978 2.7334967 0
-7.7462883 4.9756479 3.4234648 0
-6.1211863 7.0333157 3.0898499 0
-8.4935808 4.4471555 2.1390765 0
-7.8997183 4.873776 3.2152739 0
-8.0330324 4.7724609 3.040987 0
-5.4520354 8.171257 0.24776053 0
-5.6997805 7.7511292 1.998477 0
8.610239 -4.0027671 2.5322995 0
-5.4549479 8.1741791 -0.10876864 0
-8.8872271 4.1702123 0.46565807 0
-5.8383965 7.5413117 2.3785086 0
0.50491357 9.7674685 -0.98455632 0
-8.3958578 4.5118885 2.4061053 0
8.8560371 -4.0029745 1.4899054 0
-5.4511366 8.1703548 -0.46606046 0
-8.3449831 4.5584354 2.5083461 0
-5.9041781 7.4142408 2.6286867 0
-5.6028137 7.9121714 1.6684251 0
-6.3375654 6.7085118 3.4089074 0
8.4414597 4.9576826 -0.98884666 0
-8.6537247 4.3364854 1.7683148 0
-5.4514236 8.1706429 0.60362422 0
-5.5517035 8.0186749 1.3468106 0
0.63226831 9.7760897 -0.98324728 0
-8.8762159 4.1647696 0.90407836 0
-5.5301523 8.0436449 1.3145781 0
-8.1884222 4.6636076 2.8736825 0
-6.0848665 7.1345415 3.0237741 0
8.5169935 4.8540769 -0.98710907 0
-9.7413483 1.114417 -0.9845922 0
-5.7423162 7.6482801 2.3782558 0
-8.9003868 4.1767163 0.68464577 0
-5.900106 7.4052286 2.7354536 0
-5.686265 7.7921014 2.025414 0
-5.7263193 7.7046223 2.2364075 0
-8.9604006 4.1005125 0.23093963 0
8.8052826 -4.0017476 1.9210792 0
-5.4455848 8.1647825 0.95947337 0
-5.8446703 7.4927545 2.6433551 0
-9.7316923 1.2785943 -0.98383963 0
-8.9705925 4.1035123 -0.15961283 0
-5.4582887 8.1775322 -0.82707107 0
-6.2414732 6.8373723 3.4142761 0
-9.7722101 -0.95003057 -0.98823702 0
-6.0494986 7.1581416 3.0953937 0
8.5945721 4.7525477 -0.98612106 0
-5.3840284 8.2697496 0.23059499 0
-9.758193 -1.1146581 -0.9866606 0
-8.8789835 4.1661377 1.1229563 0
-8.7788849 -3.8234057 2.4105515 0
-5.3624463 8.2884712 0.24739671 0
0.75800288 9.7973576 -0.98424637 0
8.8508377 -3.9993532 1.7974548 0
-5.7032433 7.7562423 2.2208576 0
-8.8227062 4.2250195 1.3935001 0
-5.3857803 8.2726841 0.455338 0
-8.9687128 4.1029592 0.62061143 0
-8.6487894 4.3493447 1.9890482 0
-5.554657 8.0233173 1.5691614 0
-7.884038 4.8718271 3.4403467 0
8.6055756 -4.0007067 2.7690616 0
-8.9770203 4.1054044 -0.55199754 0
-8.0355024 4.7668266 3.2384615 0
-5.3739109 8.3003111 -0.11050838 0
-8.1687889 4.6630187 3.0555415 0
-9.7354231 1.443205 -0.98502052 0
-8.4001417 4.5143209 2.6263342 0
-5.9881091 7.2667408 3.0304279 0
0.88539457 9.8036671 -0.98315036 0
-9.7613459 -1.2794435 -0.98748219 0
-5.8158202 7.5216846 2.7381713 0
-8.8751984 4.1642671 1.3418751 0
8.6399612 -4.0005641 2.7004356 0
-9.1318626 -3.8154423 -0.16369939 0
-5.5262799 8.0398684 1.6725178 0
-5.3687925 8.2950249 0.60416245 0
-5.444664 8.1638584 1.316658 0
8.6809101 4.6582942 -0.98722565 0
-5.3767118 8.3032036 -0.46978951 0
-5.8208437 7.5646629 2.6395617 0
-8.9648666 4.1018271 -0.94487834 0
8.7450428 4.5463233 -0.98412013 0
-9.1374512 -3.8169148 0.22929227 0
-5.6048241 7.9140768 2.0291767 0
-5.5480204 8.012886 1.7908258 0
-9.1249676 -3.8136256 0.62188232 0
-8.6335878 4.3412805 2.206233 0
-8.6502514 4.3353543 2.157011 0
-5.3958826 8.2896166 0.67937458 0
1.0122387 9.8145227 -0.98306823 0
-9.7355299 1.6079174 -0.98604643 0
-9.7612095 -1.4443129 -0.9881897 0
-8.4953022 4.4477434 2.5288272 0
-5.9766502 7.2828197 3.1012163 0
-5.6729007 7.7797942 2.3854477 0
-5.3895578 8.2790165 0.90408528 0
-5.6962233 7.7458763 2.4419131 0
8.8062773 -4.0021772 2.202033 0
-9.1403656 -3.8176825 -0.55900258 0
-8.3270369 4.5520167 2.8948877 0
-6.1605825 6.9823465 3.4261885 0
-5.3733473 8.2997284 -0.83046651 0
-8.9778299 4.1056428 1.0114081 0
-9.7437677 -1.6083896 -0.98705947 0
-9.7166328 1.771541 -0.98502398 0
-8.7752104 -3.8217189 2.6297398 0
9.0833139 -4.0067754 -0.038467646 0
9.0811157 -4.0052905 0.2711494 0
9.0835075 -4.0069065 -0.34919417 0
-5.6437073 7.8607578 2.2467656 0
-5.3852406 8.27178 1.1283128 0
-8.8847952 4.1690106 1.5621171 0
8.8304062 4.4512062 -0.98559737 0
-5.3763256 8.3028049 0.96209025 0
-8.8187361 4.2237887 1.7834332 0
9.0984116 -4.0042539 0.0083270073 0
-8.5674658 -3.8251607 3.2938848 0
9.0832176 -4.006711 0.58029473 0
9.0998678 -4.004858 -0.27119315 0
9.0997219 -4.0047979 0.28666401 0
-9.7072296 1.9357765 -0.98545885 0
1.1385916 9.8327589 -0.98444617 0
-5.2897892 8.4245939 -0.11217594 0
-9.7397089 -1.7731953 -0.98786461 0
9.0940866 -4.0024576 -0.55157489 0
-9.1361465 -3.8165708 1.0153315 0
-5.2860293 8.420599 -0.47174102 0
-9.1422911 -3.8181899 -0.95650947 0
-5.5490084 8.0144396 2.0145402 0
-5.7241125 7.7020655 2.6472685 0
-5.3811865 8.2649851 1.3524153 0
9.0882463 -4.0101066 -0.66251481 0
-8.6684446 -3.8172433 3.0694451 0
-5.5197358 8.0334864 2.0325694 0
-8.8694305 4.1614161 1.7809763 0
8.8664188 -4.0102034 2.1129031 0
-8.6285839 4.3386259 2.4259386 0
-5.2954116 8.4305696 0.24641049 0
-9.686058 2.0989647 -0.98473191 0
-9.7198534 -1.9368633 -0.98701453 0
1.2662436 9.8319435 -0.98308814 0
-5.4501038 8.1693182 1.6770473 0
8.9097195 4.3512483 -0.98613656 0
-5.289011 8.4237671 0.60482645 0
9.0816135 -4.0056276 0.88976002 0
-5.7548118 7.6594615 2.7486486 0
-5.3678641 8.2940664 1.3200767 0
9.0912733 -4.0012894 -0.8344413 0
-9.6944656 -2.0998099 -0.98576939 0
-8.0363941 4.7744284 3.4620867 0
-8.3175592 4.5586076 3.073822 0
-8.186326 4.6628237 3.2662668 0
9.1126261 -4.0101562 0.56497979 0
-8.9787521 4.1059141 1.4035554 0
-9.1390963 3.9845588 0.2284987 0
-9.6636314 2.2618721 -0.9841373 0
-5.917068 7.428339 3.046628 0
-9.1398115 3.9890902 0.23535872 0
-5.9084253 7.4122543 3.1093531 0
-9.1340704 3.9864552 0.45896351 0
-6.0774603 7.126893 3.4382124 0
-5.6968966 7.746871 2.6666675 0
-5.5986605 7.9082351 2.3919468 0
-5.2885456 8.4232731 -0.83424997 0
9.1027431 -4.006052 0.84331858 0
9.0885105 -4.0102854 -0.97807992 0
-9.1512947 3.9879603 -0.16704845 0
8.8075523 -4.0027285 2.4877117 0
1.5210712 9.8251314 -0.98042166 0
-9.1438246 3.9858773 -0.56314576 0
1.3931577 9.8442898 -0.98410678 0
-9.1411915 3.9851429 0.62293911 0
-5.5455866 8.0008659 2.2539732 0
-9.682868 -2.2640843 -0.98651469 0
-8.6393404 4.3318005 2.5482538 0
-5.4634542 8.1633482 1.8522825 0
9.0803833 -4.0047965 1.2002642 0
-9.6491385 2.4257011 -0.98481214 0
-9.1446648 3.9913182 0.68137264 0
-5.5486708 8.0139084 2.2392144 0
-5.2960348 8.4312325 0.96405351 0
-8.8057499 4.2197638 2.1749377 0
9.0537109 4.1406269 -0.9852103 0
9.0998974 -4.0048704 1.1225958 0
-5.390295 8.2802515 1.5784333 0
9.0002117 4.2591634 -0.98913026 0
-9.1418066 -3.8180621 1.410533 0
-9.6582928 -2.4268868 -0.98594546 0
-8.4820261 4.4432082 2.9203744 0
-5.2156544 8.5348349 0.4487282 0
-8.9581137 4.0998397 1.795414 0
-5.6740408 7.7808442 2.7536774 0
-9.6268759 2.5886033 -0.98481512 0
8.8573608 -4.0038962 2.4270661 0
-5.8281775 7.5324273 3.1139774 0
-8.6335421 4.3412566 2.6491923 0
-5.8197031 7.5633793 3.054738 0
-9.1484127 3.9930389 0.90408325 0
-8.8909044 4.17203 2.0047946 0
-5.2252607 8.5520391 0.21905267 0
1.6479836 9.8396397 -0.98235965 0
-5.9865494 7.2650833 3.4481778 0
-9.131506 3.9852779 1.1264565 0
-5.3822117 8.2667036 1.8028839 0
9.0720844 -3.999192 1.5115201 0
-8.1696863 4.663527 3.4782109 0
-9.5961885 2.7502031 -0.98406041 0
-5.6404948 7.856926 2.6596653 0
-5.3751392 8.3015795 1.6821828 0
-5.2206302 8.566637 -0.11516905 0
-5.2146764 8.5601254 -0.47644567 0
-5.2211103 8.5671625 0.24554431 0
-9.1532135 3.9884953 1.0185528 0
-5.4546728 8.1739035 2.0408852 0
-9.6458387 -2.5913363 -0.98716748 0
-9.1600246 3.9903946 -0.96414471 0
9.1369267 4.0429807 -0.98733282 0
-9.6056776 -2.7517095 -0.9852401 0
-8.3258753 4.5516009 3.2911463 0
-5.2176342 8.5633602 0.60576558 0
-5.5454197 8.0087986 2.4644425 0
9.107049 -4.0078402 1.4046981 0
-5.2999344 8.4353762 1.3249161 0
-5.2279482 8.5568514 0.67594552 0
1.7752365 9.8442059 -0.98301077 0
-9.5722609 2.9128308 -0.98443401 0
-5.2209921 8.5443945 0.90408945 0
-5.3601427 8.3018408 1.857899 0
-5.5350733 8.0484438 2.4019251 0
-9.1367264 3.9876745 1.3493395 0
9.2055874 3.9353168 -0.98694646 0
-9.5801954 -2.9142072 -0.98542285 0
-8.8840399 4.1686368 2.2265086 0
-5.3796272 8.262372 2.0288315 0
-8.4786587 4.458117 3.0955763 0
-9.1394548 3.9846585 1.4141488 0
-9.1423321 -3.8182006 1.8079147 0
-5.2161598 8.5617476 0.96622181 0
-5.458024 8.1564808 2.2645159 0
-5.2252688 8.5717106 -0.84232926 0
-9.543334 3.0746405 -0.98447442 0
-5.7548661 7.6595101 3.1217699 0
1.9026014 9.8469925 -0.98366868 0
-5.7272081 7.7056522 3.0653815 0
-9.3086367 3.8620191 0.22620225 0
9.3229809 3.707835 -0.98334515 0
-9.311677 3.8628201 -0.17344463 0
9.2756882 3.8286178 -0.98712397 0
-9.5019178 3.2339575 -0.98324013 0
9.277647 -3.8298614 -0.98749149 0
-5.9012065 7.4109907 3.4612908 0
9.0769892 -4.0025043 1.8272777 0
-5.6073847 7.9165034 2.7638135 0
-5.1277041 8.684433 0.24511528 0
-8.7983046 4.2174559 2.5709703 0
-5.1306992 8.6878042 -0.11673075 0
9.2313766 -3.9522002 -0.99182856 0
-5.2280102 8.556962 1.1322374 0
-9.5598555 -3.0777507 -0.98653865 0
9.1081638 -4.0083036 1.6887379 0
-5.2946787 8.4297905 1.686749 0
-9.1421003 3.9901412 1.5729861 0
-5.5487356 8.004734 2.6704526 0
-9.3107624 3.8625791 0.62523603 0
2.0299916 9.8460617 -0.98402667 0
-8.9668627 4.1024146 2.1939902 0
-5.3778572 8.3043861 2.0471034 0
-5.1327329 8.690093 -0.48009264 0
8.8599205 -4.0056777 2.749352 0
-5.2223253 8.5467806 1.3600891 0
-9.5252123 -3.2386887 -0.98615861 0
-8.8800602 4.1666698 2.4498501 0
-5.1324072 8.6897268 0.60640812 0
-5.2160854 8.5616665 1.3280282 0
-8.6840515 -3.8243897 3.4986711 0
-5.5494223 8.015089 2.6936641 0
9.4005547 3.6058328 -0.98549914 0
-9.331152 3.8679514 -0.5762639 0
-5.4549007 8.1741323 2.4080293 0
-8.6546583 4.3367896 2.9504058 0
-9.4855642 3.3984795 -0.98543751 0
2.1574731 9.8451405 -0.98467541 0
-8.3323612 4.5667114 3.5036726 0
9.3076019 -4.0021038 -0.048120379 0
-5.2177477 8.5385828 1.5880511 0
-5.1356039 8.693325 -0.84605098 0
9.3063622 -4.0012922 0.26791406 0
-5.2659845 8.4548626 1.8659084 0
9.3684454 -3.7357738 -0.99179697 0
-9.3144407 3.8635483 1.0249944 0
-5.3916607 8.2825413 2.2597883 0
-9.3209305 3.8652582 -0.97919226 0
9.4207554 -3.6178515 -0.98922193 0
-5.3601828 8.3018923 2.2731578 0
-9.3914385 3.7979634 0.45154917 0
-8.4875002 4.4450779 3.322608 0
-9.1483727 3.9930203 1.7977307 0
-5.686698 7.7925 3.1321974 0
-9.5057001 -3.4028699 -0.98796797 0
9.3132744 -4.0058174 -0.36588091 0
-5.1368108 8.6946831 0.96861291 0
-9.1504431 3.9877226 1.8143232 0
9.4715443 3.4995601 -0.98669994 0
-9.4033585 3.8030264 0.22376108 0
9.108922 -4.0086179 1.9759469 0
-9.450532 3.5592079 -0.98558378 0
2.2846854 9.8374414 -0.98453879 0
9.5205746 3.3807809 -0.98418725 0
-5.5328889 8.0463142 2.7721858 0
-5.8161693 7.5594015 3.4755764 0
-9.1436882 -3.818558 2.2088931 0
9.4780998 -3.5033348 -0.98789811 0
-9.4570675 -3.5607314 -0.98640776 0
-5.6433191 7.8602943 3.0800266 0
-8.6309843 4.3500776 3.1152725 0
2.4108517 9.8158293 -0.982481 0
9.3106203 -4.0040793 -0.68484199 0
-9.4049129 3.7173786 -0.98468196 0
9.086359 -4.008832 2.1480107 0
-9.3995838 3.8014228 0.67773497 0
-5.2134938 8.5588312 1.6915865 0
-5.1798162 8.6221752 1.4592409 0
-5.0496864 8.8206558 -0.11917192 0
9.3228025 -4.0120549 0.58382881 0
-8.8795662 4.1664257 2.6754332 0
-5.367517 8.2937078 2.4127085 0
-9.4260292 -3.8126559 0.2220391 0
-9.4211416 -3.8105798 0.4500469 0
9.3088188 -4.0029001 0.89959645 0
-5.3013082 8.4368362 2.0539067 0
9.5411015 -3.3922112 -0.98790848 0
-9.1424007 3.990279 2.0222013 0
-5.0519247 8.8273659 0.44036293 0
-5.0588546 8.8312788 0.24397862 0
-9.3108969 3.8626144 1.4258313 0
-5.4621973 8.1617584 2.6837296 0
-5.133718 8.6912031 1.3316224 0
-5.055995 8.8351736 0.20725286 0
-5.2243738 8.5504513 1.8184657 0
-9.4286299 -3.7232659 -0.98768234 0
-5.3892746 8.2785425 2.4887316 0
-9.4067173 3.8044531 0.90408778 0
-5.0577216 8.8299656 -0.48497593 0
-5.6026931 7.9120574 3.1376185 0
-9.4259653 -3.8126287 0.67706859 0
9.3693581 -4.005559 0.16242623 0
-5.057065 8.8292055 0.60737348 0
2.5392585 9.8230696 -0.98529577 0
-9.4826317 3.736671 -0.18048596 0
9.3771706 -4.0087457 -0.086844206 0
9.6065273 3.2823613 -0.9886421 0
2.6648116 9.7977419 -0.98322117 0
-9.3997259 3.8014832 1.130444 0
9.1052494 -4.007093 2.2660315 0
-8.9735699 4.1043887 2.5972266 0
-8.4761219 4.4567747 3.5236311 0
9.3784428 -4.0092649 -0.33676851 0
-5.5421977 7.9967051 3.0894332 0
-9.4264202 -3.8128221 0.9040885 0
-5.4525347 8.1717577 2.7793663 0
9.6152859 -3.2870762 -0.99021769 0
9.6572046 3.1646645 -0.98701942 0
9.3735218 -4.0072575 -0.58718061 0
-9.4988136 3.7406878 0.2235111 0
-5.0605392 8.8438902 0.67192078 0
9.3826389 -4.0109768 0.40943396 0
-5.0592451 8.8317318 -0.85265982 0
-9.4850483 3.7372706 0.6276412 0
-9.1326914 3.985822 2.2470124 0
-5.054204 8.8258905 0.97093415 0
9.6633606 -3.167865 -0.98811829 0
-5.1712832 8.6103773 1.8744185 0
-9.1437798 3.9858649 2.215842 0
-8.8157187 4.2228532 2.9778762 0
9.3799152 -4.0098658 0.65697587 0
-5.7330966 7.7124739 3.4917698 0
9.3251419 -4.0135865 1.2185216 0
9.0793056 -4.0040684 2.4693472 0
-5.27104 8.4616451 2.2848191 0
2.7923009 9.7916975 -0.98450494 0
-9.5036516 3.7418888 -0.58815134 0
-5.061408 8.8455572 0.90409482 0
9.7166615 3.0516727 -0.98726368 0
9.3769522 -4.008657 -0.84047067 0
-5.1314921 8.6886969 1.6966906 0
-5.0514708 8.8264961 1.1358118 0
-5.2272253 8.5555563 2.0496128 0
9.4130239 -4.0069513 0.28158426 0
9.4022617 -4.0026617 0.56961346 0
-5.5149856 8.0288534 3.1423664 0
-5.2163301 8.5619335 2.0592804 0
-5.288537 8.4232635 2.420325 0
-9.4314718 -3.8149679 1.131248 0
9.7588615 2.9302485 -0.98475516 0
9.4160032 -4.0081387 -0.29692066 0
9.4211426 -4.0101871 -0.0074567795 0
-8.7791481 4.237226 3.1341577 0
-9.3064041 3.8614309 1.8287477 0
-5.3878231 8.2761087 2.7195601 0
-8.6525431 4.3361011 3.3553162 0
9.3834438 -4.0113049 0.90411317 0
2.9181719 9.7715445 -0.98382819 0
-4.9700937 8.957325 0.24330664 0
-9.4163942 3.8085632 1.3578906 0
9.731163 -3.0589507 -0.98983347 0
-4.9729605 8.9607439 -0.12215865 0
-9.1453581 -3.8189981 2.6144931 0
9.4153881 -4.0078936 -0.58836913 0
9.3657227 -4.0040755 1.1508934 0
-5.0495973 8.8205528 1.335288 0
9.7717495 -2.936487 -0.98702288 0
-5.0482731 8.8203621 1.3674586 0
-5.3688254 8.3131485 2.6957862 0
-4.9670901 8.953742 0.6080116 0
-4.9724674 8.9601555 -0.48881882 0
9.3198948 -4.0101519 1.5376029 0
-9.4307089 -3.8146436 1.3586154 0
9.4112701 -4.0062518 0.85829973 0
-9.5022583 3.7415428 1.0329456 0
-5.370276 8.2965574 2.7866132 0
-9.1342936 3.9865572 2.4748471 0
9.1028957 -4.0061159 2.5609343 0
-5.0951152 8.7958193 1.4673142 0
9.8263721 2.8211045 -0.98699188 0
9.4159985 -4.0081367 -0.88248992 0
-5.2226133 8.5472965 2.2801428 0
3.0454812 9.7617865 -0.9851023 0
-5.6338339 7.8489819 3.5023966 0
3.169486 9.7300816 -0.98315012 0
-9.416625 3.8086612 1.5854256 0
9.3665152 -4.0043993 1.3979821 0
9.8407536 -2.8278139 -0.98950529 0
-5.455162 8.1528616 3.1049747 0
-4.9777255 8.9664268 -0.85877156 0
9.881731 -2.7060297 -0.98737633 0
-8.6308384 4.3500028 3.5472155 0
-9.3956928 3.7997704 1.8115673 0
-5.2036462 8.5480614 2.4268892 0
-5.0528383 8.8291197 1.600461 0
3.2949696 9.7085981 -0.98312211 0
9.8891335 2.7093551 -0.98866177 0
-4.9782963 8.9671078 0.97399378 0
9.0736418 -4.0002437 2.7957573 0
9.4213772 -4.0102806 1.1488266 0
-9.4936628 3.739409 1.4386508 0
9.3110104 -4.0043354 1.8583038 0
-8.9642868 4.1016564 3.0026183 0
-9.4396219 -3.8184295 1.5871737 0
-5.050807 8.8219547 1.7024741 0
-5.1369476 8.6948376 2.0664997 0
3.4183223 9.6759014 -0.98157489 0
-9.1403618 3.9849114 2.6219959 0
9.9333744 -2.5892446 -0.98740244 0
9.9687901 2.4656882 -0.98493314 0
-5.082818 8.7782946 1.8849082 0
9.9377613 2.591141 -0.98815954 0
-5.4530849 8.1723099 3.1576099 0
9.3676777 -4.0048733 1.6456752 0
-9.6664715 3.6095417 0.22120142 0
-9.4219713 -3.8109324 1.8142338 0
-9.6728287 3.6088169 0.21144497 0
-4.9674425 8.9541626 1.3395345 0
-5.2697315 8.4598894 2.7069135 0
-9.6741962 3.6113424 -0.18871021 0
-9.31353 3.8633084 2.2367115 0
-8.8007755 4.2182217 3.3836031 0
-5.1886859 8.6344395 2.29916 0
-5.2898784 8.4246893 2.7951958 0
-9.0707121 -3.8154104 3.1539888 0
-4.9844537 8.9360733 1.471905 0
9.420557 -4.0099535 1.4404521 0
3.545428 9.6626024 -0.98344564 0
-9.1460552 3.9919565 2.7066209 0
-9.6789856 3.6112263 0.44243693 0
-9.1255913 -3.8137898 3.0206404 0
-9.6703844 3.6104538 0.63026857 0
-5.2298489 8.560256 2.5157404 0
-5.0555725 8.8343639 1.8343146 0
-9.6773777 3.6120837 -0.60027182 0
-9.40516 3.8037918 2.0414953 0
10.030049 2.3528848 -0.98718667 0
3.6684651 9.6292791 -0.98236823 0
10.001315 -2.4791951 -0.9905113 0
9.3632822 -4.0030804 1.8936746 0
-8.9565172 4.1356254 3.1607952 0
-5.5506482 8.007082 3.5208559 0
-9.686451 3.6141472 0.67320347 0
9.5550785 -4.0058689 -0.059129238 0
-4.9130306 9.1240883 -0.12675726 0
10.044779 -2.3587556 -0.98969805 0
-5.3622379 8.3045692 3.1194153 0
-9.6778984 3.6108005 0.90409291 0
9.313489 -4.0059576 2.1844659 0
-5.3660078 8.2921486 3.1641684 0
10.080521 2.2354951 -0.9878732 0
-9.4987984 3.740684 1.8479593 0
-5.0506477 8.8249168 2.0675256 0
9.565424 -4.0124326 0.26400769 0
-4.9199729 9.1326132 0.24150527 0
-4.9152598 9.1268253 -0.49687165 0
-9.6768265 3.6119554 1.0402517 0
-5.1316276 8.6888494 2.4378457 0
3.7953849 9.6130781 -0.98436046 0
9.5677872 -4.0139318 -0.38498247 0
9.5622463 -4.0104165 0.58732653 0
-9.4393625 -3.8183193 2.0458403 0
-4.9169397 9.1288891 0.60981083 0
-5.0588102 8.8312273 2.0745988 0
10.096077 -2.2414389 -0.99051082 0
-9.6762009 3.6101363 1.1347265 0
-5.0760002 8.7685785 2.306108 0
10.125671 2.1159992 -0.98794293 0
10.125784 -2.1160407 -0.98796201 0
9.4285917 -4.0131559 1.736037 0
-5.2257919 8.5529909 2.7494774 0
3.917963 9.5780697 -0.98358405 0
-8.7920246 4.2435737 3.5730247 0
-9.4046364 3.8035691 2.2716327 0
9.5653048 -4.0123563 -0.71167827 0
-4.979425 8.9684534 1.7104962 0
-4.9161458 9.1279135 -0.86924064 0
-4.902422 9.1733475 0.42910242 0
4.0407476 9.5442781 -0.98329127 0
-4.9063139 9.1813669 0.19033563 0
9.5651035 -4.0122285 0.91115129 0
-4.9161577 9.1279287 0.97841668 0
10.174271 1.9976683 -0.98887885 0
10.175531 -1.9981091 -0.98909032 0
-4.9906368 8.945159 1.895329 0
-9.664319 3.60904 1.4504986 0
-5.1794271 8.6216383 2.7218685 0
-5.4516945 8.1484766 3.5338097 0
-9.680295 3.6117387 1.3658159 0
-9.3107491 3.8625758 2.6477392 0
-5.2238665 8.5701761 2.809458 0
9.4065485 -4.0043702 2.0292234 0
-5.0496807 8.8230619 2.3027163 0
-9.4300833 -3.814378 2.2755196 0
9.3808985 -4.0102668 2.145313 0
10.20963 1.8747139 -0.98788297 0
-4.9049501 9.1785574 0.6665957 0
-9.1458893 3.9864528 3.0355959 0
9.5527935 -4.0044188 1.2348289 0
4.1650515 9.5159569 -0.98418653 0
-4.9016304 9.1717157 0.90410113 0
-9.4822607 3.7365787 2.257627 0
-8.9739075 4.1044884 3.419198 0
-9.4004984 3.8018115 2.502609 0
4.2859902 9.4756956 -0.98340559 0
10.227918 -1.8808153 -0.9909364 0
-9.1048164 4.0170441 3.1802473 0
9.3187046 -4.0093722 2.5160501 0
-5.2719512 8.4628677 3.1359863 0
-9.6778765 3.6107919 1.5971227 0
-9.8558779 3.4792264 0.21847677 0
10.259607 1.7565665 -0.98961413 0
-5.2990665 8.434454 3.1793661 0
-4.917685 9.1298037 1.3486075 0
-4.9004478 9.169281 1.141367 0
10.284502 1.630487 -0.98746836 0
4.4067812 9.4353485 -0.98289347 0
10.285088 -1.6306641 -0.98756528 0
10.264347 -1.7580729 -0.99040186 0
-9.8687096 3.4820244 -0.1971634 0
-4.9793167 8.9683247 2.0829806 0
-4.8424292 9.2780371 0.24037266 0
-9.8587112 3.4798443 0.63297367 0
10.318007 -1.5072513 -0.98704791 0
9.3757381 -4.0081615 2.3957548 0
10.319608 1.50771 -0.9873116 0
-4.9759722 8.9236107 2.3173018 0
-4.8971319 9.1624498 1.3785365 0
4.5296226 9.401432 -0.98373914 0
-5.1362052 8.6940022 2.8171446 0
-5.0690036 8.8430376 2.4523749 0
-8.9410105 4.1282554 3.5954933 0
-9.7661057 -3.8070385 0.21870399 0
-9.8699026 3.4822845 -0.61420441 0
-9.43853 -3.8179657 2.5094025 0
-9.6673536 3.6097474 1.8643198 0
9.4075184 -4.0047565 2.3304679 0
-4.9016523 9.110116 1.7178223 0
-5.0537653 8.8308973 2.5411503 0
-4.9166107 9.1440134 1.4837141 0
-4.855958 9.295145 -0.13187706 0
-9.7716532 -3.8084157 -0.19609261 0
-9.1455412 -3.8190463 3.442956 0
9.5672607 -4.013597 1.5633626 0
-9.6797342 3.6115191 1.8294919 0
10.356594 1.3854449 -0.98775303 0
-9.090126 -3.8239653 3.5978785 0
-4.8559098 9.295084 -0.50510293 0
-5.362102 8.3043919 3.5520082 0
-9.8558121 3.479212 1.0478716 0
-5.0843024 8.7804098 2.7362757 0
4.6537075 9.3705664 -0.98539424 0
-9.7766294 -3.8096509 -0.61275864 0
-9.7776337 -3.8099 0.63290334 0
10.390039 1.2621648 -0.98790061 0
4.7703333 9.3181248 -0.98372221 0
10.39236 -1.2627585 -0.98827994 0
-4.8526721 9.2909899 -0.87997949 0
-4.8656187 9.3073616 0.61167979 0
-4.8999405 9.1682358 1.6168487 0
-9.6660261 3.6061552 2.0610123 0
-9.4167843 -3.8087289 2.739331 0
-9.4169998 3.8088207 2.7393751 0
10.381246 -1.3921292 -0.9917984 0
9.549015 -4.0020218 1.8897915 0
4.8881984 9.2697401 -0.98301005 0
-5.1720228 8.6114006 3.1499739 0
-9.9588537 3.4095621 0.19760919 0
-9.9521875 3.407172 0.43386066 0
9.3708115 -4.0061517 2.6476226 0
-5.2224989 8.5686808 3.1917834 0
-4.8547225 9.2935829 0.98317266 0
-4.9700475 8.9572697 2.4568245 0
-9.3114796 3.8627679 3.0650206 0
-9.9508333 3.4066861 0.6691401 0
-9.484787 3.737206 2.6744733 0
10.43079 1.140588 -0.98952568 0
-4.9084787 9.1316881 1.9087396 0
-9.2571926 3.8975866 3.201036 0
-9.1335306 3.9830067 3.4513474 0
9.3257294 -4.0139718 2.8540425 0
10.451412 -1.0141435 -0.98816049 0
10.454682 1.0148811 -0.98869145 0
-9.8530121 3.4786017 1.4640918 0
9.7616787 -4.01367 -0.024148881 0
-9.7864151 -3.8120799 1.0482895 0
9.7447796 -4.0072131 -0.62601566 0
9.7576485 -4.0121298 -0.32489252 0
-5.057353 8.837779 2.7816267 0
9.7604961 -4.0132179 0.27589428 0
5.013608 9.2407637 -0.98588479 0
-4.9003305 9.1690397 1.8557212 0
-4.8306928 9.330924 1.0652373 0
9.7533512 -4.010488 0.5753721 0
10.453331 -1.1460125 -0.99319768 0
-9.957325 3.409014 0.90409839 0
-4.8494072 9.2868614 1.3555856 0
-4.9082103 9.1181688 2.0941024 0
-9.6688347 3.6100926 2.2816708 0
5.1304026 9.189394 -0.98524809 0
10.486609 -0.89099306 -0.98945165 0
10.486629 0.89099723 -0.98945487 0
-5.0646567 8.8380013 2.8312743 0
9.4212637 -4.0102353 2.640368 0
5.2436953 9.1300678 -0.9835242 0
10.501777 0.76365954 -0.9877919 0
-9.9513578 3.4068742 1.1390696 0
10.506131 -0.76451153 -0.98849463 0
-5.2666059 8.4556952 3.5689034 0
5.3578787 9.0734444 -0.98253787 0
9.7512836 -4.0096979 -0.93205035 0
-9.6856346 3.6138277 2.2981391 0
-9.1076803 4.0183554 3.6235142 0
-5.1366582 8.6945114 3.2014303 0
9.7654743 -4.01512 0.87576175 0
-4.9848814 8.9367018 2.750282 0
-9.7794733 -3.8103566 1.4644148 0
10.532347 0.63938946 -0.98890913 0
-10.054587 3.3462064 -0.2052294 0
-10.039997 3.3432431 0.63557899 0
9.8096695 -4.0069175 -0.40260786 0
10.538394 -0.64048296 -0.98988235 0
9.8137283 -4.0094113 0.26035917 0
9.816433 -4.0110731 -0.070891976 0
5.4783483 9.0307856 -0.9842658 0
-10.049091 3.3450902 -0.62707222 0
10.551342 -0.5129655 -0.98845112 0
9.5667953 -4.0133023 2.2266273 0
-9.8480701 3.477524 1.8823934 0
-10.069084 3.3491507 0.21530282 0
-4.7964058 9.4676142 -0.13708848 0
9.3883371 -4.0133009 2.9057457 0
-4.904767 9.1781797 2.0967598 0
-4.7963114 9.4674911 0.23825896 0
-9.9597244 3.4098742 1.3747101 0
9.8051319 -4.0041285 -0.73612118 0
10.558483 0.51415163 -0.98959768 0
-4.7917771 9.461586 -0.51314473 0
9.8151226 -4.0102687 0.59106922 0
10.566597 0.38603252 -0.98768532 0
10.567887 -0.38622791 -0.98789203 0
-4.7906485 9.4601154 0.6129787 0
9.7660084 -4.0153241 1.1770754 0
-4.8390322 9.3439655 1.4946871 0
-9.6745605 3.6094944 2.5323901 0
-5.0857358 8.7824526 3.170579 0
5.5998125 8.9894171 -0.98653424 0
10.587633 0.26000375 -0.98813581 0
-4.9756494 8.9639511 2.8401077 0
-4.8625159 9.3034382 1.7333279 0
5.7101421 8.9246845 -0.9849925 0
9.7482243 -4.0085292 1.4778683 0
-4.9174528 9.1452894 2.3413098 0
10.598227 0.13258988 -0.98720753 0
-4.9090614 9.1192141 2.4735403 0
10.599365 -0.2616089 -0.99001133 0
-9.4198189 3.7796342 3.224699 0
-10.05551 3.3463938 1.0566785 0
10.603704 -0.13325971 -0.98808169 0
-4.8983383 9.1649342 2.3360901 0
9.8228188 -4.014998 0.92268467 0
5.8229971 8.8654032 -0.98469079 0
-5.0467653 8.8172722 3.210309 0
-9.9650917 3.411799 1.6110542 0
-4.8002009 9.4725571 -0.89360487 0
-4.796401 9.4676075 0.98848796 0
-9.4904203 3.7386043 3.0979395 0
5.9358687 8.8062143 -0.98469234 0
-9.3106632 3.8625531 3.4887104 0
10.621792 -0.0067161918 -0.98863769 0
-9.6708794 3.6105692 2.7038834 0
6.0453181 8.7407713 -0.9838537 0
9.73559 -4.0037017 1.7807894 0
-9.792737 -3.8136492 1.8851457 0
10.633836 0.0080140829 -0.99055636 0
10.633459 -0.12055331 -0.9884603 0
-9.66745 3.6067123 2.7686872 0
10.637418 0.12018406 -0.98908997 0
10.636656 -0.24848521 -0.98722684 0
-4.7556086 9.5596647 0.41570616 0
9.5682125 -4.0142007 2.5650735 0
-4.8516674 9.2897186 2.1096885 0
-4.7607851 9.5711594 0.16996098 0
-4.7909184 9.4604673 1.3644214 0
-5.1864557 8.6313553 3.5941334 0
6.1595545 8.6839657 -0.98486805 0
-9.8452864 3.476917 2.3042924 0
6.2656827 8.6130085 -0.98358798 0
-4.8401928 9.3457813 1.9262176 0
10.649157 0.37561983 -0.98776186 0
10.64441 0.50374216 -0.98585021 0
9.8380146 -4.0243363 1.2569184 0
-9.2731781 3.9046304 3.6514788 0
-10.059278 3.3471589 1.4793813 0
10.656427 0.24692565 -0.99036789 0
10.654263 -0.37529051 -0.98857236 0
-9.9792671 3.4168816 1.849309 0
-4.7620792 9.5740328 0.65967357 0
-4.9018469 9.172164 2.5800467 0
10.658697 -0.50302589 -0.98811591 0
-4.9879699 8.9412403 3.1879058 0
-4.903996 9.1248941 2.7719188 0
-4.7604375 9.5491629 1.0729558 0
6.3830295 8.5608482 -0.98606372 0
10.660656 0.63079357 -0.98755705 0
-4.7610254 9.5716915 0.90410972 0
10.665303 -0.63062721 -0.98829365 0
10.658145 -0.75858235 -0.98658025 0
9.8236637 -4.0155168 1.5901918 0
-10.245795 3.1984158 0.18341231 0
6.4919419 8.4944 -0.98620093 0
-9.4990778 -3.8132145 3.2445717 0
10.665757 0.75841892 -0.98778629 0
-10.24624 3.2069573 0.21274471 0
-4.732255 9.6387291 0.23654974 0
6.695652 8.3400707 -0.98327816 0
-9.9690599 3.4132216 2.0862761 0
-10.25033 3.2077272 -0.21390355 0
-4.7354827 9.6430597 -0.14249527 0
-10.247931 3.1991129 0.42397237 0
6.5989952 8.4249954 -0.98607421 0
-4.9748511 8.9629984 3.2275658 0
10.666351 0.8861441 -0.98759091 0
-4.9125743 9.1235275 2.8592327 0
-4.7927265 9.462822 1.7434978 0
-9.784584 -3.8116252 2.3069634 0
-4.7333837 9.6402426 -0.52252823 0
9.7555428 -4.0113254 2.0929112 0
-4.7326303 9.6392317 0.61486113 0
-10.246854 3.2070727 0.63866615 0
-10.047229 3.344712 1.9029627 0
-10.251346 3.2002282 0.66408467 0
-5.0789948 8.7728462 3.6083045 0
10.678297 -0.88605863 -0.98948288 0
10.667955 1.0138674 -0.98784482 0
-4.7656107 9.5818729 1.1487467 0
10.671536 -1.013893 -0.98841202 0
6.8112693 8.2834253 -0.98616362 0
6.9099417 8.2020512 -0.98459017 0
9.564146 -4.011621 2.9073997 0
-9.9525499 3.4073017 2.3230891 0
-4.7579832 9.5649376 1.3927834 0
-4.8528762 9.2912474 2.4927857 0
-10.265608 3.2106032 -0.64340341 0
-10.249504 3.1996267 0.90410435 0
10.655077 1.2690067 -0.986673 0
-9.5989351 3.6651857 3.2527561 0
-4.7619486 9.5516024 1.5064692 0
-4.7354736 9.6430473 -0.90550506 0
-10.240675 3.2059095 1.0647886 0
10.678247 1.1418493 -0.98976505 0
-4.7332411 9.6400518 0.9936986 0
-4.9058819 9.1804771 2.8264799 0
9.8238049 -4.0156035 1.9278483 0
10.682643 -1.1419436 -0.99046123 0
10.668692 -1.2694941 -0.98883069 0
-9.6732903 3.6111312 3.1321015 0
7.019176 8.135499 -0.98618841 0
7.1180224 8.0546932 -0.98528218 0
-4.845799 9.3545485 2.3629222 0
-9.4948845 3.7397125 3.5283747 0
-10.249488 3.1996214 1.1440787 0
7.2182808 7.9759226 -0.98505712 0
10.665987 1.3973396 -0.98927188 0
9.7429523 -4.006515 2.4027581 0
-9.4295511 3.7837574 3.6770935 0
10.653447 -1.5246569 -0.9884429 0
10.672176 -1.3976499 -0.99025345 0
10.655189 1.5247692 -0.98871922 0
10.636621 -1.6515121 -0.98722136 0
10.641995 1.6519361 -0.98807514 0
-9.8715324 3.48264 2.7364597 0
-4.7308359 9.6368246 1.3735552 0
-4.7650547 9.5806389 1.638989 0
-9.9507427 3.4066536 2.5632062 0
7.3278437 7.9087701 -0.98747849 0
7.4228377 7.8232584 -0.98647702 0
7.6063442 7.6454582 -0.98385966 0
-4.79986 9.4721127 2.1274323 0
10.637189 1.7797947 -0.98905361 0
10.619838 1.9065056 -0.98832643 0
7.5192857 7.7396946 -0.98614943 0
10.645823 -1.7806001 -0.9904269 0
-10.264099 3.2043922 1.3850303 0
-10.248446 3.2073724 1.4932754 0
10.554843 2.2842526 -0.98580253 0
-10.049131 3.3450985 2.3315845 0
10.607604 2.0337365 -0.98870385 0
10.632119 -1.907829 -0.99028301 0
10.076734 -4.0081444 0.25644219 0
10.610231 -2.0340576 -0.98912311 0
9.8234959 -4.0154133 2.2691693 0
7.8890605 7.3883815 -0.98402536 0
-4.7647362 9.5561028 1.9431381 0
-4.7605343 9.5706015 1.8841641 0
7.8016963 7.481513 -0.98528564 0
10.591109 2.1604793 -0.98869157 0
10.537757 2.4107091 -0.98627007 0
10.08029 -4.0102601 -0.42301959 0
-4.9115448 9.1222639 3.2496586 0
7.7161274 7.5770154 -0.98730373 0
10.092319 -4.0174174 -0.083436787 0
10.574117 -2.2871714 -0.98888993 0
-9.797658 -3.8148708 2.7371349 0
-4.664957 9.8103209 0.23483062 0
-4.989543 8.943552 3.632308 0
-4.9152474 9.1419477 3.2170534 0
10.083123 -4.0119457 0.59508753 0
10.606632 -2.1626031 -0.99117315 0
10.523958 -2.5378723 -0.98755884 0
7.9890461 7.3083873 -0.9859395 0
10.52579 2.5382037 -0.98785377 0
-4.8550653 9.2940159 2.8816211 0
-10.263906 3.2043288 1.626132 0
10.498303 2.6629801 -0.98723137 0
-10.187867 -3.8103473 0.17278063 0
-4.673624 9.8223038 -0.14814878 0
10.470941 2.787694 -0.98691571 0
-4.7323761 9.6388912 1.7562685 0
10.563838 -2.415041 -0.99045742 0
-10.187002 -3.8100088 0.41704023 0
8.251173 7.0297232 -0.98484588 0
8.0837021 7.2225966 -0.98689628 0
8.1685305 7.1270823 -0.9859525 0
10.442239 2.9120743 -0.98667097 0
10.115673 -4.012342 0.27009249 0
-4.8373942 9.3414049 2.8001604 0
10.476912 -2.7889514 -0.98788226 0
-9.5028267 -3.8148029 3.6984172 0
8.3358974 6.9344893 -0.98449898 0
10.092892 -4.0177579 -0.7672224 0
10.446999 -2.9131479 -0.9874438 0
9.7522602 -4.0100708 2.7229738 0
10.118377 -4.0133309 -0.35449094 0
10.082696 -4.011692 0.93424988 0
10.124402 -4.0155349 -0.041989088 0
-10.184687 -3.8091028 0.66076398 0
-10.452408 3.0655026 0.20964277 0
10.417077 3.0372882 -0.98729181 0
-9.9603329 3.4100924 2.8073597 0
-4.6741295 9.8230028 0.61684251 0
10.518595 -2.6669502 -0.99050605 0
10.114776 -4.0120139 0.58129072 0
-4.7908874 9.4604263 2.5113194 0
-10.455502 3.0660391 -0.22316331 0
-9.770751 3.5441158 3.2792559 0
-4.6917844 9.7783375 1.0813386 0
-4.7611265 9.5719156 2.13135 0
10.137878 3.8849447 -0.98277271 0
-4.6801176 9.8312817 -0.53324282 0
10.348496 3.2832496 -0.98642421 0
-10.44294 3.0638602 0.6415894 0
-10.243549 3.2064507 1.9233599 0
8.6663227 6.5465021 -0.98425484 0
-10.180373 -3.807415 0.90410829 0
10.31422 3.4061663 -0.98642397 0
8.5899611 6.6487088 -0.9851706 0
-10.257806 3.2023375 1.8674307 0
-4.6640148 9.8090181 0.99868941 0
10.431201 -3.0406871 -0.98959267 0
10.395033 3.1634424 -0.98871696 0
-10.451959 3.0654247 -0.65718687 0
8.5150452 6.7524071 -0.9867028 0
8.7503872 6.4505191 -0.98519647 0
10.128714 -4.0171123 -0.67059803 0
8.4386082 6.8551679 -0.98824453 0
-9.6669617 3.6096561 3.5650501 0
-4.6750331 9.8242521 -0.91904759 0
10.200479 3.7716608 -0.98635507 0
-9.5963335 3.6641271 3.7060728 0
8.8298168 6.3507562 -0.98547983 0
9.8160915 -4.0108633 2.6132076 0
8.9058676 6.2483988 -0.98537767 0
9.1214771 5.9325471 -0.98438013 0
10.410001 -3.1672716 -0.99116397 0
9.052721 6.039937 -0.98501909 0
10.29412 3.5333931 -0.98905969 0
10.252135 3.654192 -0.98837245 0
9.8656788 4.5988183 -0.9845891 0
10.295203 -3.5337205 -0.98923898 0
-9.8647165 3.4811537 3.1686106 0
10.118771 4.0134754 -0.98677921 0
10.377048 -3.2909911 -0.99110961 0
8.9848785 6.1481566 -0.98614085 0
10.072894 4.1325808 -0.98658001 0
9.3952579 5.5026808 -0.98452282 0
9.6426945 5.0571194 -0.984429 0
10.339952 -3.4135404 -0.99066365 0
10.131223 -4.0180302 0.89376962 0
-10.18714 -3.8100626 1.1475146 0
10.028924 4.2524362 -0.98699474 0
10.093366 -4.0180402 1.2757506 0
9.2688332 5.7242694 -0.98583829 0
-4.7555943 9.5596333 2.3778563 0
-10.446774 3.0645254 1.0740991 0
10.263022 -3.6576519 -0.99018168 0
9.8210144 4.7186046 -0.98605537 0
9.2029495 5.83359 -0.98644722 0
10.175515 -3.8981035 -0.98908758 0
10.129195 -4.0172882 -0.98853731 0
9.3412218 5.6190443 -0.98673618 0
9.9860477 4.3728547 -0.98789287 0
9.5950317 5.1761737 -0.98657441 0
9.714962 4.9508195 -0.98696244 0
-10.255929 3.2017248 2.1100008 0
9.7733269 4.8372512 -0.98730075 0
-10.054188 3.3461254 2.7657356 0
-10.174825 -3.805244 1.3905685 0
10.231984 -3.7821724 -0.99161541 0
9.9409714 4.4925284 -0.9887135 0
9.5398159 5.2914953 -0.98767543 0
10.122991 -4.0150185 1.2063208 0
-4.7734952 9.5702419 2.385735 0
-4.7377315 9.6460772 2.14347 0
9.4812841 5.4051681 -0.98848009 0
-4.6714878 9.8193502 1.3833544 0
-4.6981006 9.788867 1.5212862 0
10.085779 -4.013526 1.6176062 0
-9.7945995 -3.8141117 3.1702957 0
-10.172798 -3.804451 1.6343071 0
-4.8553529 9.2943792 3.2762041 0
10.116398 -4.0126071 1.5203876 0
-10.244239 3.2065804 2.3576992 0
-4.9074826 9.1301794 3.6616096 0
-10.252914 3.2007403 2.3536348 0
-10.453943 3.0657687 1.5087628 0
-4.7950678 9.4658718 2.9044039 0
-9.9274359 3.4138424 3.3023129 0
-4.6042595 9.9962826 -0.15346563 0
-4.8372478 9.341176 3.2458167 0
10.25176 -4.0114307 -0.16296542 0
-4.6119623 9.9971704 0.1467669 0
9.8180656 -4.0120764 2.9651761 0
-4.7633753 9.57691 2.6306818 0
-4.611455 10.006537 0.23258293 0
-4.6137609 10.001491 0.3994559 0
10.263606 -4.015871 0.10393929 0
10.257663 -4.0136433 -0.43265736 0
-10.175556 -3.8055301 1.8792195 0
-4.6112843 9.9955435 0.65207398 0
-4.6778207 9.8281069 1.7710316 0
-4.6955705 9.7846498 1.9626789 0
-4.6102376 10.004802 -0.5420599 0
10.257092 -4.0134292 0.63795114 0
10.270637 -4.0185065 0.37080407 0
-4.6130562 10.008819 0.61886561 0
10.092654 -4.0176167 1.9644518 0
10.120859 -4.0142393 1.8385315 0
-4.7633495 9.5538635 2.8274453 0
-10.248548 3.1993146 2.5984869 0
-9.7732372 3.5450861 3.738296 0
-4.7420521 9.6518736 2.5352712 0
10.250865 -4.011095 -0.97438431 0
-4.614028 10.002132 0.90411937 0
-4.6091285 10.003222 -0.9322499 0
-4.6065931 9.999608 1.0050786 0
10.264813 -4.0163236 0.90413666 0
-9.85888 3.4798813 3.607564 0
10.279135 -4.0216918 -0.70645189 0
-4.6111941 9.9961405 1.0890226 0
-10.046685 3.3446016 3.2032251 0
-4.759058 9.5673246 2.880785 0
-4.6129026 9.9994307 1.1562629 0
-10.460855 3.0669677 1.9465685 0
10.25784 -4.0137095 1.1703408 0
-10.662148 3.0130558 0.1594584 0
-4.6684418 9.8151388 2.1585593 0
-10.660021 3.012428 0.40822864 0
-10.194946 -3.8131173 2.1274257 0
-10.656246 3.0113142 0.65639699 0
11.051541 -0.16500276 -0.98667824 0
-10.248202 3.2073267 2.7975667 0
10.084362 -4.0126834 2.3122869 0
-4.6861348 9.768919 2.4054022 0
-4.6083388 10.002096 1.3931706 0
10.958011 1.4810859 -0.98684728 0
10.122551 -4.0148578 2.1599741 0
10.998822 1.1535259 -0.98734593 0
-10.652236 3.0101309 0.90411365 0
-9.7877951 -3.8124223 3.6092415 0
11.032131 0.82498026 -0.98815835 0
10.525489 3.4101348 -0.98508954 0
10.916454 -1.8086261 -0.98778343 0
11.064913 0.16519459 -0.98887622 0
-4.7941804 9.464716 3.3021317 0
10.919109 1.8090485 -0.98822534 0
-10.253598 3.2009635 2.8468719 0
11.058218 0.49556765 -0.98933399 0
10.970443 -1.4827 -0.98890758 0
10.716517 2.7784522 -0.98737991 0
11.060077 -0.4956477 -0.98963976 0
10.265374 -4.0165339 1.4372091 0
10.363799 -4.0132861 0.25207233 0
-4.6189156 10.013872 1.4094093 0
11.013068 -1.1549615 -0.98969924 0
11.04333 -0.82578486 -0.99000359 0
-4.7260633 9.6304207 2.9250901 0
-10.175877 -3.8056557 2.3721526 0
10.369533 -4.0165868 -0.095953226 0
10.869572 2.1357701 -0.98940206 0
10.80113 2.4590592 -0.98897898 0
10.363358 -4.0130315 -0.44451576 0
-4.6151567 10.002966 1.53373 0
10.637772 3.0991879 -0.98832762 0
10.873038 -2.1364243 -0.98998189 0
10.436689 3.7282157 -0.98744202 0
-10.431462 3.0618694 2.3828011 0
10.809072 -2.4607947 -0.99031484 0
-10.653333 3.0104544 1.1517601 0
10.199899 4.344357 -0.9865433 0
10.547741 -3.4170485 -0.98891902 0
-4.6119804 9.9972153 1.6614778 0
10.735506 -2.7831769 -0.99059594 0
10.648317 -3.1021357 -0.99012733 0
10.373211 -4.0187049 0.59951711 0
10.334257 4.0423536 -0.98902118 0
10.451265 -3.7332075 -0.98997426 0
10.079231 4.6517601 -0.98804164 0
10.370911 -4.0173802 -0.79666042 0
-4.8373976 9.3414097 3.6988454 0
-4.6053667 9.9978609 1.7828457 0
-4.6048822 9.9801645 1.9134877 0
-10.652197 3.0101194 1.3996203 0
-4.759171 9.5471182 3.276454 0
-4.5455518 10.19114 -0.16011781 0
10.370451 -4.0171156 0.94740868 0
-10.129786 3.296828 3.3369064 0
-4.6684098 9.8150949 2.5523736 0
-10.495119 -3.8026922 0.20634961 0
-4.5475178 10.194029 0.23052502 0
-9.9398279 3.4184759 3.7678862 0
-10.497734 -3.8033018 -0.23302692 0
10.079216 -4.0096211 2.6650426 0
-4.544261 10.189243 -0.55205357 0
10.282121 -4.0228109 1.7057207 0
-10.17374 -3.8048196 2.6205196 0
-4.5445724 10.1897 0.62078345 0
10.12846 -4.0170193 2.486974 0
-4.6108322 9.9955177 1.9796896 0
-9.9676514 -3.8152163 3.3446584 0
-10.499119 -3.8036244 -0.67409194 0
-4.5426927 10.186938 -0.94617021 0
10.368794 -4.0161619 1.2964644 0
-10.509285 -3.8059943 0.6453042 0
-4.5292339 10.220151 0.64931405 0
-4.5424619 10.186599 1.0112298 0
10.267723 -4.0174141 1.9728358 0
-4.6864352 9.7694197 2.8554404 0
-10.052937 3.3458712 3.6510477 0
-10.668526 3.0149372 1.6492376 0
-10.243999 3.2065353 3.2418113 0
-10.502935 -3.8045142 1.0847068 0
-4.528707 10.219213 1.0970316 0
-4.6130304 10.008782 2.1784468 0
-10.659231 3.0121949 1.8979683 0
10.368018 -4.0157151 1.6476505 0
-4.6195526 10.015404 2.1723571 0
-4.7325101 9.6390705 3.329421 0
-10.182164 -3.8081157 2.8728242 0
-4.5472164 10.193585 1.403913 0
10.269884 -4.0182242 2.2424655 0
10.127874 -4.0168052 2.8178794 0
-10.458573 3.066572 2.8329377 0
10.528159 -4.0213976 -0.062016964 0
-4.673244 9.8217783 2.9534843 0
10.522519 -4.0194254 -0.38796371 0
-4.6107521 9.9953794 2.4302244 0
10.510403 -4.0151896 -0.71464729 0
10.529514 -4.0218716 0.26323473 0
-10.653471 3.0104954 2.1477618 0
-4.6140671 10.002227 2.4270482 0
7.7176628 8.2264462 -0.1782341 0
7.7102361 8.2357063 -0.1483506 0
10.099509 -4.0216951 3.0310431 0
-4.5296836 10.220952 1.5465839 0
-10.514972 -3.8073196 1.526916 0
10.530061 -4.0220623 0.5881753 0
7.8434315 8.1207361 -0.067684054 0
7.745738 8.2140331 -0.06814146 0
7.9441447 8.0227451 -0.14590299 0
7.9434609 8.0217552 0.23534143 0
7.9616127 7.9995298 0.36339951 0
7.7147393 8.2426386 0.23436093 0
7.7264051 8.2352514 0.092520356 0
10.364069 -4.0134411 2.0012183 0
7.7458405 8.2141571 0.26121712 0
7.9384427 8.0247135 -0.39701849 0
7.8338604 8.1385784 -0.14766991 0
8.0589886 7.9149179 0.23570967 0
7.7117543 8.2380428 0.61694324 0
-10.312679 3.1685951 3.3669949 0
7.7145877 8.2424049 -0.53330922 0
8.0434799 7.9402285 -0.067473829 0
7.9725475 8.0099287 -0.18110132 0
-4.6046038 9.9967737 2.57394 0
10.524975 -4.0202842 0.91324008 0
7.837059 8.1433516 0.23463166 0
7.9501529 8.0380869 -0.068059444 0
7.8438272 8.1212015 0.5900383 0
7.7236109 8.2324371 0.63408387 0
7.8493657 8.1277122 -0.39874828 0
7.8329182 8.1371717 -0.53132594 0
-10.1257 3.2953665 3.8033285 0
7.7469435 8.2154913 0.59021306 0
8.0366592 7.9326601 0.58977973 0
7.7525754 8.2223072 -0.39964962 0
7.9471922 8.027154 -0.52899331 0
7.7312183 8.240099 -0.4532876 0
7.9499879 8.0378981 0.26125157 0
-4.5488214 10.195944 1.7989078 0
7.9785757 8.0156612 0.090658665 0
8.0465727 7.9436593 0.2613616 0
-4.4808612 10.383585 -0.16660899 0
-4.4804673 10.382987 0.22843659 0
7.7439051 8.2118139 -0.73095238 0
7.855731 8.1351938 0.26104093 0
7.8424373 8.1195669 -0.7300458 0
7.9399557 8.0264416 -0.72921312 0
7.8342934 8.1392241 0.61668146 0
7.9696331 8.0071573 0.63365948 0
10.274015 -4.0197725 2.5139704 0
8.0364323 7.9324088 -0.72844899 0
7.7083578 8.2328148 -0.9188019 0
-4.7664876 9.5589294 3.7380524 0
7.7397785 8.2487211 0.36266565 0
7.7184649 8.2272539 0.90414095 0
-10.921294 2.9605687 0.20186889 0
8.1815548 7.818635 -0.14441007 0
8.0493412 7.9467306 -0.3983618 0
7.8391757 8.1157331 0.9187398 0
8.0734911 7.9352751 -0.14604419 0
8.0642376 7.922286 0.61584806 0
7.9806719 8.0176544 -0.45593941 0
8.2196407 7.783679 -0.18370843 0
7.6627235 8.3260641 -0.40172476 0
-4.4807296 10.383386 -0.5630697 0
8.2453842 7.7616777 -0.067809105 0
8.0686388 7.9284639 -0.52802849 0
-9.959795 -3.8120196 3.8112154 0
8.1535664 7.860868 -0.068297386 0
-10.929256 2.9618328 -0.24676186 0
7.9537401 8.0421829 0.59024775 0
10.517557 -4.0176907 1.2389038 0
8.1777725 7.8134842 0.61547065 0
7.6689186 8.3337831 0.26044583 0
7.9449892 8.0239668 -0.91367328 0
-10.916105 2.9597449 0.64943933 0
8.247097 7.7634721 0.26128733 0
7.7104263 8.2191572 1.1737628 0
-4.4835467 10.387654 0.62306094 0
8.1889505 7.8287077 0.23559952 0
7.9593043 8.0446815 0.61654484 0
8.1578026 7.8654351 0.26105928 0
7.9449897 8.0321903 0.91904867 0
-4.6889534 9.7736177 3.3126664 0
-10.660522 3.0125756 2.400516 0
7.8311396 8.1345186 0.99881363 0
8.3001366 7.7173252 0.23599863 0
7.8358335 8.1415234 -0.91806567 0
8.1509113 7.8580046 0.59016371 0
-10.921923 2.9606686 -0.69624686 0
8.3020353 7.7198353 -0.14403164 0
7.6669931 8.3313847 0.59090042 0
7.7522726 8.221941 0.92007899 0
8.2263031 7.7896605 -0.45893991 0
8.1872864 7.8264408 -0.52687937 0
8.1577606 7.8653898 -0.39951056 0
7.7177548 8.2472811 1.000474 0
8.2514019 7.7679811 -0.39891815 0
8.0439224 7.9407187 0.91890836 0
8.3490934 7.6749339 -0.068324089 0
-4.6157513 10.006273 2.6858125 0
7.8332171 8.1087284 1.2479677 0
-10.503602 -3.8046694 1.9697504 0
