# .PCD v0.7 - Point Cloud Data file format
VERSION 0.7
FIELDS x y z intensity
SIZE 4 4 4 4
TYPE F F F F
COUNT 1 1 1 1
WIDTH 1409
HEIGHT 1
VIEWPOINT 0 0 0 1 0 0 0
POINTS 1409
DATA ascii
3.3309135 -3.4722135 0.26951301 0
3.2846494 -3.478266 0.58087969 0
-3.2573986 -3.4617817 0.80018127 0
3.2290707 -3.4674692 0.88868237 0
-3.3538175 -3.4627392 -0.071489632 0
-3.3470645 -3.4594104 -0.27114838 0
-3.2467899 -3.4487009 0.90393674 0
2.8111746 -3.4787889 1.8022168 0
-2.9123583 -3.4623663 1.6725392 0
-3.1731563 -3.461776 1.1035936 0
3.1343484 -3.4814651 1.1613364 0
3.3376284 -3.482882 -0.15604717 0
3.3410749 -3.4668601 0.34371471 0
3.2759848 -3.484319 0.67158091 0
3.3277707 -3.4672205 0.47761703 0
-2.6474485 -3.4566052 2.0925422 0
-4.2873559 -1.9961038 -0.98739898 0
2.92557 -3.4724467 1.6522956 0
3.3343136 -3.4776156 0.37356853 0
-2.7872291 -3.4685667 1.8867548 0
3.337024 -3.4819219 -0.37592226 0
3.1398535 -3.4789767 1.19978 0
-2.8436093 -3.4614935 1.8269529 0
-4.2565727 2.0794487 -0.98382962 0
3.2053013 -3.4843767 0.99899721 0
3.3774271 -3.4655194 0.057390213 0
3.2287495 -3.4669251 0.99378109 0
-2.5578475 3.9911814 -0.98579538 0
3.2830968 -3.475719 0.78889942 0
3.3810325 -3.4710701 -0.05044508 0
3.3308597 -3.4721279 0.58188152 0
3.1888671 -3.481432 1.0986915 0
-3.3574529 -3.4645314 -0.47502542 0
-3.3546658 -3.4631574 0.52491188 0
-4.2686172 -2.0817158 -0.98665905 0
3.3445215 -3.4763892 0.50786209 0
3.1781859 -3.4627261 1.2010126 0
3.2746048 -3.4803264 0.83579993 0
3.2170894 -3.4874394 1.0217605 0
3.3843131 -3.4761207 -0.15982872 0
-4.2338414 -2.1639955 -0.98242736 0
3.3825374 -3.4733865 0.2680037 0
2.9976649 -3.4724782 1.5917749 0
3.1299953 -3.4675977 1.3256986 0
3.329417 -3.469836 0.68619001 0
-3.0984411 -3.4643743 1.4137175 0
3.3874679 -3.4809771 0.16165257 0
-2.9461126 -3.4668953 1.7086971 0
3.3412943 -3.4674671 0.67188942 0
3.3822384 -3.4729266 -0.38041854 0
3.3830225 -3.4741337 0.37316167 0
3.201427 -3.472625 1.1632578 0
3.2296524 -3.4684551 1.1008282 0
-3.3457055 -3.4587405 0.72305429 0
-3.2636328 -3.4694693 1.0079241 0
2.9922979 -3.4676492 1.655797 0
-2.9983406 -3.4586813 1.6641846 0
3.2705102 -3.4684794 0.99970913 0
-3.3581305 -3.4648652 -0.67987919 0
3.0651488 -3.4820278 1.4934454 0
-3.1738434 -3.462127 1.3002629 0
3.3925281 -3.4887671 -0.27322215 0
3.4286692 -3.4648678 -0.053780377 0
3.3844781 -3.4763744 0.47828484 0
3.425612 -3.4603055 0.26733267 0
3.3797965 -3.4691672 0.58313251 0
3.4135189 -3.4683936 0.34325099 0
-3.092247 -3.4562714 1.5154662 0
-2.52174 4.058156 -0.98840094 0
3.2910619 -3.488785 0.89662838 0
-4.2583179 2.1689668 -0.98819351 0
3.2173617 -3.4876983 1.1397121 0
3.197051 -3.4683826 1.25595 0
-3.2582164 -3.4627907 1.1116226 0
3.3345513 -3.4779932 0.7924639 0
3.2828541 -3.4753208 1.0005906 0
3.3768518 -3.4646339 0.68804228 0
-4.2242889 2.2512567 -0.9844203 0
2.9920118 -3.4667842 1.7070003 0
3.3276167 -3.4669759 0.89674079 0
3.435431 -3.4749577 0.15978122 0
3.4367945 -3.4769928 0.052199721 0
3.4244525 -3.4785175 0.29526627 0
3.431221 -3.4686756 -0.38669616 0
3.2313812 -3.4713843 1.2101755 0
-2.9016986 -3.4522641 1.9031978 0
3.4213796 -3.4757586 0.41818476 0
3.4359713 -3.475764 -0.27624005 0
-3.3517985 -3.4617441 -0.88578188 0
3.4347501 -3.4739418 0.37266719 0
-4.236917 -2.2540102 -0.98740423 0
3.4431906 -3.4865375 -0.16782188 0
3.2001109 -3.4686325 1.3300648 0
-3.040525 -3.4555957 1.689846 0
-3.2557192 -3.4597108 1.2154701 0
3.1299534 -3.4674633 1.4946084 0
3.4742088 -3.454555 0.26614892 0
3.3488319 -3.4883053 0.83862329 0
3.4224427 -3.4767129 0.53998971 0
3.4198527 -3.4851501 0.50846159 0
3.4350939 -3.4744551 0.47874343 0
3.4295349 -3.4661593 0.58443654 0
-3.4211845 -3.4561727 0.6916256 0
-3.3578153 -3.46471 0.92327952 0
-2.482368 4.1230469 -0.99026024 0
3.286576 -3.4814262 1.1101563 0
-3.4328365 -3.4697263 0.58393097 0
3.4845097 -3.4694607 0.049668074 0
-4.2139945 2.3386168 -0.98653972 0
3.4200399 -3.4745557 0.66168213 0
3.2748663 -3.4810832 1.1682482 0
3.0626254 -3.4735658 1.6625757 0
-2.7807837 -3.4622805 2.1190102 0
3.3882174 -3.4821312 0.79644191 0
3.4881058 -3.4746647 -0.060359716 0
3.3354425 -3.479409 1.0066495 0
3.487556 -3.4718544 0.17658484 0
3.4847186 -3.469763 -0.28142667 0
-3.1004686 -3.4670265 1.6213095 0
3.206332 -3.4772089 1.3750741 0
-3.4198027 -3.4545646 0.79788971 0
-4.2209911 -2.3402476 -0.98819828 0
2.9902771 -3.4650371 1.8237839 0
3.3444033 -3.4760621 1.003612 0
3.4321642 -3.4700832 0.69110537 0
3.4825251 -3.466589 -0.39396828 0
3.491076 -3.4789627 0.15675235 0
-3.256197 -3.4603002 1.3199124 0
-2.4296303 4.1778698 -0.98792541 0
3.4214616 -3.4894063 0.67442524 0
3.4931684 -3.4819903 -0.17255694 0
3.4888248 -3.4750721 0.34266865 0
3.4874718 -3.4737473 0.37215221 0
-4.1873589 2.4222097 -0.98507643 0
3.4194953 -3.474067 0.78290296 0
-3.1810422 -3.4658048 1.5005951 0
-4.1890607 -2.4226322 -0.98548114 0
3.3331325 -3.475739 1.1147006 0
-3.3485947 -3.4601645 1.1227577 0
3.2892444 -3.4858034 1.2214642 0
3.4883277 -3.4749856 0.47927392 0
3.391706 -3.4875014 0.90494823 0
3.4178867 -3.4799488 0.84003329 0
-3.5318079 -3.4572842 -0.29145223 0
-2.3752494 4.2310848 -0.98526835 0
3.2710166 -3.4699442 1.3347154 0
3.3822618 -3.4729621 1.0104966 0
3.4367814 -3.4769731 0.79919732 0
3.4855719 -3.4709976 0.58629847 0
-3.4263749 -3.4622097 0.90394032 0
3.4903867 -3.4790318 0.50880551 0
3.2020583 -3.4731448 1.4931278 0
-3.0965481 -3.4618971 1.7248316 0
3.534627 -3.4642682 0.26391339 0
3.4187152 -3.4733663 0.90395844 0
-3.5455456 -3.4638135 0.11880279 0
3.129647 -3.4664872 1.6660175 0
3.5386658 -3.4699373 -0.17571896 0
-3.4162579 -3.4504414 1.0098639 0
3.2026958 -3.4764736 1.5017326 0
-3.0146146 -3.4672914 1.8680377 0
3.3430617 -3.4723532 1.1705458 0
3.5411305 -3.4733968 0.045279026 0
-3.5484982 -3.4652169 -0.086914957 0
3.481987 -3.4658103 0.69324875 0
3.4310906 -3.4684811 0.90586925 0
-4.1680522 -2.5075648 -0.98564255 0
3.5426333 -3.4755061 -0.065429568 0
3.3309541 -3.4722779 1.2242689 0
3.486824 -3.4699991 0.67471051 0
-3.2594552 -3.464318 1.4253616 0
-3.5280051 -3.4554765 0.52757692 0
3.409806 -3.4653678 1.0247107 0
-3.5468774 -3.4644465 0.32345831 0
3.5364871 -3.4668791 -0.40233725 0
3.5431685 -3.4762573 -0.29040515 0
3.4147966 -3.4717734 1.0061164 0
-4.1819506 2.5112267 -0.98896062 0
3.383738 -3.475235 1.1208966 0
-3.5426378 -3.4624314 -0.50128084 0
3.4301147 -3.4670248 1.0146561 0
3.5637102 -3.4781792 0.17478633 0
3.5534406 -3.4906757 0.15277946 0
-2.3331447 4.2940226 -0.98709679 0
3.4853144 -3.4661715 0.84103405 0
-4.1458578 2.592206 -0.985811 0
3.5500906 -3.4859736 0.37134969 0
3.5640833 -3.4790871 0.3421129 0
3.547745 -3.4826813 0.47997963 0
3.5412245 -3.4735286 0.58808243 0
-2.903996 -3.4544413 2.1413548 0
-3.0443926 -3.4591572 1.9283574 0
3.2048728 -3.4758215 1.6129255 0
3.4936187 -3.4826419 0.80369925 0
3.2701249 -3.467365 1.5047202 0
3.593971 -3.4704399 -0.18209839 0
3.3419685 -3.4693305 1.3392015 0
-4.1597581 -2.596082 -0.98914254 0
3.5929275 -3.4690185 -0.29578346 0
3.597363 -3.47506 0.15163445 0
-3.2648115 -3.4709229 1.5320961 0
-3.3592901 -3.4654372 1.3267498 0
3.599617 -3.4781299 -0.07105571 0
3.6001368 -3.4788375 0.0404917 0
-3.545186 -3.4636426 -0.71250319 0
3.4891067 -3.4761131 0.91203845 0
-3.4340749 -3.4711668 1.1171768 0
-3.1871576 -3.4689291 1.7039533 0
3.3863497 -3.4792557 1.2338407 0
3.5982995 -3.4763353 0.26144528 0
3.59445 -3.4710922 0.37110639 0
3.5659561 -3.4836428 0.50937295 0
-3.5463371 -3.4641898 0.73264301 0
3.4228303 -3.477061 1.1464102 0
-4.1224971 2.6765442 -0.98599041 0
3.2032123 -3.4780395 1.6750021 0
-4.0765233 -2.7539155 -0.98099625 0
-4.1259279 -2.6775539 -0.98681617 0
3.546411 -3.4808087 0.69756055 0
3.4182062 -3.4807942 1.1759281 0
-2.2915835 4.3576956 -0.98945224 0
3.5391872 -3.470669 0.8057096 0
3.6284041 -3.4551885 0.34206331 0
3.4394627 -3.4809744 1.1290879 0
3.5628836 -3.4761684 0.67649961 0
-3.4278736 -3.463953 1.223419 0
3.488205 -3.4735 1.0095613 0
3.6024256 -3.4819551 -0.4159652 0
-3.2034292 -3.4764636 1.7160187 0
3.6435561 -3.4618092 -0.18651313 0
3.6353321 -3.4713795 0.17366302 0
3.6006749 -3.4795706 0.48047709 0
-3.5349431 -3.4587741 -0.92354143 0
3.4897399 -3.4770291 1.0227845 0
3.4161983 -3.4711065 1.2673416 0
-3.6063137 -3.4652605 0.57612681 0
3.6500854 -3.4704404 0.037653327 0
3.2065203 -3.4773881 1.733427 0
3.5986547 -3.4768188 0.58998609 0
3.4338872 -3.4726543 1.2393794 0
3.5387583 -3.470067 0.91577172 0
-3.6015663 -3.460048 0.68592477 0
3.5597434 -3.4685299 0.84365809 0
-3.5423722 -3.4623051 0.93772149 0
3.6472881 -3.4715502 0.27617288 0
-2.2370801 4.4104705 -0.98756361 0
3.6531596 -3.474504 0.14875627 0
3.6508279 -3.4714217 0.26000667 0
-3.2687712 -3.4758053 1.6395643 0
3.6505818 -3.4710965 -0.30412257 0
3.6575131 -3.4802589 -0.076805949 0
3.5970802 -3.4746745 0.6997236 0
-3.4271193 -3.4630754 1.3303444 0
3.4057758 -3.4617493 1.3877764 0
3.6468842 -3.4712081 0.40259981 0
3.3429041 -3.4719179 1.5113134 0
-4.0597639 -2.8401699 -0.98334026 0
3.5886941 -3.4632528 0.80853426 0
-4.1119108 2.764884 -0.9895494 0
3.4156156 -3.4739406 1.3450074 0
3.2713842 -3.4710081 1.6790602 0
3.6518717 -3.4728014 -0.42191607 0
3.6429565 -3.4678802 0.52877676 0
3.4911141 -3.4790175 1.1354237 0
-3.6021814 -3.4607236 0.79497194 0
3.5369532 -3.4675331 1.026545 0
3.6557672 -3.477951 0.37037086 0
-4.0686445 2.8430626 -0.98549664 0
3.6396437 -3.4814551 0.50983524 0
-3.1695967 -3.4599574 1.9039764 0
-3.360249 -3.4659097 1.5317383 0
-2.1843405 4.4645743 -0.98655474 0
3.4910474 -3.4807065 1.1800716 0
3.6343174 -3.4690082 0.6776017 0
-4.0265398 -2.9211259 -0.98197949 0
-3.598475 -3.4566543 0.90394354 0
3.658145 -3.4810944 0.48109782 0
3.2021196 -3.4732029 1.8533878 0
3.7040133 -3.466058 0.14663279 0
-3.2658296 -3.4721782 1.7460878 0
-3.5359578 -3.4592564 1.1434162 0
3.6537991 -3.4753492 0.59165132 0
3.5619352 -3.4738615 1.0129845 0
-3.4262543 -3.4620695 1.4376621 0
3.7076831 -3.4707673 -0.0804528 0
3.5362737 -3.4665794 1.1390617 0
3.4897175 -3.4769969 1.2487581 0
3.7065046 -3.4692552 0.25831962 0
3.6522176 -3.4757271 0.65349972 0
-2.1254106 4.5128517 -0.98355794 0
3.5976477 -3.4754477 0.92192852 0
3.6406314 -3.4659102 0.77915251 0
3.7118249 -3.473983 0.17193449 0
-3.7345576 -3.4581783 -0.10140651 0
3.7098246 -3.4735155 -0.31289512 0
-3.1855192 -3.4604375 1.9526811 0
3.7163768 -3.4819243 0.031577826 0
3.4125814 -3.4659135 1.5155931 0
-3.6020918 -3.4606249 1.0129123 0
3.7048092 -3.4670794 0.48139989 0
3.7076933 -3.4707806 -0.43059587 0
3.6572256 -3.4798789 0.70323324 0
-3.7406011 -3.4609454 0.10960233 0
3.7168696 -3.4825566 -0.19839084 0
3.4148071 -3.4698577 1.5111394 0
3.6357036 -3.4722478 0.84652877 0
-4.0005374 3.0045047 -0.9826659 0
-3.3267345 -3.457773 1.7315912 0
-4.0562348 2.9312701 -0.9892242 0
-3.7370729 -3.4593298 -0.31439883 0
-3.0520906 -3.4662468 2.1725116 0
3.7022505 -3.4637959 0.59271753 0
3.715704 -3.4810607 0.36969066 0
3.3435974 -3.4738338 1.6862254 0
3.4895997 -3.4770367 1.35075 0
3.6543326 -3.4760544 0.81461096 0
3.7182422 -3.4884055 0.34090471 0
3.7131596 -3.4769824 0.51027703 0
-3.5975552 -3.4556444 1.1216855 0
-2.0752711 4.5690403 -0.98401892 0
3.5620482 -3.4741361 1.1833074 0
-3.4308338 -3.4673967 1.5466781 0
3.6033092 -3.4831586 1.0365653 0
-3.7518821 -3.4661105 0.32020319 0
3.5893404 -3.4641333 1.1457841 0
-3.9654169 -3.0845838 -0.98140192 0
3.7626987 -3.4662464 -0.20142984 0
-3.7383757 -3.4599261 -0.5292083 0
3.7660561 -3.4704299 0.0289011 0
3.7088258 -3.4672425 0.67907882 0
3.7592998 -3.4620106 0.36947942 0
-4.0248303 -3.0131936 -0.98862231 0
-3.7409601 -3.4611096 0.53098702 0
3.5459309 -3.4801347 1.2580981 0
3.6528778 -3.4741316 0.92698896 0
-3.3553462 -3.4634929 1.7380948 0
3.6552117 -3.4782636 0.90396369 0
3.6353016 -3.471308 1.01618 0
-3.5388427 -3.4606278 1.3520153 0
3.7106876 -3.474623 0.70571709 0
3.7693615 -3.4745488 0.25605869 0
3.7731309 -3.4792461 -0.087936223 0
-3.7245584 -3.4535997 -0.7432754 0
3.7740517 -3.4803934 0.14184809 0
3.7706075 -3.4761014 -0.32206804 0
3.417649 -3.4724092 1.634573 0
3.7662959 -3.4707291 -0.44032538 0
3.5554297 -3.4580357 1.3521044 0
3.7074888 -3.4705181 0.81804657 0
3.7888126 -3.475374 0.17020154 0
3.7856741 -3.4685833 0.34073353 0
3.6523373 -3.4758282 1.0291314 0
-3.4277658 -3.4638278 1.654809 0
3.653357 -3.4747648 1.0410707 0
-3.9402304 3.1683917 -0.98287618 0
3.5926223 -3.4686029 1.2629266 0
-3.9964104 3.0961726 -0.98904109 0
3.71102 -3.4721744 0.84915853 0
3.772151 -3.478025 0.48227894 0
-2.0335832 4.6335616 -0.98794842 0
3.7840476 -3.4650638 0.51059866 0
-3.6103415 -3.4696825 1.2321806 0
3.8218861 -3.4653847 0.025052786 0
3.6330116 -3.4659564 1.1864605 0
3.819478 -3.4624708 0.25489092 0
3.6441233 -3.468869 1.1539335 0
-3.7522669 -3.4662867 0.74247003 0
3.7068617 -3.4697134 0.9316411 0
3.4178534 -3.4798601 1.6946421 0
-3.596777 -3.4547899 1.3402672 0
3.7061508 -3.4612305 1.0185254 0
-3.4212241 -3.4562182 1.7625473 0
3.4958522 -3.4928882 1.5283289 0
3.7677979 -3.4726007 0.70867777 0
-3.9621868 -3.1769614 -0.98831761 0
3.8319101 -3.4775162 -0.093602538 0
3.8257718 -3.4700875 -0.32903355 0
3.8307209 -3.4760766 -0.21126086 0
3.8251991 -3.4693942 0.36865306 0
-3.7896028 -3.4615846 0.67988491 0
3.7807336 -3.4887197 0.59629345 0
3.8347483 -3.4809511 0.13845694 0
3.786674 -3.4707463 0.68093121 0
-1.9802704 4.6870332 -0.98786986 0
3.4210396 -3.4754531 1.7591169 0
3.6608171 -3.4846263 1.1594391 0
3.7652392 -3.4694118 0.82233858 0
-3.9181824 3.2536929 -0.9854393 0
-3.9184804 -3.2538142 -0.98551357 0
-3.7440348 -3.4625175 0.95371842 0
3.8270774 -3.4716673 0.48279822 0
3.7103784 -3.4742265 1.0477381 0
-3.3466573 -3.4592094 1.94629 0
-3.3288302 -3.459595 1.9773662 0
3.6456006 -3.4701204 1.2793934 0
3.8625021 -3.4676669 0.16892159 0
3.6492794 -3.4693747 1.2721648 0
-3.7498837 -3.4651954 -0.96913874 0
3.5586307 -3.4658225 1.5279469 0
-3.8698072 3.3282044 -0.98172224 0
3.8247933 -3.4689031 0.59694624 0
-3.5998235 -3.4581347 1.4507689 0
-3.7953501 -3.4675417 0.79178429 0
-1.9203179 4.7336574 -0.98552525 0
3.7044787 -3.4666555 1.1622872 0
-3.19595 -3.4697711 2.2016883 0
3.8648357 -3.472532 0.34008253 0
3.7665792 -3.4710815 0.9376781 0
-3.7868204 -3.4587007 0.90394723 0
3.8814774 -3.4633622 0.25276756 0
-3.555685 -3.4686327 1.5661626 0
3.8411131 -3.4886534 -0.45670873 0
3.6371274 -3.4755752 1.3613913 0
3.7891102 -3.4760172 0.8522867 0
3.4899054 -3.4778106 1.7010851 0
3.8896608 -3.4729822 0.018991232 0
3.8879786 -3.4710047 -0.21765625 0
-3.8896084 -3.3365939 -0.98668706 0
3.4154215 -3.4704094 1.8825498 0
3.8928504 -3.4767315 0.13547385 0
3.8940582 -3.4781511 -0.1000039 0
3.8971999 -3.4740653 0.12175918 0
-3.4884214 -3.4684703 1.7568107 0
3.7129169 -3.4764369 1.1930437 0
3.8683729 -3.4799063 0.51146007 0
-1.8645482 4.7843843 -0.98503935 0
-3.6000986 -3.458437 1.561507 0
-3.7435689 -3.4623041 1.166676 0
3.8877025 -3.4706802 0.48346496 0
3.6530216 -3.4764082 1.4060807 0
3.8395276 -3.4867346 0.71359932 0
3.8959007 -3.4803176 0.36771405 0
3.7726879 -3.4786937 1.055932 0
3.8989639 -3.4839182 -0.34233725 0
-3.8518305 3.4156275 -0.985919 0
3.8954124 -3.4797435 -0.46422726 0
3.8676243 -3.4783452 0.68309903 0
3.7909155 -3.4799235 1.0249147 0
-3.800149 -3.4725158 1.0162721 0
3.8891654 -3.4723997 0.59925413 0
-3.9474969 -3.4577844 0.099779248 0
3.8880527 -3.4667554 0.64528668 0
3.6325674 -3.4649184 1.5343575 0
3.705307 -3.4593337 1.3637986 0
3.9095371 -3.4839249 0.38291323 0
-3.8614388 -3.4198616 -0.98834312 0
-3.7880859 -3.4600122 1.1279085 0
3.7168572 -3.4825408 1.2859907 0
3.9033811 -3.4790051 0.5142231 0
-1.8080077 4.8342137 -0.9845258 0
3.841516 -3.4891412 0.83013105 0
3.7680159 -3.472872 1.1725121 0
3.9494877 -3.4693432 0.014529705 0
3.9493413 -3.4691761 -0.10464889 0
3.8304877 -3.4757948 0.94464874 0
3.9217165 -3.4936578 0.24976265 0
3.9499121 -3.4698281 0.13266921 0
3.8871779 -3.4700632 0.71516013 0
-3.8091207 3.4923182 -0.98417997 0
3.5621848 -3.474468 1.7074895 0
3.6455739 -3.4700975 1.5314953 0
3.9452224 -3.4765141 0.16660202 0
-3.9596877 -3.4631567 -0.11955208 0
3.7820406 -3.4607222 1.1952994 0
3.820343 -3.4635174 1.059494 0
-3.5443435 -3.4632423 1.7773442 0
-3.9554815 -3.461303 0.31699574 0
3.9442506 -3.4745605 0.33944225 0
3.8897145 -3.4680834 0.77464819 0
-3.9571662 -3.4620454 -0.33918691 0
3.9547548 -3.4753585 -0.22677809 0
3.9504724 -3.4704676 -0.34775639 0
3.9554796 -3.4761863 0.24972463 0
3.8693571 -3.4819572 0.85574806 0
3.9422164 -3.4704711 0.51187789 0
-1.7492073 4.8814406 -0.9833777 0
-3.7883081 -3.4602425 1.2402155 0
-3.6094084 -3.4686575 1.6751969 0
3.8891263 -3.4723535 0.83230734 0
-3.9531484 -3.4602749 0.53435969 0
3.9536133 -3.4740548 -0.47326303 0
-3.7456837 -3.4632723 1.3818812 0
3.9604077 -3.4818141 0.36695862 0
3.7702041 -3.4755991 1.2933984 0
-3.9589477 -3.4628305 -0.56126481 0
3.9397964 -3.4656055 0.68415928 0
-3.7766905 3.5736756 -0.98533642 0
3.9601455 -3.4815145 0.48443437 0
3.8645654 -3.4719679 1.0278838 0
3.8875976 -3.4705567 0.94982457 0
3.8974292 -3.4742489 0.90396893 0
3.8261471 -3.470542 1.1805696 0
3.9550214 -3.4756627 0.60163879 0
3.7070656 -3.4632862 1.5408914 0
-3.3395028 -3.4688733 2.2303772 0
3.9505439 -3.4705493 0.71881461 0
-3.6043406 -3.4630938 1.7863839 0
-3.4854655 -3.4659736 2.005785 0
-3.7307973 3.6485763 -0.98333454 0
4.01717 -3.472852 0.0086880922 0
-3.9562163 -3.461627 0.75212002 0
3.8878696 -3.4666092 1.0332341 0
4.0138807 -3.4692025 -0.23351663 0
-3.9536242 -3.4604845 -0.7844404 0
4.0115089 -3.4665711 -0.35644293 0
-1.6986628 4.9380684 -0.98587108 0
3.6373949 -3.4761999 1.715713 0
4.0202436 -3.476263 -0.11294657 0
-3.7961354 -3.4683557 1.3539271 0
4.0214944 -3.4776504 0.12799811 0
3.8880057 -3.4710369 1.0690644 0
3.7909555 -3.4800098 1.3743355 0
3.9446139 -3.475291 0.85811412 0
4.0203891 -3.476424 0.3663336 0
4.0254402 -3.4820285 0.24706054 0
-3.9910288 -3.465656 0.67314279 0
4.0287871 -3.4842026 0.16426408 0
4.0071993 -3.4617891 0.60291135 0
3.9542885 -3.4748256 0.83776498 0
3.6696737 -3.4905171 1.6629519 0
3.8639207 -3.4706247 1.2022436 0
-3.5365372 -3.4595318 1.9921231 0
4.0272284 -3.481178 0.3386848 0
-3.6419554 -3.4676507 1.7796469 0
-3.9841032 -3.4588773 0.78883493 0
4.0190144 -3.4748988 0.48503053 0
4.0211892 -3.4694607 0.51248491 0
3.8314924 -3.4770107 1.3040619 0
4.0211248 -3.4772398 -0.4859156 0
-3.7396007 -3.4604871 1.5978911 0
3.947896 -3.4675257 0.95570135 0
-3.7938519 -3.4659889 1.4669576 0
-3.9554615 -3.4612942 0.97054791 0
3.8949273 -3.4722493 1.1630614 0
4.0173087 -3.4619315 0.68582273 0
-1.6466458 4.9933782 -0.98812842 0
3.8930902 -3.4770131 1.1916442 0
3.6568882 -3.4796844 1.7887993 0
3.9446025 -3.4752681 1.0325615 0
4.0170555 -3.4727252 0.72282171 0
4.0815911 -3.4708285 -0.11886799 0
-3.9888768 -3.4635496 0.90395141 0
4.0793853 -3.4684503 -0.24200088 0
4.0746765 -3.4633737 0.36586225 0
4.0830956 -3.4724507 0.12469697 0
4.0849361 -3.4744346 0.0029299259 0
-3.7865114 -3.4583802 1.5794272 0
-3.7185621 3.7404134 -0.99032068 0
-3.9821854 -3.4570003 1.0190051 0
3.8912041 -3.4692738 1.2926261 0
3.8861141 -3.4688132 1.3117821 0
3.7898502 -3.4776185 1.5517995 0
4.0835843 -3.4729774 -0.36876309 0
-1.5860274 5.0385323 -0.98710907 0
4.0894661 -3.4793189 0.24490118 0
-3.6633234 3.8104994 -0.98646998 0
3.9581623 -3.4792495 1.0791833 0
3.7185917 -3.4891913 1.7276058 0
3.9398241 -3.4656618 1.2068143 0
4.0226803 -3.478966 0.84372234 0
-1.5190897 5.0755448 -0.98361802 0
4.1048241 -3.4750421 0.33815062 0
4.0254374 -3.4777029 0.86149693 0
4.0882692 -3.4780281 0.48588657 0
4.1101046 -3.4849379 0.1622504 0
4.0817227 -3.4709702 0.60590196 0
4.1013155 -3.4684675 0.51311922 0
-3.9622087 -3.4642675 1.1912634 0
4.0173922 -3.4730985 0.96367168 0
3.8750291 -3.4937818 1.3837202 0
3.6561911 -3.4790936 1.9178152 0
4.0959463 -3.4863048 -0.50123686 0
3.8926203 -3.4704056 1.4230056 0
-3.9919887 -3.4665952 1.1348233 0
3.9603095 -3.4817016 1.2026038 0
-3.9758615 -3.4508114 1.2489939 0
4.1466742 -3.4677434 0.24328828 0
-3.6285629 3.8912737 -0.98824215 0
-3.7416329 -3.4614177 1.8184438 0
-3.7962532 -3.468478 1.696187 0
4.0882654 -3.478024 0.72736788 0
3.9472294 -3.4667645 1.3220663 0
-3.4915891 -3.4711454 2.2617188 0
4.1551714 -3.4766455 -0.12752539 0
4.147121 -3.4682114 -0.37801403 0
-3.6390157 -3.4652388 2.0329237 0
4.0181565 -3.4739468 1.086158 0
4.1578245 -3.4794247 -0.003649354 0
3.7872601 -3.4720151 1.7310143 0
-3.5714293 3.9596517 -0.98439825 0
3.8642726 -3.4713581 1.5578122 0
-1.4647214 5.1283412 -0.98582256 0
4.1364775 -3.4570613 0.60733759 0
4.0280781 -3.4828269 1.0380199 0
4.1518898 -3.4732072 0.36481369 0
4.1066236 -3.4784138 0.68876195 0
-4.1797814 -3.4595344 0.088567972 0
4.1604433 -3.482168 0.11944044 0
4.0842152 -3.4736574 0.8483398 0
4.1652994 -3.4761436 0.22852337 0
4.1606169 -3.4823501 -0.25478923 0
4.1502805 -3.4715216 0.48654556 0
-4.1793094 -3.4593344 0.31342292 0
-4.1764627 -3.4581282 -0.36371368 0
4.1739073 -3.4826269 0.090295076 0
4.183629 -3.4692528 0.16113448 0
-4.1902294 -3.4639611 -0.13809532 0
4.1574831 -3.4702568 0.50056171 0
4.1533213 -3.4747069 -0.50950903 0
4.1819835 -3.4662731 0.33764255 0
3.9471798 -3.480449 1.3875477 0
4.019021 -3.4652541 1.2124233 0
-3.9567409 -3.4618578 1.4122827 0
4.0169559 -3.4726148 1.2097211 0
-3.7922354 -3.464313 1.8107655 0
4.105587 -3.4764717 0.86465859 0
-3.5273342 4.0351305 -0.98427081 0
4.0845699 -3.4740403 0.97096169 0
4.1786251 -3.4861808 0.36293817 0
-3.804914 -3.4700139 1.8045697 0
-4.1787186 -3.459084 -0.59298253 0
3.9048774 -3.4802008 1.5556607 0
-1.4107506 5.1820908 -0.98858392 0
4.151669 -3.4729764 0.73084772 0
4.1855631 -3.4727566 0.51388669 0
-4.1905665 -3.4641037 0.53819048 0
-3.9952679 -3.4698043 1.3671284 0
4.2179151 -3.469183 0.24063683 0
4.221797 -3.4731348 -0.0085586905 0
4.170661 -3.4801822 0.63450766 0
4.2207427 -3.4720616 -0.26148278 0
4.1028109 -3.4712698 1.0410254 0
4.2261419 -3.4775586 0.1157316 0
-3.7278228 -3.4550946 2.03807 0
3.9410543 -3.4681346 1.5649245 0
-3.4845476 4.1114025 -0.98478544 0
4.1666555 -3.477165 0.76943088 0
4.0209131 -3.4770057 1.3372309 0
-4.1820288 -3.4604864 0.76295996 0
4.1854672 -3.4725826 0.69046485 0
4.2328587 -3.4843965 -0.13696694 0
-1.3485727 5.2250223 -0.98799622 0
-3.9883251 -3.4630094 1.4827337 0
-4.1890001 -3.4550674 0.78544354 0
4.2275023 -3.4789433 0.36382353 0
3.8684754 -3.4801199 1.7422507 0
3.8980143 -3.4747164 1.6863315 0
-4.2015882 -3.4666991 0.66600537 0
4.2277565 -3.4792023 -0.39278728 0
4.0958633 -3.4862158 1.0981109 0
-4.1822119 -3.4605641 -0.82523489 0
4.1597948 -3.4814892 0.85539961 0
4.2250223 -3.4764187 0.4875145 0
4.2231445 -3.4745069 -0.52248544 0
4.2639046 -3.4641335 -0.019009709 0
4.1488013 -3.4699719 0.97746408 0
4.2202749 -3.4715853 0.6109395 0
4.2658434 -3.4675286 0.15910339 0
4.1684818 -3.4785411 0.90397513 0
4.0285707 -3.4837825 1.3952732 0
4.0909786 -3.4809496 1.2226734 0
4.18817 -3.4774768 0.86818314 0
-3.6318498 -3.4593608 2.2885852 0
4.1573544 -3.4701598 1.0382478 0
4.1056919 -3.4766681 1.2204008 0
-1.2894602 5.2722406 -0.98911035 0
-3.968102 -3.4668646 1.6389155 0
4.2643476 -3.4649093 0.51444054 0
-4.1838369 -3.4612527 0.98888779 0
-4.2003069 -3.4655154 0.90395582 0
-3.4510932 4.1935983 -0.98814058 0
3.8912437 -3.4693055 1.8174694 0
4.2849493 -3.4644094 0.36329556 0
4.2923012 -3.4716828 -0.14218593 0
4.284163 -3.4636314 -0.39943278 0
4.2789707 -3.4905183 -0.20215124 0
4.2963572 -3.4756954 -0.015243411 0
4.2661581 -3.4680803 -0.56322914 0
4.0834808 -3.4728656 1.3477252 0
4.1549525 -3.4764161 1.1045947 0
-3.9961138 -3.4706323 1.6014144 0
4.295331 -3.4746799 0.23756897 0
4.2318115 -3.4833307 0.73637605 0
4.2781525 -3.4890859 0.33647335 0
4.2774954 -3.4879344 -0.38371772 0
4.296154 -3.4754946 -0.27230233 0
4.2209024 -3.4722245 0.85980201 0
4.3012962 -3.4805818 0.11090314 0
-4.1960487 -3.4615803 1.022691 0
4.184514 -3.470856 1.0457673 0
-3.7970028 -3.4637115 2.0610676 0
-1.2258501 5.3130889 -0.98842478 0
-3.3991799 4.2644138 -0.98677862 0
4.0233126 -3.4735801 1.5746255 0
4.2937069 -3.4730732 0.4883194 0
4.2678318 -3.4710114 0.69250667 0
-3.9859829 -3.4607174 1.7172613 0
4.1038456 -3.4732087 1.4002492 0
-4.1778994 -3.4587369 1.2153051 0
4.1719685 -3.4811671 1.1735196 0
4.2966452 -3.4759803 0.61392784 0
-4.1983881 -3.4637423 1.1417038 0
4.1593566 -3.48103 1.233505 0
4.3034697 -3.4827318 -0.53923881 0
-3.957552 -3.4597285 1.8266735 0
4.2746568 -3.4829638 -0.75282156 0
3.9558845 -3.4979489 1.756824 0
4.2290316 -3.4805 0.98750174 0
3.8926156 -3.4704018 1.9511738 0
4.3522391 -3.4706781 0.15668738 0
-3.3516212 4.3379436 -0.98689055 0
4.3533363 -3.4725373 -0.2048263 0
4.355875 -3.4768388 -0.024010897 0
4.1855187 -3.4726756 1.2258773 0
-1.167027 5.3610873 -0.99033463 0
4.3517814 -3.4699023 0.33611774 0
-3.9577432 -3.4622996 1.8640397 0
4.2729177 -3.4799178 0.87199974 0
4.2229652 -3.4743242 1.1134992 0
4.3005695 -3.4798629 0.74040723 0
-4.1945467 -3.4601924 1.2605348 0
4.2685337 -3.4722407 -0.93880177 0
4.1522732 -3.473609 1.3605022 0
4.3701687 -3.4753604 -0.021703124 0
4.1678696 -3.47808 1.3082991 0
4.3708315 -3.4759974 0.10682786 0
4.3689265 -3.4741659 -0.28224909 0
-3.2969227 4.4066153 -0.98529816 0
4.3744307 -3.4794579 -0.15235853 0
-3.989377 -3.4640393 1.8369017 0
4.2978039 -3.4771268 0.86689329 0
4.3611197 -3.4857261 -0.39006513 0
4.1002369 -3.4664462 1.5814161 0
4.022728 -3.4724472 1.7588191 0
4.3738356 -3.4788852 0.36200833 0
4.367712 -3.4729979 0.48924327 0
-4.1689477 -3.4549444 1.4427018 0
-1.104749 5.4040904 -0.99090743 0
4.3611474 -3.4857728 0.5156039 0
4.3675289 -3.472822 -0.54967338 0
4.2235341 -3.4749036 1.2427959 0
4.3849306 -3.4895518 0.23366308 0
4.3639193 -3.4693518 0.61620939 0
-4.1948104 -3.4604361 1.3800316 0
4.1826458 -3.4674723 1.4065773 0
4.3535933 -3.4729726 0.69485211 0
4.2747545 -3.483135 1.0525072 0
4.1657982 -3.4765196 1.4435158 0
4.2979894 -3.4773102 0.99485314 0
-0.95638061 5.4509053 -0.98063469 0
4.3865318 -3.491091 -0.42077905 0
-4.4291959 -3.4616239 0.076453805 0
4.3544483 -3.4744222 -0.76036513 0
-3.250175 4.480689 -0.98621416 0
4.3671112 -3.4958785 -0.57775474 0
-1.0388284 5.441359 -0.98994982 0
-4.4330196 -3.4631796 -0.15768677 0
-4.4275861 -3.460969 0.3094095 0
4.2903323 -3.4697349 1.1221104 0
-4.4261904 -3.4604011 -0.39213949 0
4.3702755 -3.4754627 0.74450457 0
-3.7930288 -3.4605458 2.3223715 0
4.2673502 -3.4701679 1.2318773 0
-4.1916447 -3.4575105 1.4995198 0
4.4338779 -3.4635115 0.36143219 0
4.4387245 -3.47141 -0.21010077 0
4.4398532 -3.4732621 0.15420938 0
4.4442673 -3.4732172 -0.028125882 0
4.1588011 -3.4712496 1.5784798 0
4.4431014 -3.4785907 -0.028067946 0
4.438561 -3.4711425 0.33532 0
-3.9438539 -3.4561789 2.0909922 0
4.3527117 -3.4714787 -0.94994974 0
-4.4298129 -3.461875 0.54203236 0
4.359767 -3.4834335 0.87608075 0
-4.4226513 -3.4589608 -0.62865674 0
4.4538574 -3.4775801 0.058947921 0
4.4511147 -3.4796145 -0.1611914 0
4.4470034 -3.4727199 0.34345365 0
-4.4090137 -3.4531822 0.78166604 0
4.454061 -3.482367 0.1011591 0
4.4519124 -3.4803598 0.2314465 0
4.455658 -3.478857 0.20093656 0
4.4508419 -3.4793599 -0.29450107 0
4.2360992 -3.4876957 1.378839 0
4.4387293 -3.4714181 0.51608562 0
4.2914 -3.4707913 1.2531829 0
4.1039982 -3.4734948 1.7691827 0
4.446969 -3.4757416 -0.42846906 0
-4.4256516 -3.4676943 0.65821183 0
-3.9608936 -3.4623134 2.0906312 0
4.4440136 -3.4729805 0.49020982 0
4.4457588 -3.482949 -0.3965838 0
4.4381294 -3.4704344 -0.58061433 0
4.4475889 -3.4731348 0.48406792 0
-3.2110577 4.5604858 -0.9896208 0
4.3797445 -3.4845665 0.87473404 0
-0.90284681 5.5083065 -0.9865905 0
4.1871471 -3.4756238 1.5928516 0
-4.4254203 -3.4600875 0.77473247 0
4.4431314 -3.4721563 0.61932373 0
4.3562851 -3.4775336 1.0569386 0
-3.1434202 4.6194177 -0.98515832 0
4.4494381 -3.4780483 -0.5665673 0
4.2665157 -3.4687064 1.4147692 0
-4.1976814 -3.4630888 1.6212211 0
-4.4153948 -3.4587479 0.90396023 0
-5.5146637 0.95001924 -0.98512256 0
4.3781376 -3.483021 1.0045729 0
4.1627045 -3.4741898 1.7156904 0
4.3645382 -3.4699471 1.1324658 0
4.2909679 -3.4703639 1.3859267 0
-4.4334683 -3.4633622 -0.87054944 0
4.5165052 -3.4673491 0.098030567 0
4.4483938 -3.4872725 0.6980505 0
-4.1967182 -3.4667101 1.679697 0
-5.5115285 1.0538623 -0.98465765 0
-4.1298227 -3.4600885 1.8533497 0
4.4647503 -3.4853051 0.62331247 0
-0.83918762 5.5490079 -0.98760307 0
4.4523878 -3.4808042 0.75004041 0
4.5217905 -3.472147 -0.035038948 0
4.4466906 -3.4844778 -0.77331054 0
4.4427629 -3.471812 0.87927306 0
4.526659 -3.4719923 0.15187013 0
4.3548856 -3.4751623 1.2395222 0
-4.4263902 -3.4604821 1.0084605 0
-5.5227418 -1.0540229 -0.98683763 0
-4.1940217 -3.4597073 1.7419345 0
4.4620905 -3.4834187 0.76379895 0
4.5286665 -3.4751818 -0.2163102 0
4.5311832 -3.4791811 -0.032170117 0
-3.1004696 4.6967688 -0.98809648 0
4.5256319 -3.4756341 -0.30470455 0
4.4453816 -3.482331 0.8798511 0
-5.5097713 -1.1576978 -0.98474956 0
4.4489918 -3.4741294 0.90398145 0
4.5251799 -3.4752238 0.36012137 0
4.5325689 -3.4819312 -0.17093015 0
4.518919 -3.4695404 0.49113095 0
4.5313349 -3.4808111 0.22836852 0
-4.4285846 -3.4702525 1.0268595 0
4.5301151 -3.477484 0.3343842 0
4.4411373 -3.4753692 -0.96303177 0
-0.77187753 5.5832429 -0.98691535 0
4.5236864 -3.4672701 0.51680505 0
4.1611614 -3.4730275 1.8529091 0
4.5309372 -3.4804504 -0.44346589 0
4.1896758 -3.4802043 1.7817159 0
-5.5250382 1.1581349 -0.98771834 0
4.3751125 -3.4801133 1.268522 0
4.5347209 -3.4848015 -0.40425348 0
-4.422677 -3.4650996 1.1495261 0
4.4402905 -3.4739797 1.0618701 0
4.4496784 -3.4782727 1.01228 0
4.2722626 -3.4787714 1.603107 0
4.5282965 -3.4745944 -0.59053183 0
-3.0437207 4.7636161 -0.98732054 0
-5.5116301 -1.2617233 -0.985834 0
4.3502684 -3.4673383 1.4227128 0
4.5313048 -3.4807839 -0.58320034 0
-5.5174136 1.2619718 -0.98695922 0
4.5302649 -3.47984 0.62295568 0
4.3536229 3.6212561 -0.98478115 0
-4.1942019 -3.4598739 1.8643279 0
4.5271082 -3.472707 0.69957399 0
4.4563265 -3.4793315 1.0440004 0
-4.421917 -3.458662 1.2429729 0
4.4411297 -3.4702859 1.1433172 0
-0.70700383 5.6219983 -0.9878931 0
-3.9523468 -3.4557021 2.3551497 0
-4.4203949 -3.4631093 1.2724307 0
4.5280638 -3.4778419 0.75473523 0
-2.9830041 4.8271074 -0.98563457 0
-4.1868834 -3.4625435 1.9126239 0
-5.508945 -1.3656697 -0.98632455 0
-5.5111637 1.3657969 -0.98675656 0
-0.63417149 5.6453028 -0.98450291 0
-5.4881248 -1.4684099 -0.98357129 0
4.5313835 -3.4794986 -0.78263044 0
4.1558952 -3.4690607 1.9902136 0
4.5210524 -3.4714773 0.88631654 0
4.6052408 -3.4741414 -0.042838275 0
4.450511 -3.4752073 1.1838386 0
-5.4930859 1.4687655 -0.98453808 0
4.3797989 -3.4846184 1.4056339 0
-5.4689994 -1.5709103 -0.98143196 0
4.6155953 -3.4716299 0.14937508 0
4.4410152 -3.4701793 1.277988 0
4.612771 -3.480783 0.090970278 0
4.6107607 -3.4790096 0.2253294 0
4.6126642 -3.4806883 -0.18025279 0
4.4230604 3.5906847 -0.98703825 0
-5.4775209 1.5716439 -0.98309445 0
4.5323443 -3.4810255 0.88376069 0
4.6198611 -3.4781973 -0.036277294 0
4.6076164 -3.4762363 0.35903728 0
4.6025896 -3.4718027 -0.45446235 0
4.607111 -3.4585683 0.51746154 0
4.438879 -3.466958 1.3231497 0
4.6123271 -3.4803913 -0.31787974 0
4.4476414 -3.486038 1.2485566 0
-0.56509686 5.675509 -0.98350668 0
-4.4223466 -3.4648113 1.3961196 0
-4.1289673 -3.4594457 2.1210923 0
-2.9287086 4.8957715 -0.98614156 0
4.3496032 -3.4662116 1.6095638 0
4.6189775 -3.4768364 0.33355808 0
4.6227465 -3.4826386 -0.22330481 0
4.5307112 -3.47843 -0.97636867 0
4.6109753 -3.4791987 0.49244082 0
4.6198697 -3.4782102 -0.41063946 0
4.2761016 -3.4854939 1.794291 0
4.606452 -3.475209 0.62576938 0
4.4871025 3.5507691 -0.98669326 0
4.5355768 -3.4846618 1.0229735 0
4.5304794 -3.4780624 1.0681281 0
-5.476439 1.675786 -0.98476577 0
4.6162915 -3.4838879 -0.60072553 0
4.6140041 -3.4691803 0.70187175 0
4.6208782 -3.4797623 -0.60107327 0
-4.4321918 -3.4628427 1.481688 0
4.4402142 -3.4738543 1.4327927 0
-2.8722968 4.9627028 -0.98630631 0
4.5249033 -3.474973 1.1559134 0
-5.4865732 -1.6768048 -0.98674548 0
-0.50297666 5.7202697 -0.9871217 0
-4.6866302 -3.4597206 -0.17818636 0
-4.6895394 -3.4608562 0.063794136 0
-4.682374 -3.4580593 0.3052969 0
-4.4290571 -3.4706645 1.5212069 0
4.4556255 -3.483829 1.4202361 0
-4.6516342 -3.4576731 0.65048587 0
4.6870356 -3.4723077 0.086553216 0
-5.471427 -1.7797452 -0.98596215 0
-5.4719129 1.7798011 -0.98605716 0
4.454174 -3.4778047 1.4653332 0
4.6218758 -3.4888129 0.76149178 0
4.6079412 -3.4765227 0.89468026 0
4.6147757 -3.4703686 0.88686049 0
4.6904697 -3.4752502 0.22230601 0
4.6226845 -3.4825432 -0.79457831 0
4.6916428 -3.4762552 -0.18923265 0
-4.1857028 -3.462043 2.1511033 0
4.6941547 -3.4784081 -0.051421285 0
-4.6787467 -3.4566436 0.54603493 0
-4.6890717 -3.4606736 -0.42213643 0
-2.8132787 5.0273533 -0.98596072 0
-0.43205643 5.7465997 -0.98555291 0
-4.3158522 -3.4655879 1.8830571 0
-4.651454 -3.4575253 0.77729964 0
4.5599394 3.5248682 -0.99107122 0
4.6938572 -3.4781528 0.35787916 0
-5.4561868 1.8825786 -0.98544753 0
4.7095537 -3.4762862 0.14645946 0
-5.4567633 -1.8826534 -0.98556054 0
4.6975203 -3.4812918 -0.33049244 0
4.6139951 3.4691665 -0.98629975 0
-4.4246759 -3.4668434 1.6453233 0
4.7032681 -3.4669063 -0.4164198 0
4.5364971 -3.4876239 1.2561815 0
4.7123947 -3.4805257 -0.040905952 0
-4.6467829 -3.4536815 0.90396523 0
4.7081184 -3.4741447 0.33274043 0
4.6059961 -3.4748073 1.0302446 0
-4.6844053 -3.4588523 -0.66716278 0
4.7115211 -3.4792221 -0.22895789 0
4.4375582 -3.4694979 1.6206603 0
4.5331879 -3.4824932 1.2955675 0
4.3578491 -3.4801838 1.8040581 0
4.684227 -3.4699013 0.62866306 0
4.6945601 -3.4787552 0.49353683 0
4.6964889 -3.480408 -0.47212654 0
-2.7490864 5.0872049 -0.9842751 0
4.6883001 -3.4733911 -0.61344182 0
4.7044821 -3.4687178 0.51854551 0
-4.6799335 -3.4571068 0.78706539 0
4.6237693 -3.4842136 -0.99110758 0
-0.36441708 5.7800674 -0.98637867 0
-4.4257803 -3.4602342 1.720336 0
4.4552326 -3.4785554 1.6069705 0
-5.4433832 1.9857082 -0.98569906 0
4.6745987 3.4241235 -0.98516881 0
-4.6451454 -3.4523332 1.0304408 0
4.7069073 -3.4723365 -0.60907805 0
4.5245285 -3.4746325 1.432148 0
-4.4175 -3.4605839 1.7693734 0
4.6236167 -3.4839785 1.0749011 0
4.6093817 -3.477793 1.1685162 0
-5.4231 2.0877094 -0.98476923 0
4.761097 -3.4751859 0.023559809 0
-5.4606476 -1.9881961 -0.98908961 0
4.5328832 -3.4818819 1.4436054 0
4.437892 -3.4662585 1.7462704 0
4.6849947 -3.4396369 -0.99017274 0
-0.29359269 5.80621 -0.98535299 0
-5.4262118 -2.0882034 -0.98538172 0
-4.132689 -3.4622405 2.3946457 0
4.7011333 -3.4843874 0.76647091 0
4.7703247 -3.4694495 -0.19805837 0
4.7661819 -3.4785771 0.17105031 0
4.7380447 -3.3833802 -0.98570824 0
-4.6947675 -3.4628968 -0.91769874 0
4.7646265 -3.4775395 0.31876922 0
4.7773266 -3.4752769 -0.058975458 0
-2.7001772 5.1612778 -0.98769855 0
4.7178307 -3.4886372 0.70571971 0
-4.6813955 -3.4576776 1.0290947 0
4.7416968 3.3886645 -0.98742938 0
4.693718 -3.4780335 0.90275049 0
4.6161284 -3.4724505 1.2609515 0
4.7924347 -3.4620841 0.14463091 0
4.7128325 -3.4811785 -0.80577755 0
4.7749333 -3.4732852 -0.34098476 0
4.7073889 -3.4730556 0.89151907 0
-0.22230649 5.8309541 -0.98422289 0
4.7650919 -3.47785 0.46559095 0
4.6077738 -3.4763751 1.3074582 0
4.4388695 -3.4716489 1.8132644 0
4.7864156 -3.4828422 0.079315662 0
4.7843685 -3.4811387 0.21834719 0
4.686162 -3.4715593 1.0394895 0
4.77563 -3.4738653 -0.48511142 0
4.7829533 -3.4799609 0.35667062 0
-5.4183335 2.1922848 -0.98718607 0
-4.6671228 -3.4704194 1.1583805 0
4.803483 -3.4780715 -0.04521209 0
4.8014765 -3.4751685 -0.2347607 0
-5.4228358 -2.1930656 -0.9880743 0
4.8024516 3.3438585 -0.98695219 0
4.8008423 -3.474251 0.33182824 0
4.7733421 -3.4719605 0.63230085 0
4.7554274 -3.4714053 0.75833738 0
-5.3871164 2.2922647 -0.98467326 0
4.7704697 -3.4814365 0.61168671 0
-5.3893113 -2.2926779 -0.98510742 0
4.7996101 -3.4724677 -0.42573321 0
4.78654 -3.4829462 0.4948107 0
-4.431128 -3.4724708 1.8991332 0
4.8069735 -3.3502061 -0.98904049 0
-2.5620108 5.2708607 -0.98252571 0
4.7781181 -3.4759359 -0.63226914 0
-2.6466489 5.2314634 -0.99002004 0
-4.3209467 -3.4693005 2.1580784 0
4.5340552 -3.4837439 1.6351883 0
4.8561201 3.2894614 -0.9835695 0
-4.6608639 -3.4652686 1.2853663 0
4.4458599 -3.471909 1.8905933 0
4.7082882 -3.4743974 1.0796447 0
4.8034754 -3.4780605 0.51965249 0
4.6095295 -3.4779236 1.4497094 0
4.6889181 -3.4739206 1.1796904 0
-4.428299 -3.4612589 1.963985 0
4.7749844 -3.4733274 0.77078295 0
-0.15693879 5.8707309 -0.98771107 0
4.862875 -3.298661 -0.98662758 0
4.8014164 -3.4750817 -0.61985517 0
-0.079889059 5.8800397 -0.98274434 0
-5.3720517 2.3951695 -0.98564041 0
4.6217742 -3.4811423 1.4527931 0
-4.6542263 -3.4598064 1.4123425 0
-5.3779116 -2.3963597 -0.9868027 0
4.7743278 -3.4727812 0.90989637 0
4.7960181 -3.4672697 -0.81392813 0
4.8617158 -3.4708517 -0.066642225 0
-4.6984773 -3.4643447 1.274776 0
4.7524414 -3.4694138 1.0495565 0
4.8064165 -3.4823167 0.70805788 0
4.8617849 -3.4709077 0.2155503 0
4.773592 -3.4835184 0.90398932 0
4.858717 -3.4684274 -0.35297769 0
4.7045341 -3.4687951 1.2681799 0
4.8673458 -3.4754028 0.074254036 0
4.9234676 3.2537186 -0.98667431 0
-4.4933648 -3.4596817 1.910419 0
-2.5097528 5.3423886 -0.98585236 0
4.6911082 -3.4757974 1.3218906 0
4.5254078 -3.4700053 1.8251011 0
-5.3528929 2.497349 -0.98608863 0
4.9281502 -3.2599089 -0.98875415 0
-5.3576102 -2.4983778 -0.98702717 0
4.8609219 -3.4702101 -0.49980086 0
4.8693628 -3.4770336 0.35553694 0
4.861784 -3.4709067 0.49569285 0
-4.6501217 -3.4564292 1.5398548 0
4.8919477 -3.4694798 -0.049042463 0
4.8037834 -3.4785063 0.89665818 0
4.4485636 -3.4738264 2.0352657 0
4.8794365 -3.485177 -0.21299988 0
4.9799261 -3.2034385 -0.98520124 0
4.7520428 -3.4691477 1.19526 0
4.7800083 -3.4775095 1.0514536 0
-0.01523304 5.9228487 -0.98763812 0
-5.3268065 2.5980036 -0.98544717 0
4.9834428 3.2079518 -0.98673427 0
4.8941259 -3.4725382 0.33091748 0
4.6193333 -3.4773843 1.644558 0
4.9001942 -3.481055 0.14057314 0
4.8664846 -3.4747069 0.63616633 0
4.86726 -3.4753335 -0.65063429 0
4.900579 -3.4815958 -0.24239624 0
-5.3374386 -2.6004817 -0.98756933 0
-2.451838 5.4085321 -0.98766637 0
4.8010654 -3.4745739 1.086072 0
-4.4159498 -3.456234 2.2074847 0
-4.6932111 -3.4622893 1.5200598 0
4.6973724 -3.4811652 1.4680431 0
5.0397921 -3.1576316 -0.98552394 0
4.9017639 -3.4832585 -0.43642586 0
0.056112289 5.9475265 -0.98764312 0
4.7822061 -3.4793386 1.1942239 0
4.8691864 -3.476891 0.77735293 0
-5.3063059 2.6999693 -0.98621035 0
-5.30689 -2.7001143 -0.98632729 0
0.13264406 5.9561381 -0.98341405 0
-2.3823066 5.4623308 -0.98585594 0
4.8926368 -3.4704478 0.71014416 0
-4.9094696 -3.4601586 0.64103568 0
4.7144375 -3.4835742 1.4631076 0
4.9058027 -3.4889281 0.52083373 0
-4.3130159 -3.4635212 2.4336958 0
5.0504637 3.1709287 -0.9900924 0
-5.2682447 -2.7974463 -0.98373914 0
4.9018006 -3.4833105 -0.63237274 0
-4.6640654 -3.4679031 1.6711006 0
-4.9634323 -3.4577518 0.050443172 0
-5.27457 2.7991128 -0.9850105 0
4.7666817 -3.4789104 1.3425224 0
-4.909852 -3.4604557 0.77256334 0
-4.9675064 -3.4592752 -0.20112795 0
4.8937449 -3.4720027 -0.82778239 0
4.9579496 -3.4734368 0.2115258 0
4.9607334 -3.4756224 0.067851543 0
4.9616132 -3.4763131 -0.076654017 0
5.1023378 3.1149876 -0.98724627 0
-4.9658861 -3.4586694 0.30067027 0
4.8740988 -3.4808617 0.91999722 0
4.7998691 -3.472842 1.2772052 0
4.8898382 -3.4665196 0.90012431 0
4.9621148 -3.4767067 -0.22240639 0
5.1061721 -3.1196282 -0.98885918 0
4.9528666 -3.4694469 0.49692059 0
0.2027806 5.9841561 -0.98494887 0
4.9613791 -3.4761291 -0.369519 0
4.6204777 -3.4791467 1.8408885 0
4.9625535 -3.477051 0.35426438 0
-4.9594917 -3.4562786 0.55061042 0
-4.9071035 -3.4583228 0.90397108 0
-5.2430859 2.8981655 -0.98414266 0
4.7886295 -3.4846852 1.340416 0
-2.3207335 5.5247769 -0.98704839 0
-4.6552076 -3.460614 1.7991974 0
4.8667202 -3.4748969 1.06181 0
-4.9708014 -3.4605072 -0.45444345 0
-4.6805806 -3.4573593 1.7661383 0
4.708827 -3.4752009 1.6555161 0
5.159543 3.0657594 -0.98698628 0
4.7636795 -3.4769084 1.4891057 0
-5.257791 -2.9022658 -0.98711002 0
-4.5004163 -3.4646676 2.1911149 0
-2.2461476 5.5723987 -0.98397577 0
4.995203 -3.4788888 0.13774705 0
4.9939909 -3.4772384 -0.24868459 0
4.9579515 -3.4734387 -0.66932523 0
5.1657906 -3.0731037 -0.9895699 0
4.9704666 -3.4832633 -0.52146 0
4.7793736 -3.4769809 1.4841065 0
5.0010953 -3.4869144 -0.055874825 0
0.27284062 6.0130806 -0.98701108 0
-4.9612899 -3.4569509 0.8008368 0
-4.9730477 -3.4613471 -0.71001017 0
4.9988756 -3.4838912 0.32968533 0
4.9944081 -3.4778063 -0.44432575 0
-4.9159288 -3.4651706 1.0355585 0
4.9581966 -3.4736311 0.78326631 0
5.2157688 3.0154309 -0.98662114 0
4.800981 -3.4744513 1.4711061 0
4.9937019 -3.4768445 0.52156198 0
-5.2264423 3.0014749 -0.98656487 0
-4.6506653 -3.456876 1.9287953 0
4.975112 -3.4869096 0.64101768 0
5.2187815 -3.0188713 -0.98784637 0
4.9021616 -3.4838169 1.094131 0
4.7586575 -3.4735589 1.6358752 0
-5.2344809 -3.0038409 -0.98819363 0
-4.9070215 -3.4582593 1.1667631 0
4.8815284 -3.4868681 1.2100792 0
-5.1887755 -3.0986638 -0.9850198 0
4.99685 -3.4811318 -0.64285743 0
-2.1854424 5.6360121 -0.98608124 0
5.2696714 2.9625599 -0.98562253 0
-5.1925149 3.099823 -0.98578084 0
4.9947691 -3.4782984 0.71361446 0
0.3438431 6.0394664 -0.98863888 0
5.0504169 -3.4703705 0.20779085 0
5.0541868 -3.4732432 -0.085414469 0
-4.6851177 -3.4586294 1.9408901 0
-4.9760485 -3.4624691 -0.96874452 0
5.2807703 -2.9748752 -0.99006474 0
5.0429125 -3.4646509 -0.5320608 0
-4.9074678 -3.458606 1.2985554 0
4.8977203 -3.4775827 1.2867222 0
5.0549417 -3.4738188 0.35302329 0
4.9942303 -3.4775641 -0.84241867 0
4.7118015 -3.4796398 1.8544755 0
4.8776522 -3.4837346 1.3561673 0
4.9772434 -3.4885828 0.93049383 0
5.0640583 -3.4807668 -0.23557168 0
5.0686722 -3.484283 0.059918165 0
-2.1172462 5.6908684 -0.98581517 0
5.3283 -2.9149182 -0.98680186 0
-4.976234 -3.4625385 1.0533431 0
4.8002739 -3.4734275 1.6670561 0
0.41627097 6.0611167 -0.98923171 0
5.059032 -3.4769361 0.49846637 0
5.3340158 2.9210808 -0.98905408 0
-5.1710401 3.2021279 -0.98782587 0
-5.1717892 -3.2023718 -0.98797905 0
5.0008144 -3.486532 0.90723324 0
0.49327612 6.0643721 -0.98503482 0
5.0512676 -3.4710186 -0.68870676 0
5.0727282 -3.4873745 -0.38797712 0
5.093586 -3.4785974 -0.060127139 0
4.9740243 -3.4860556 1.0762043 0
4.7715015 -3.4821243 1.7861834 0
-4.9074259 -3.4585731 1.4307463 0
-5.1252766 -3.2964761 -0.98519194 0
5.0955563 -3.4726233 0.29307377 0
5.0938425 -3.4789369 -0.2561785 0
5.1021795 -3.4767709 -0.016822278 0
-4.4863353 -3.4547117 2.470047 0
0.56866038 6.0727601 -0.98256624 0
5.3846035 2.8646357 -0.98732805 0
5.0509825 -3.4708014 0.789536 0
5.0951509 -3.4806664 0.32872617 0
4.9617224 -3.4763985 1.2210038 0
-4.7007961 -3.4652498 2.0227673 0
5.0665045 -3.4826312 0.64466906 0
5.092083 -3.4766109 -0.45341879 0
5.1020966 -3.4898479 0.13393879 0
5.089849 -3.4736583 0.5225203 0
4.8822527 -3.4874537 1.5072 0
4.8974943 -3.4772661 1.4823301 0
-4.894248 -3.4483485 1.5615668 0
4.9963379 -3.4804347 1.1005714 0
-2.0552726 5.7535691 -0.98815 0
5.1136818 -3.4839733 0.13659549 0
-4.9651875 -3.4584081 1.3051076 0
5.393486 -2.8739419 -0.99077523 0
-5.1441607 3.3029273 -0.98907089 0
5.4332428 2.8064485 -0.98519325 0
5.1064968 -3.4794743 0.44548237 0
-5.0911155 -3.3945849 -0.98521769 0
-5.0911994 3.3946149 -0.9852351 0
-1.9746439 5.7924776 -0.98379385 0
5.0992365 -3.4749281 0.59899557 0
4.7579155 -3.4730642 1.9329767 0
5.0947404 -3.4801242 -0.65407157 0
0.64081168 6.0950484 -0.98421049 0
5.0915756 -3.4701307 0.75178897 0
5.0574074 -3.475698 0.93731165 0
5.4488959 -2.8223844 -0.99117875 0
5.1514935 -3.4711199 -0.24572855 0
4.8038626 -3.4786208 1.8681285 0
5.1006842 -3.4879806 0.71733844 0
5.1590767 -3.4767296 -0.095970571 0
5.4917154 2.7582891 -0.98711133 0
5.4918423 -2.7584147 -0.98715925 0
-5.057054 3.492758 -0.98555517 0
5.1616211 -3.4786117 0.053713083 0
4.972476 -3.4848406 1.3734498 0
5.0929165 -3.4777129 -0.85606158 0
5.0880256 -3.4712479 0.91072071 0
-4.6794853 -3.4547665 2.2237353 0
4.8928423 -3.4707358 1.678823 0
5.157331 -3.4754381 -0.3997348 0
5.0016556 -3.4876778 1.2976651 0
5.1670165 -3.4826028 0.2025193 0
5.0974865 -3.4738321 0.90399683 0
-4.9065151 -3.4578667 1.6968508 0
5.1649561 -3.4810789 0.35141158 0
5.1540232 -3.4729912 -0.55373043 0
5.0635309 -3.4803646 1.0868664 0
0.7125144 6.1205645 -0.98701441 0
5.1873116 -3.4695771 -0.064495027 0
4.7534809 -3.4701071 2.0822072 0
5.1619415 -3.4788489 0.49992287 0
-1.9167314 5.8609915 -0.98834252 0
-4.6798921 -3.4570906 2.2732682 0
-5.0181179 3.5891044 -0.98516953 0
5.545373 2.7051947 -0.98747134 0
5.1891975 -3.471997 -0.26263303 0
5.5459414 -2.7057407 -0.98768246 0
5.1575747 -3.4756186 0.64826512 0
5.19521 -3.4797127 0.13138819 0
5.1916552 -3.4751508 0.32777667 0
-1.8370397 5.9003863 -0.98478496 0
4.9899483 -3.4717324 1.4919906 0
-4.9757996 -3.4623761 1.5618753 0
5.1898885 -3.4728839 -0.46238476 0
4.97328 -3.4854715 1.5259466 0
5.5913229 2.6448255 -0.98528075 0
5.0915737 -3.4759386 1.1071167 0
5.0622201 -3.4793658 1.2368088 0
5.1904869 -3.4736521 0.52359009 0
5.1645832 -3.480803 -0.71456158 0
0.78487349 6.1442595 -0.98959482 0
5.1100025 -3.4816694 1.0567114 0
-4.9798136 3.6856697 -0.98520291 0
-5.1917715 -3.4659431 0.63037467 0
5.1639109 -3.4803054 0.79793596 0
5.1867504 -3.4688566 0.71929049 0
-4.9131947 -3.4630492 1.8325856 0
5.6411877 2.5883052 -0.98485005 0
0.8608048 6.1486526 -0.98720491 0
5.1945996 -3.4789298 -0.66570866 0
5.6104307 -2.6626763 -0.9922874 0
5.100996 -3.4760299 1.209096 0
-5.1928568 -3.4667361 0.76721895 0
5.1588335 -3.4765494 0.94733322 0
-1.7721152 5.9600897 -0.98731399 0
5.0616055 -3.4788976 1.3888869 0
5.0897417 -3.4735157 1.304204 0
-4.8850656 -3.4576104 1.9729891 0
5.6545892 -2.6004708 -0.98969984 0
5.1841249 -3.4654877 0.91544139 0
5.2584839 -3.4732358 -0.10558248 0
-5.2635384 -3.4562576 0.29580522 0
-5.1901417 -3.464752 0.90397763 0
5.2613859 -3.4753187 0.19874704 0
-4.9493175 3.7855716 -0.98717582 0
5.2647562 -3.4777381 0.046465516 0
5.1932068 -3.4771421 -0.87005806 0
4.9903255 -3.4722459 1.6922956 0
4.9071779 -3.4908578 1.886714 0
0.93484628 6.1636658 -0.98799515 0
5.1551442 -3.4738204 1.0978477 0
-5.2790337 -3.4617999 0.034836531 0
-5.1791115 -3.4566894 1.0403399 0
-4.9606328 -3.4567051 1.8169453 0
5.2601051 -3.4743993 0.35013795 0
5.6984043 2.5383103 -0.98734224 0
1.0115869 6.1601815 -0.98406565 0
-4.909687 -3.4603276 1.967329 0
5.7033696 -2.5426896 -0.98911619 0
5.259387 -3.4738841 0.50124645 0
-1.7001209 6.0099936 -0.98734272 0
5.272418 -3.4832377 -0.26233786 0
5.2658067 -3.4784923 -0.41712564 0
5.1042471 -3.4780655 1.3623281 0
5.0582409 -3.4763331 1.5424562 0
5.2602768 -3.4745228 -0.57376415 0
-4.9048119 3.8796406 -0.9864881 0
-5.2951117 -3.467551 -0.22829491 0
5.0840769 -3.4660275 1.5020356 0
-5.2812295 -3.4625854 -0.49032831 0
5.7454543 2.479233 -0.98647094 0
5.1517019 -3.4712741 1.2497737 0
-5.2788329 -3.4617283 0.55587816 0
-5.2631006 -3.4561012 -0.75287008 0
5.2634487 -3.4767997 0.65278602 0
1.0861228 6.1709728 -0.98429561 0
5.2974901 -3.4787481 -0.27153116 0
5.3010755 -3.483216 -0.071604908 0
-1.6240084 6.0536952 -0.98594213 0
5.3019271 -3.4842775 0.12773132 0
5.7870336 2.4157028 -0.98399901 0
5.261322 -3.4752729 -0.73463821 0
5.1934271 -3.4774249 1.1148777 0
-4.6897855 -3.4618304 2.5158744 0
5.290699 -3.4702861 0.524629 0
5.2997646 -3.4815824 0.32651806 0
-5.189353 -3.464175 1.1774418 0
5.7582984 -2.4902387 -0.99100316 0
5.2985601 -3.4800813 -0.47395551 0
-4.8624201 3.9745896 -0.98653483 0
1.1612754 6.1765876 -0.98341739 0
4.9869928 -3.4677069 1.8942213 0
-5.2771969 -3.461143 0.81646121 0
5.107399 -3.4800391 1.5162282 0
5.2671003 -3.4794209 0.80518675 0
-5.1793795 -3.4568849 1.3136811 0
5.836906 -2.3591967 -0.98472834 0
5.8061171 -2.4315872 -0.99065208 0
5.2932634 -3.4734814 0.72294319 0
5.29953 -3.4812906 -0.67872071 0
5.8442755 2.3651543 -0.98726749 0
5.2648649 -3.4778161 0.95794678 0
-1.5571296 6.1115479 -0.9887321 0
5.0841174 -3.4660814 1.7040944 0
-4.8204741 4.0697818 -0.98696923 0
5.1933126 -3.4772775 1.314667 0
5.1671472 -3.4826994 1.4088991 0
-4.8792338 -3.4537323 2.2618198 0
5.293663 -3.4739792 -0.88387144 0
-1.4739826 6.1438293 -0.98481405 0
5.3702497 -3.4756019 -0.11695564 0
5.3595848 -3.4681754 -0.43085223 0
-4.7630181 4.157423 -0.98433971 0
-5.18367 -3.4600215 1.4514389 0
5.3734446 -3.4778271 0.038696527 0
-5.2758541 -3.4606626 1.0779054 0
5.8906264 2.3055928 -0.98703742 0
-4.9702587 -3.4603045 2.0804739 0
5.8917894 -2.3065059 -0.98743367 0
5.3711662 -3.4762406 -0.27446896 0
5.3740196 -3.4782271 0.19383907 0
5.3691225 -3.4748173 0.34858 0
5.2982731 -3.4797242 0.92261314 0
