# .PCD v0.7 - Point Cloud Data file format
VERSION 0.7
FIELDS x y z intensity
SIZE 4 4 4 4
TYPE F F F F
COUNT 1 1 1 1
WIDTH 1408
HEIGHT 1
VIEWPOINT 0 0 0 1 0 0 0
POINTS 1408
DATA ascii
2.9960687 -3.8941283 0.54028356 0
3.0503633 -3.8873656 0.14442372 0
2.9039068 -3.8921638 0.92663252 0
-4.1942978 -2.4239323 -0.986727 0
2.8872712 -3.8791997 1.0350571 0
2.9653049 -3.8981845 0.68772769 0
2.9583404 -3.8705509 0.86063147 0
2.8155441 -3.8838298 1.2099082 0
3.0008764 -3.888679 0.59321678 0
2.5282595 -3.8821986 1.7374494 0
-3.0067501 -3.8224728 0.91136003 0
3.0511858 -3.8892143 0.25710273 0
2.8978386 -3.8767796 1.0372643 0
3.053879 -3.895267 -0.08487612 0
3.0543244 -3.8962681 0.029750943 0
2.8036976 -3.8812516 1.2609296 0
-3.1535068 -3.8163173 0.12833309 0
3.0508809 -3.8885291 -0.31683576 0
2.9929616 -3.8906174 0.66194582 0
-2.3770761 4.2325397 -0.98589408 0
-3.146935 -3.8124707 0.32679117 0
3.0460858 -3.8777521 0.48163438 0
-2.8752975 -3.811996 1.3257928 0
-2.3644781 -3.8095005 2.1103182 0
2.9538054 -3.8944938 0.81659269 0
2.9467006 -3.8772104 0.92696762 0
3.0514345 -3.8897729 0.36953592 0
-3.045496 -3.8321645 0.79619765 0
-2.580884 -3.8254406 1.8171668 0
-3.0356121 -3.8175719 0.90394163 0
2.8551002 -3.8910654 1.1515853 0
-4.1671915 -2.5073378 -0.98543692 0
2.989202 -3.886369 0.78314948 0
-3.1605916 -3.8204644 -0.27199954 0
-2.7106032 -3.8206236 1.6490517 0
3.0027783 -3.8931234 0.70577264 0
2.6716654 -3.8860166 1.5625625 0
2.7465336 -3.9000385 1.3884041 0
3.0391722 -3.8974283 0.51328278 0
-4.173811 2.5090818 -0.98701727 0
-3.1699085 -3.8259177 -0.072381973 0
3.1000876 -3.8852751 -0.086457849 0
3.0549147 -3.8975947 -0.43875712 0
-2.7302656 -3.821872 1.635505 0
3.0346665 -3.8805716 0.68774784 0
2.5974364 -3.8710296 1.7376015 0
-2.9958925 -3.8159072 1.1057339 0
3.1015565 -3.8884535 0.14248705 0
2.6041644 -3.8784726 1.7154438 0
2.9999166 -3.8864357 0.81787038 0
-3.1526661 -3.8158252 0.52472472 0
3.0975389 -3.879761 0.36936259 0
-2.8424134 -3.8135204 1.4766011 0
-3.0352216 -3.8169951 1.0112598 0
3.046072 -3.8777208 0.70605266 0
2.7954056 -3.8865514 1.3767204 0
3.0967283 -3.8780074 -0.43860519 0
3.10061 -3.8864057 -0.32113153 0
3.1052408 -3.8964248 0.027151108 0
3.1029482 -3.8914645 0.25587487 0
2.8869295 -3.8777564 1.2114978 0
3.0539696 -3.8954706 0.59465599 0
2.9490018 -3.8828087 1.0420668 0
-3.1651592 -3.823138 -0.47512722 0
2.8537192 -3.8874118 1.2671273 0
2.9025707 -3.8887768 1.1550407 0
-3.1424766 -3.8098609 0.72239697 0
3.1074574 -3.9012203 -0.20626992 0
3.1113873 -3.8888967 0.33792639 0
-4.150075 2.5933816 -0.98682165 0
3.0998476 -3.8847561 0.48213327 0
-4.1514511 -2.5937655 -0.98715162 0
2.9949079 -3.8928168 0.90395844 0
-3.1520228 -3.8154488 -0.67689848 0
-2.8827791 -3.8237555 1.4337485 0
-4.1111865 -2.6732149 -0.98326838 0
3.109848 -3.8834512 0.51337469 0
-3.1916704 -3.8079555 0.57577693 0
2.9640875 -3.8933527 1.0389848 0
3.0479937 -3.8820403 0.81973696 0
3.151752 -3.8859746 0.14081216 0
-2.349369 4.3073316 -0.99271953 0
3.1004133 -3.8859804 0.59520841 0
3.0039883 -3.895951 0.93321466 0
3.153873 -3.8903964 0.025276661 0
-2.7296257 -3.8207998 1.7420807 0
-2.6153073 -3.8171661 1.9169741 0
2.8190775 -3.8997605 1.3913062 0
3.0370221 -3.8893836 0.86395633 0
-3.0392914 -3.8230045 1.1190326 0
-2.751462 -3.8269608 1.7006779 0
2.7442913 -3.8891971 1.5665612 0
2.9489558 -3.8826966 1.1577394 0
2.7945778 -3.8855603 1.4957275 0
3.1570389 -3.8969963 -0.091980517 0
2.9945142 -3.8923719 1.0249538 0
-2.2881899 4.3548293 -0.98826206 0
2.9036341 -3.8914723 1.2729607 0
-2.6974993 -3.8121779 1.8413634 0
-3.1461248 -3.8119962 -0.8822937 0
2.6056678 -3.8803818 1.8343818 0
3.1809812 -3.8704312 0.33789706 0
-3.1954598 -3.8132186 0.68506169 0
3.158205 -3.8994274 -0.21015728 0
-2.9951844 -3.8154788 1.3027701 0
3.1545119 -3.8917284 0.36874998 0
-3.0323648 -3.812777 1.226006 0
3.1559582 -3.8947437 -0.32831722 0
2.9592805 -3.8742807 1.2136841 0
3.1526713 -3.8878913 -0.4473877 0
-2.4870629 -3.8120053 2.1324625 0
2.6713514 -3.8843811 1.744714 0
3.102715 -3.8909602 0.70915449 0
3.0030246 -3.8936992 1.0480809 0
-3.1463079 -3.8121037 0.92138934 0
3.0499821 -3.8865092 0.93475771 0
-2.8817873 -3.822196 1.5407248 0
-4.0886912 2.7576871 -0.98393726 0
3.1528573 -3.888279 0.48258317 0
-4.1392546 2.6814764 -0.99002326 0
-2.2279286 4.4025145 -0.98431432 0
3.1632071 -3.9098549 0.25365734 0
-3.1943121 -3.8116241 0.79460788 0
3.1140897 -3.8984559 0.68975532 0
3.2047181 -3.887814 0.022821188 0
2.9915032 -3.8889694 1.145869 0
-4.0981092 -2.7606063 -0.98621356 0
3.1011052 -3.8874774 0.82303858 0
2.8899069 -3.8903272 1.3925962 0
3.2068665 -3.8921335 -0.094752669 0
3.0377421 -3.8920777 1.0411062 0
3.2067945 -3.8919885 -0.21300393 0
3.1561027 -3.8950443 0.59688163 0
2.9525537 -3.891449 1.2778518 0
2.7935376 -3.8843143 1.6152773 0
3.2018566 -3.8955407 0.27975368 0
3.0020504 -3.8914218 1.1643386 0
-3.0323887 -3.8128123 1.33391 0
3.2076147 -3.8936374 0.25339949 0
3.0508122 -3.8883746 1.0508478 0
3.2023172 -3.8829877 -0.45204628 0
-2.8524241 -3.8197718 1.6765945 0
2.7408645 -3.8726285 1.7452676 0
3.1115632 -3.8895185 0.86569691 0
3.1871114 -3.8909867 0.51387715 0
-3.3170772 -3.8156188 -0.083090782 0
3.1531334 -3.8888545 0.71086717 0
2.8178 -3.8939998 1.5712018 0
3.2086315 -3.8956821 -0.33384985 0
3.2128482 -3.9041591 0.13703632 0
3.2014956 -3.8951557 0.40545952 0
-3.3103728 -3.8118224 0.32432437 0
-4.0703011 -2.8436022 -0.98589885 0
3.2098689 -3.8981695 0.36822474 0
3.1025805 -3.8906691 0.9387989 0
-4.0747514 2.8450515 -0.98697937 0
-2.8846726 -3.8267312 1.6495049 0
3.2077811 -3.8939719 0.48309326 0
3.1505747 -3.8835201 0.82518685 0
3.2551699 -3.8831985 0.13699973 0
-3.147274 -3.812669 1.1215048 0
3.2533677 -3.8797019 0.25296783 0
-3.3221912 -3.8185148 -0.28907591 0
-3.2033544 -3.8241835 0.90394449 0
3.2018681 -3.8955529 0.53052068 0
-2.8688359 -3.8132274 1.7145004 0
-3.3307548 -3.8233643 0.12009847 0
2.999269 -3.884922 1.281081 0
-3.3074164 -3.8101482 0.52701616 0
3.1862726 -3.8881738 0.69029295 0
-3.3117237 -3.8125873 -0.49441111 0
-2.1908746 4.4704208 -0.98890412 0
-2.9946866 -3.8151779 1.5019879 0
3.2597768 -3.8921373 -0.098539114 0
2.9990418 -3.8974881 1.2679489 0
2.9615431 -3.8832581 1.394568 0
3.2611604 -3.8854797 0.3372364 0
3.2095983 -3.8976254 0.59823382 0
3.2634764 -3.8993156 0.018301964 0
-2.8744774 -3.8107061 1.7547808 0
-3.2005391 -3.8202732 1.0135288 0
3.0538802 -3.8952699 1.169939 0
3.2028296 -3.8965786 0.65516067 0
3.2550178 -3.8829038 -0.45840567 0
-2.7452455 -3.8203542 1.9379144 0
3.1118488 -3.8905294 1.0433357 0
-3.1897087 -3.8052304 1.1223683 0
2.811908 -3.8674362 1.7478962 0
3.2613535 -3.8951964 -0.33924866 0
2.7950115 -3.8860793 1.7361813 0
3.104919 -3.8957286 1.0564938 0
3.2651794 -3.9026196 -0.21997458 0
3.0398927 -3.9001234 1.2208548 0
-3.3070974 -3.8099675 -0.70249033 0
2.8899944 -3.8906963 1.5741839 0
3.1846385 -3.882694 0.86690688 0
-4.0510669 2.9295049 -0.98796332 0
3.154774 -3.8922746 0.9425509 0
3.2635138 -3.8993878 0.36778283 0
-3.0425363 -3.827795 1.4443972 0
-2.1369677 4.5234947 -0.9877677 0
3.2107005 -3.8998413 0.71394157 0
3.2624984 -3.8897431 0.51424158 0
-4.0581355 -2.9319196 -0.9896878 0
3.2033567 -3.897141 0.77961099 0
3.3047366 -3.8757687 -0.33992875 0
-2.6153893 -3.8172557 2.1565282 0
2.9955962 -3.8935945 1.3894093 0
3.1000743 -3.885247 1.1722367 0
3.3114958 -3.8884344 -0.10182458 0
3.2641566 -3.9006352 0.48364162 0
3.3105083 -3.886584 0.25125742 0
3.2596097 -3.8918133 0.59914613 0
3.107157 -3.8739331 1.2196798 0
3.0540004 -3.8955398 1.2895544 0
3.2597623 -3.8810256 0.69106185 0
3.1972475 -3.890624 0.90396225 0
-3.3251295 -3.8201787 0.73096263 0
3.3141894 -3.8934824 -0.22282672 0
-4.0194201 -3.0112586 -0.98729587 0
3.317004 -3.8987563 0.01530993 0
-3.1504674 -3.8145382 1.3238308 0
3.2117724 -3.9019961 0.83052349 0
2.9589329 -3.8729022 1.5739722 0
-3.0377316 -3.8207011 1.5525835 0
-3.3049927 -3.8087757 -0.91370893 0
3.1570177 -3.8969522 1.0610237 0
3.2598381 -3.8922563 0.71529174 0
3.3148093 -3.8946443 0.36744022 0
-2.8563647 -3.822232 1.8787522 0
3.0970922 -3.8787949 1.2902374 0
-3.3730021 -3.8235216 0.56734836 0
2.9892943 -3.8864732 1.5106525 0
-2.0153861 4.6158142 -0.98113739 0
-3.3660679 -3.8144512 0.68028224 0
3.3228834 -3.9097736 0.13218892 0
-3.309339 -3.8112369 0.93371272 0
-4.0357299 3.0170922 -0.99129474 0
2.79616 -3.8874547 1.858026 0
-3.9825783 -3.0910008 -0.98563182 0
-2.9911752 -3.8130543 1.7030749 0
3.3624279 -3.8820589 -0.10478592 0
-3.9831514 3.0912151 -0.98577309 0
3.0394721 -3.8985493 1.401252 0
3.187912 -3.8936708 1.0463111 0
-3.0286732 -3.8073263 1.659833 0
3.3173113 -3.899332 0.48405242 0
-3.3623524 -3.8095906 0.79231751 0
2.8869252 -3.8777397 1.7550802 0
-3.2068939 -3.8290992 1.2339351 0
3.2031937 -3.8847494 1.0628321 0
3.3132198 -3.8916652 0.60044432 0
3.2022183 -3.8959267 1.0282755 0
3.214108 -3.9066913 0.94872785 0
3.1552501 -3.8932669 1.1793389 0
3.3208308 -3.9059279 -0.47206032 0
3.366307 -3.8890839 -0.2269088 0
-2.1021676 4.5945306 -0.99394798 0
3.2621493 -3.8967409 0.83274233 0
-2.8641696 -3.808408 1.9548774 0
3.3095169 -3.8847265 0.71672714 0
3.3444605 -3.9064872 0.33644199 0
3.3684344 -3.8929369 0.24951637 0
-3.003408 -3.8138421 1.7329164 0
3.3719213 -3.8992515 0.012039304 0
3.2645001 -3.8961198 0.87007475 0
3.0301843 -3.8638041 1.5760736 0
3.367595 -3.8914163 -0.35002762 0
-3.1991858 -3.8183935 1.3432584 0
3.363137 -3.883343 0.4841888 0
3.3741045 -3.9032054 0.13055587 0
3.3690939 -3.8941307 0.36699605 0
-3.4824347 -3.8112652 0.11346173 0
-3.3645163 -3.812422 0.903947 0
-3.9535551 -3.1735923 -0.98617828 0
3.3434253 -3.9033477 0.51490021 0
-3.9540687 3.1737928 -0.98630559 0
3.1516433 -3.8857479 1.2981505 0
3.3092711 -3.8842659 0.83407331 0
-3.482532 -3.8113184 -0.30584675 0
3.2015014 -3.8951619 1.1526744 0
3.2641263 -3.9005764 0.95144272 0
2.9936149 -3.8913558 1.6343675 0
3.3400254 -3.8930342 0.69294941 0
-3.4946404 -3.8179481 -0.096762598 0
-3.3122754 -3.8128996 1.1390767 0
3.3725629 -3.900413 -0.47737521 0
3.4201322 -3.8864436 0.12986279 0
3.187746 -3.8931148 1.2261577 0
-3.1527643 -3.8158827 1.5284653 0
-3.4899168 -3.815362 0.32155621 0
-3.3618708 -3.8089612 1.015558 0
3.3675723 -3.8913753 0.60178995 0
-2.7426786 -3.8176262 2.179796 0
3.2074246 -3.8932555 1.1846242 0
-3.1956325 -3.8134582 1.4532743 0
3.4203069 -3.88675 0.24846804 0
-3.4766445 -3.808095 0.52957952 0
3.4236441 -3.8925941 -0.11098838 0
3.1145535 -3.9000957 1.4054117 0
-1.9825919 4.6893625 -0.98875117 0
3.4250064 -3.8949797 0.0093051195 0
-3.4810948 -3.8105316 -0.51769018 0
3.4160614 -3.8896115 0.33632123 0
3.4234219 -3.892205 -0.23287386 0
-3.9198189 3.2543588 -0.98584712 0
-3.0356879 -3.8176837 1.772552 0
3.4184065 -3.8962479 0.26212001 0
3.2645123 -3.8961589 1.0493555 0
3.4206748 -3.887394 -0.35521829 0
3.4162815 -3.8941076 0.39160872 0
3.4233794 -3.8921309 0.36656249 0
3.3378122 -3.8863213 0.87122321 0
3.2638705 -3.90008 1.0708191 0
3.1986456 -3.8921154 1.277076 0
-3.9276867 -3.25756 -0.98780823 0
3.3685031 -3.8930607 0.71983016 0
3.3132315 -3.8916872 0.95380843 0
-1.9187348 4.7320223 -0.98491549 0
2.96503 -3.8970931 1.7650871 0
3.4157016 -3.8935235 0.52024245 0
-3.4756155 -3.8075316 0.73753071 0
-3.364295 -3.8121321 1.1274765 0
3.4251285 -3.8951941 -0.48305249 0
3.2578967 -3.8884892 1.1889064 0
3.4267464 -3.8980274 0.48495591 0
-3.1948414 -3.8123593 1.564271 0
3.1849074 -3.8835971 1.4061463 0
3.4140363 -3.8837516 0.69372928 0
-3.8886657 3.3361945 -0.98645067 0
3.1906886 -3.8836277 1.4009922 0
2.9961181 -3.8941841 1.7587483 0
-3.4869595 -3.8137426 -0.73339319 0
3.3704066 -3.8965085 0.83897591 0
3.4770179 -3.8876159 -0.23733306 0
3.109704 -3.8829434 1.585202 0
3.2618225 -3.8875892 1.2287543 0
3.2121568 -3.9027691 1.3093662 0
3.4800646 -3.8927786 0.0061446428 0
3.4229047 -3.9094117 0.5154444 0
3.4796262 -3.8920355 0.12682629 0
3.4255595 -3.8959489 0.60348701 0
-3.0044546 -3.8210847 1.9123993 0
-3.8944016 -3.3386245 -0.98788881 0
3.4797859 -3.8923066 0.24665105 0
3.4824624 -3.8968413 -0.11624748 0
3.4212139 -3.8990753 0.64801741 0
3.3375795 -3.8856151 1.0508711 0
3.4780784 -3.8894126 -0.36227518 0
3.3178873 -3.9004118 1.0757532 0
-3.5413313 -3.8118978 0.56070566 0
-3.3644581 -3.812345 1.2395635 0
-3.3185205 -3.8164363 1.3470483 0
3.4133081 -3.8911126 0.77632225 0
3.4236763 -3.8926506 0.72216249 0
3.035326 -3.8830392 1.7661762 0
-3.1469078 -3.8124545 1.7339029 0
-1.8724184 4.7927485 -0.98811674 0
3.308898 -3.8835669 1.1933694 0
-3.4776964 -3.8086708 -0.94853294 0
-3.5396814 -3.8098633 0.67544913 0
-3.1430373 -3.8155739 1.7524481 0
3.4961753 -3.8956439 0.33575571 0
-3.8568668 -3.4178469 -0.98718965 0
3.3739333 -3.902895 0.95995569 0
3.4821501 -3.8963122 -0.49098283 0
3.4223866 -3.8903918 0.84144616 0
-3.8600974 3.4192705 -0.98800468 0
-3.484921 -3.8126266 0.94719315 0
3.4167807 -3.8916924 0.8738786 0
3.5335231 -3.8865185 0.12481463 0
3.4856899 -3.9023106 0.48553717 0
-3.1988497 -3.8179271 1.6772842 0
3.4143937 -3.892206 0.90396667 0
2.9923127 -3.889884 1.882468 0
3.4916275 -3.9123716 0.36565876 0
-3.0139046 -3.8243763 1.9817324 0
3.4805613 -3.8936203 0.60482872 0
-2.8707471 -3.8152006 2.2030203 0
-3.3628292 -3.8102143 1.3517532 0
3.2593455 -3.879698 1.409656 0
3.2672663 -3.9066689 1.3169694 0
3.4965625 -3.8967144 0.5156641 0
-1.8146598 4.8414893 -0.98716736 0
3.3707314 -3.8970964 1.0800879 0
3.5406647 -3.8982334 0.0017427206 0
-3.8158288 -3.4953895 -0.98588336 0
3.5386682 -3.8949583 0.24494457 0
3.2027647 -3.8965094 1.5283306 0
-3.5468431 -3.8186939 0.78949714 0
3.4088836 -3.8866563 1.0314646 0
3.5412431 -3.8991818 -0.2456829 0
3.4239137 -3.8930664 0.96247435 0
3.3393235 -3.8909061 1.2330143 0
3.1869993 -3.8906114 1.5918796 0
-3.3048835 -3.8087139 1.5533957 0
3.3123293 -3.8899968 1.3186216 0
3.4827111 -3.8972631 0.72510457 0
3.5461974 -3.9073091 -0.12286198 0
3.5403039 -3.8976417 0.36544228 0
3.5348034 -3.8886182 -0.4964723 0
3.5371327 -3.8924396 0.48585129 0
-3.8297997 3.5017865 -0.98943079 0
-3.5426216 -3.813488 0.90395021 0
3.4979503 -3.9005511 0.69602561 0
-3.662611 -3.8101225 0.10517526 0
-3.6627793 -3.8102117 -0.10939515 0
3.5447879 -3.9049971 -0.37328309 0
3.1120906 -3.8913844 1.7737865 0
3.4802136 -3.8930311 0.84529126 0
-3.6593342 -3.8083887 0.3190099 0
-3.7763057 3.5734928 -0.98523808 0
-3.4839826 -3.8121128 1.1574497 0
-3.3664117 -3.8149011 1.4653101 0
-3.200623 -3.8203897 1.7907655 0
3.3731587 -3.9014921 1.2040849 0
3.5743675 -3.8939273 0.33531034 0
3.4923902 -3.8851802 0.87554705 0
3.4212599 -3.9046524 1.0563726 0
-3.7826037 -3.5764863 -0.98684812 0
-1.7638679 4.897943 -0.98929238 0
-3.6664009 -3.8121276 -0.32577372 0
3.1968951 -3.8902483 1.6534996 0
3.5964751 -3.8941333 -0.12528151 0
3.5975375 -3.8958209 -0.0016829371 0
3.427897 -3.9000423 1.0860281 0
-3.6568971 -3.8070996 0.53234184 0
-3.545229 -3.8167038 1.0183442 0
-3.6585479 -3.8079729 -0.54224724 0
3.5450482 -3.9054239 0.60709774 0
3.5888486 -3.8820167 -0.50259477 0
3.4178619 -3.8956995 1.1596954 0
3.6014185 -3.9019871 0.12053597 0
3.5748363 -3.8951671 0.51611269 0
3.4197173 -3.8857172 1.2061725 0
3.6010222 -3.9013577 -0.2521618 0
-3.5357342 -3.8049958 1.1321595 0
3.4138756 -3.8832867 1.2356482 0
3.6026645 -3.9039669 0.24277687 0
3.5992241 -3.8985007 0.36488783 0
3.5987296 -3.8977151 -0.37841213 0
3.4851608 -3.9014144 0.96848834 0
3.5437593 -3.9033101 0.72830582 0
3.3406012 -3.8947814 1.417285 0
3.2634716 -3.8928435 1.5975389 0
-1.706337 4.94696 -0.9890182 0
-3.1599779 -3.8201048 1.9480786 0
-3.1397367 -3.8123548 2.0004327 0
3.3745055 -3.9039311 1.3298519 0
3.5734649 -3.8915398 0.69695544 0
-3.3675938 -3.8164468 1.5792065 0
-3.6541867 -3.8056657 -0.76127255 0
-3.7499862 3.6580358 -0.98827362 0
3.1860654 -3.8874795 1.7783103 0
-3.2813816 -3.8120983 1.7713659 0
3.6028538 -3.9042675 0.48663092 0
-3.754631 -3.6603255 -0.98946929 0
3.4811189 -3.8945651 1.0903015 0
3.642802 -3.8922966 0.24369824 0
-3.4818144 -3.8109255 1.36922 0
3.5994306 -3.8988287 0.60830486 0
3.6559432 -3.894284 -0.0053874254 0
-3.6667247 -3.812299 0.74646854 0
3.4193501 -3.8971982 1.2880547 0
3.6532223 -3.8900952 -0.2557838 0
3.1994991 -3.8930259 1.7811265 0
3.546216 -3.9073396 0.85096669 0
-3.5378075 -3.8075526 1.2468045 0
3.4981313 -3.9010518 1.059103 0
3.6554785 -3.897579 0.15260065 0
3.6576986 -3.8969862 0.11825192 0
3.6580157 -3.8974748 -0.13097852 0
-3.0089531 -3.8194072 2.2297754 0
-3.7032065 -3.7325687 -0.98633981 0
-1.6470022 4.9938035 -0.98827708 0
3.539356 -3.8960867 0.97218013 0
-3.3608575 -3.8076358 1.6917984 0
3.6492722 -3.8984497 0.3757813 0
3.65959 -3.8998981 0.24134934 0
-3.723074 -3.8073394 0.5528059 0
-3.3155799 -3.8147709 1.7679179 0
3.6559136 -3.8942385 -0.38484836 0
-3.711132 3.7366178 -0.9883945 0
3.5746956 -3.8947957 0.87883389 0
3.6576004 -3.9029586 0.33463991 0
3.4814949 -3.8952022 1.2152271 0
3.4123602 -3.8901579 1.4158075 0
3.4296741 -3.9031544 1.3369086 0
-3.6591048 -3.8082674 0.96043134 0
3.6553273 -3.8971956 0.51665187 0
3.6058366 -3.9090066 0.73158956 0
3.6530969 -3.9020872 0.50796151 0
-3.7250166 -3.8095989 0.66992784 0
3.6580434 -3.8975172 -0.51608247 0
-1.5849156 5.0371671 -0.98663723 0
3.6609783 -3.9020352 0.48714471 0
3.7101769 -3.8849518 0.11660218 0
3.6550813 -3.892957 0.60961676 0
3.4182839 -3.8960416 1.4223475 0
3.6676359 -3.9122849 0.36404181 0
-3.6615653 -3.8095694 -0.98601091 0
3.5998936 -3.8995643 0.85362589 0
3.3405554 -3.8946421 1.6033854 0
3.6478341 -3.8970821 0.64054155 0
3.5396314 -3.8965383 1.0964811 0
-3.5419765 -3.8126931 1.3622878 0
3.6392257 -3.8888953 0.77260399 0
3.4975269 -3.8993804 1.2424688 0
3.6540675 -3.8940022 0.69859767 0
3.7181883 -3.8969066 -0.0098653436 0
3.5948718 -3.8915858 0.97620463 0
3.5730617 -3.8904731 1.0610762 0
-3.7266445 -3.8114924 0.78694594 0
3.1995103 -3.8930378 1.9091978 0
-3.6745205 3.8164234 -0.98939466 0
3.265172 -3.8982608 1.7872758 0
3.7198365 -3.8993664 -0.13662112 0
3.6557064 -3.8939192 0.73282802 0
-3.6112008 3.8817677 -0.98367238 0
3.7326341 -3.8891122 0.15150166 0
3.5350819 -3.889075 1.2203779 0
3.7206416 -3.9005678 0.23955786 0
3.4832916 -3.898247 1.3429847 0
3.7171388 -3.8953404 -0.39284533 0
-3.4828515 -3.8114934 1.5838828 0
-3.7231593 -3.8074384 0.90395331 0
3.720315 -3.9000802 0.36371326 0
-3.537488 -3.807158 1.4769759 0
3.7244034 -3.9061811 -0.26601386 0
3.6539195 -3.8911686 0.85633111 0
-3.8411422 -3.8030374 0.097044945 0
3.6438162 -3.8932612 0.90397131 0
-3.4119892 -3.797683 1.7880049 0
3.4191387 -3.8969853 1.5459392 0
3.736362 -3.8981807 0.3342036 0
3.719491 -3.8988507 0.48766077 0
-3.8451962 -3.8051088 -0.12334937 0
-1.5336637 5.0939741 -0.98991358 0
-3.6597128 -3.8085892 1.1762447 0
3.7199092 -3.8994751 -0.52564996 0
-3.3756075 -3.8269296 1.8114026 0
3.4925857 -3.8857205 1.4252715 0
3.5978584 -3.8963311 1.1024072 0
-3.8445759 -3.8047917 -0.344769 0
3.6577249 -3.9032738 0.8821429 0
-3.7241998 -3.8086488 1.020874 0
3.7772799 -3.8931117 -0.013562322 0
-3.2833796 -3.8139918 2.0246015 0
3.6394432 -3.8891022 1.0353456 0
3.5892887 -3.8827155 1.2257204 0
3.7224641 -3.9032874 0.61201358 0
-3.8543286 -3.8097742 0.31597888 0
3.4192991 -3.8989794 1.6101494 0
3.7392766 -3.9052713 0.51733005 0
-3.319356 -3.8169093 1.9846616 0
3.7789483 -3.8955259 -0.27026683 0
-3.5819755 3.9656239 -0.98719633 0
3.3407555 -3.8952491 1.792711 0
3.7760277 -3.8912997 -0.39972341 0
-3.8468466 -3.8059516 0.53527439 0
-1.474539 5.1411281 -0.99014223 0
3.783329 -3.9018652 0.23765326 0
3.5779774 -3.9034774 1.2474976 0
3.7210095 -3.9011168 0.73650014 0
3.7866788 -3.9067123 0.11126256 0
-3.1494379 -3.8218162 2.25699 0
3.7867146 -3.9067643 -0.14354944 0
-3.7222357 -3.8063638 1.1377809 0
3.7821579 -3.9001703 0.36310458 0
-3.8508062 -3.8079746 -0.56926507 0
3.4180551 -3.8958938 1.6756616 0
3.6356952 -3.8855376 1.1666212 0
3.6554713 -3.8975608 1.0655334 0
-3.5458469 -3.8174658 1.5948253 0
3.5471289 -3.9088373 1.3542171 0
3.6664991 -3.9105349 0.98484492 0
-3.5312529 4.0374241 -0.98531914 0
3.8140321 -3.8889954 0.33382702 0
-1.4089866 5.1797237 -0.98779285 0
3.6579938 -3.8974407 1.1088862 0
3.8195567 -3.9019063 0.14912117 0
3.7438922 -3.9164999 0.70145011 0
3.7877474 -3.9082589 0.48846686 0
-3.842289 -3.8036234 -0.79353058 0
-3.8479252 -3.8065028 0.75475407 0
-3.6624947 -3.810061 1.3943543 0
3.7341642 -3.8928339 0.88379395 0
3.4920254 -3.8841708 1.6125245 0
3.7251692 -3.9073243 0.86280501 0
-3.4817276 -3.810878 1.8009939 0
3.7870555 -3.9072576 -0.53749669 0
-3.4770474 4.1068673 -0.98276198 0
3.4131222 -3.8811066 1.7953236 0
-1.3406634 5.2140865 -0.98437989 0
3.8422332 -3.8960414 0.10923493 0
3.785418 -3.9048882 0.61393917 0
3.8438735 -3.898344 -0.01878494 0
3.8429265 -3.8970151 -0.14739943 0
3.5746045 -3.8945544 1.4324124 0
-3.5412846 -3.8118396 1.7106957 0
3.7199655 -3.899559 0.98805785 0
3.6522956 -3.8895094 1.2496743 0
3.6006253 -3.900727 1.3599186 0
-3.9110889 -3.7998674 0.54448557 0
3.8431292 -3.8972991 -0.27771491 0
3.8409419 -3.8942294 0.36260009 0
3.8454528 -3.9005609 0.23583913 0
3.8189611 -3.9005134 0.51779151 0
-3.7336149 -3.8196008 1.2562337 0
3.8441415 -3.8987205 -0.41015857 0
3.8377881 -3.8898022 -0.54147631 0
3.713841 -3.8904197 1.1137257 0
3.6622138 -3.9039376 1.2389183 0
-3.8442264 -3.8046131 0.97465396 0
3.7328951 -3.8897469 1.0681949 0
3.6501749 -3.8993082 1.2997012 0
-3.7223158 -3.8064575 1.3726377 0
3.7826457 -3.9008765 0.86612105 0
3.818347 -3.8990791 0.70211756 0
3.7933187 -3.916321 0.7411592 0
-3.9178624 -3.8073041 0.66405749 0
3.884887 -3.8918996 0.22294784 0
3.840961 -3.8942556 0.6151551 0
3.8495493 -3.9063106 0.48905873 0
3.4307475 -3.9086776 1.8093786 0
3.6525068 -3.8889937 1.364759 0
3.9018664 -3.8897872 -0.022106767 0
3.8845913 -3.891634 0.36007953 0
3.8355684 -3.8866868 0.74116015 0
-3.4220386 -3.8069379 2.0468822 0
-1.2879665 5.2701116 -0.98841357 0
-3.5412493 -3.8117959 1.8284721 0
-3.2764583 -3.8074324 2.2788548 0
3.9061012 -3.8955553 0.10599458 0
-3.7151909 -3.7981691 1.4894888 0
3.9023404 -3.9021614 0.14737368 0
-3.5684404 -3.8030784 1.8112273 0
-3.6575794 -3.8074603 1.6134186 0
-3.9204135 -3.8101046 0.78398407 0
3.7153516 -3.8926737 1.243504 0
-3.9083815 -3.7968953 0.90395665 0
-3.4563613 4.196888 -0.98957455 0
3.6477115 -3.8969653 1.4319634 0
3.5741 -3.8932192 1.6210568 0
3.7851658 -3.9045234 0.99451792 0
3.9090838 -3.899617 -0.28559351 0
-1.2199833 5.3044677 -0.98563063 0
3.9036994 -3.905216 0.33294153 0
3.9123406 -3.904053 0.23363638 0
3.494391 -3.8907111 1.8050103 0
3.417717 -3.8955534 1.9380865 0
-3.8385506 -3.8017135 1.1953382 0
3.7744365 -3.8889976 1.1201241 0
3.9158459 -3.9088271 -0.15568393 0
3.6565354 -3.9002583 1.4391842 0
3.9117818 -3.9032917 0.36174726 0
3.8228512 -3.9096048 0.88814843 0
3.8417754 -3.8953986 0.86974084 0
3.8991578 -3.904712 0.49520183 0
3.8891943 -3.8957665 0.6323297 0
3.9056644 -3.8949599 -0.55325508 0
3.9028888 -3.903394 0.51842356 0
-3.4838109 -3.8120189 2.0225239 0
-3.4032054 4.2670083 -0.98788428 0
3.8962369 -3.8884437 0.70323944 0
3.913424 -3.9055288 0.48970103 0
3.7390871 -3.9048097 1.2570577 0
3.8838351 -3.890955 0.76839411 0
3.9180207 -3.9117887 -0.42259932 0
3.9077921 -3.8978577 0.61736071 0
-4.0380588 -3.8000448 -0.3657406 0
3.8163509 -3.8944147 1.0726871 0
3.7171326 -3.8953316 1.3757133 0
-4.0481815 -3.8050349 -0.13921887 0
-1.1573381 5.3464026 -0.98562062 0
3.9694133 -3.8925586 -0.027335882 0
3.8414316 -3.8949165 0.99839127 0
-3.9202728 -3.8099506 1.0239255 0
-4.0539589 -3.807883 0.0869627 0
-4.051908 -3.8068721 0.31291914 0
3.9725513 -3.8967068 0.23205936 0
-3.3525724 4.3385758 -0.98715425 0
-4.0394683 -3.8007398 0.53823864 0
3.9766612 -3.9021394 -0.16059083 0
3.9747424 -3.8996034 -0.29321837 0
-3.7319407 -3.8176532 1.6116168 0
3.9728084 -3.8970466 0.36119807 0
3.6583407 -3.907074 1.5667562 0
3.7830477 -3.9014578 1.253974 0
3.9848785 -3.8995736 0.14571047 0
3.9800301 -3.9065926 0.10135508 0
3.8889463 -3.8955438 0.90397644 0
3.9156785 -3.9085991 0.74682105 0
3.8415489 -3.8950815 1.1285856 0
3.6556067 -3.8979046 1.6288452 0
-1.0962663 5.3908243 -0.98668826 0
-3.6571107 -3.8072126 1.8362472 0
-4.0498447 -3.8058548 -0.59729028 0
3.7365732 -3.8986943 1.4447145 0
3.5756502 -3.897321 1.8142245 0
3.9034247 -3.9045985 0.89056659 0
-3.9267359 -3.8170462 1.1444714 0
3.9891672 -3.9088523 0.33226752 0
3.981915 -3.9090848 -0.4309141 0
-3.8500314 -3.8075788 1.420527 0
3.9141235 -3.906481 0.87604952 0
3.976078 -3.9013689 -0.56590712 0
-4.039835 -3.8009202 0.76361203 0
3.9848084 -3.8994219 0.51895106 0
-3.3045087 4.4118176 -0.98742175 0
-3.7240868 -3.8085177 1.729542 0
3.9818034 -3.9089372 0.49046206 0
3.648051 -3.8972883 1.6989107 0
3.7799921 -3.8970363 1.3855674 0
3.9762239 -3.9015615 0.61965954 0
3.9050174 -3.8940785 1.0041859 0
-3.9172592 -3.8066421 1.2640705 0
3.8206363 -3.9044287 1.2619984 0
4.0383191 -3.8950732 0.099048734 0
-4.0429306 -3.8024464 -0.82828581 0
3.9000061 -3.9054737 1.0400653 0
3.9742422 -3.8989415 0.74920547 0
3.9011803 -3.8995545 1.0774317 0
-1.0354605 5.4359217 -0.98823619 0
4.0448565 -3.9034626 -0.034039319 0
4.0434227 -3.9016225 -0.1669656 0
3.846869 -3.9025488 1.2626438 0
-3.5773487 -3.8110497 2.07407 0
3.9868464 -3.9038312 0.70593524 0
4.0442896 -3.9027345 0.22951913 0
4.0424895 -3.900425 -0.30136496 0
-3.4313617 -3.8155239 2.3106654 0
-3.2563558 4.4850593 -0.98796177 0
4.0659833 -3.8918612 0.14426517 0
4.0411434 -3.8986971 -0.43733937 0
3.9791799 -3.8872445 0.89192152 0
3.9738069 -3.8983662 0.87962997 0
3.7340031 -3.8924425 1.6344371 0
-0.96482015 5.4649754 -0.98503089 0
3.8960645 -3.9019349 1.1760545 0
-3.7304959 -3.8087871 1.8355863 0
-3.7243557 -3.8088305 1.8501577 0
3.9104896 -3.9015315 1.137455 0
4.0675249 -3.8950751 0.33190238 0
3.8161445 -3.8939312 1.4498436 0
-4.0474081 -3.8046539 0.99054337 0
-4.1201425 -3.8041973 0.65772188 0
4.0473852 -3.906708 0.49112833 0
3.6559687 -3.8988221 1.8223529 0
-3.9258289 -3.8160503 1.3859065 0
4.0541139 -3.9153426 0.36008048 0
4.0406456 -3.8980587 0.62157011 0
4.0438299 -3.9021451 -0.57712805 0
3.9686046 -3.8914893 1.0098758 0
3.6540143 -3.9029596 1.8349576 0
3.8468266 -3.9024889 1.3970501 0
-4.1180363 -3.8020144 0.78097856 0
-3.8499985 -3.8075619 1.6466131 0
3.8904421 -3.8968871 1.311934 0
3.9061298 -3.8955941 1.2693608 0
4.0399094 -3.8971138 0.75257742 0
3.9029222 -3.9034688 1.267072 0
-3.2105589 4.560122 -0.98947835 0
4.1099691 -3.8989799 0.094892263 0
-3.6561246 -3.8066907 2.0625041 0
4.0731754 -3.9068549 0.51972556 0
4.1120195 -3.9015348 -0.03896904 0
4.110919 -3.9001629 -0.17341548 0
-3.9207401 -3.8104637 1.5064955 0
-3.144125 4.6199474 -0.98536193 0
4.111341 -3.9006889 -0.30970693 0
4.1148176 -3.905021 0.22713232 0
-0.90845728 5.517971 -0.9895848 0
3.8996539 -3.8867741 1.4019339 0
3.9860778 -3.902169 1.0820298 0
-4.0442047 -3.8030744 1.2179818 0
4.1144199 -3.9045255 0.35957563 0
3.9745431 -3.8993397 1.1445541 0
3.883312 -3.8904853 1.4477155 0
-4.1244459 -3.8086581 0.90396106 0
3.6470621 -3.896348 1.9690762 0
4.0436754 -3.9019468 0.88520324 0
4.1124945 -3.9021263 0.49177063 0
4.0745864 -3.909796 0.70817721 0
4.1157126 -3.9061365 -0.44936556 0
-4.1155939 -3.7994831 1.0268614 0
3.8172865 -3.8966005 1.6427598 0
4.1549945 -3.898237 0.14191723 0
4.1101575 -3.8992145 0.62387729 0
-5.5328121 -0.9500193 -0.98865032 0
3.7361526 -3.8976719 1.8300939 0
-4.245914 -3.7966957 0.30994844 0
4.1568909 -3.9033263 0.1981101 0
4.1552792 -3.8988087 0.33117139 0
4.0418644 -3.8996224 1.0179639 0
-3.9230471 -3.8129961 1.6289341 0
-0.84562802 5.5604768 -0.99112761 0
3.981699 -3.8926947 1.2706714 0
3.9744835 -3.8992612 1.2794702 0
4.072607 -3.9056695 0.89686227 0
-5.5280199 -1.0540985 -0.98786366 0
4.1212082 -3.9129846 -0.59226727 0
-5.5282359 1.0541016 -0.9879055 0
-4.2609596 -3.8038468 -0.15592957 0
3.9050112 -3.9081638 1.4592886 0
-4.2642426 -3.805407 0.077099562 0
4.1738806 -3.8913689 0.35909832 0
-5.5120835 -1.157764 -0.98519909 0
4.0332508 -3.8885691 1.1498432 0
-4.2571273 -3.8020253 -0.39005762 0
-3.573514 -3.8076184 2.3374448 0
4.1136351 -3.9035473 0.75702 0
-3.9088497 -3.7974088 1.7483072 0
-0.77265811 5.584681 -0.98735368 0
-4.248003 -3.7976887 0.54149175 0
4.1563387 -3.9009387 0.52026999 0
-3.1092525 4.7035627 -0.99066007 0
4.1586924 -3.9048529 0.48152041 0
4.1671257 -3.9119983 0.33895373 0
4.1835413 -3.90306 0.22493768 0
-3.7283554 -3.806926 2.0995865 0
4.1873875 -3.9077151 0.090022564 0
-5.5243073 1.158114 -0.98757613 0
4.1894817 -3.9102495 -0.045804739 0
4.18397 -3.903579 -0.3190574 0
-4.1260347 -3.8103049 1.1505961 0
-4.0406103 -3.8013027 1.4470596 0
-3.040894 4.761364 -0.98648608 0
4.0674849 -3.8949916 1.0854912 0
4.1910944 -3.9122009 -0.18291265 0
3.8959348 -3.9018185 1.5867455 0
-4.2537932 -3.8004405 -0.62599182 0
-3.8579588 -3.8116286 1.8778594 0
4.1541595 -3.8965585 0.70938444 0
4.1135826 -3.903482 0.89067554 0
-4.1130514 -3.7968471 1.2729404 0
-5.5135207 1.2618046 -0.98620188 0
4.1750956 -3.892839 0.62576723 0
-5.5169497 -1.2619519 -0.98686898 0
3.97436 -3.8990974 1.416544 0
4.1536674 -3.9005954 0.76351833 0
4.1894741 -3.9102397 -0.46085346 0
-4.1000147 -3.7833347 1.3948045 0
4.1888342 -3.9094658 0.49271131 0
4.1823988 -3.9016776 -0.60027146 0
4.1690092 -3.9135938 0.62196612 0
4.3558249 3.6251128 -0.98597109 0
-0.70837474 5.6246128 -0.98868394 0
3.9004226 -3.8978517 1.6507015 0
4.1093392 -3.8981948 1.0244157 0
-5.5054541 1.3654697 -0.98564494 0
-4.2548475 -3.8009417 0.77375507 0
3.8187647 -3.9000547 1.8392453 0
4.3614683 -3.6349957 -0.98902059 0
-5.5123434 -1.3658645 -0.98698628 0
-3.8996353 -3.8157556 1.861434 0
4.1803703 -3.8992224 0.76041341 0
3.9862213 -3.9024789 1.4648025 0
4.2447739 -3.9032691 0.13955629 0
4.2409763 -3.8959014 0.3305409 0
-4.2533898 -3.8002489 -0.86492193 0
-5.4931526 1.4687703 -0.98455107 0
4.251462 -3.8982878 -0.18736708 0
4.1569462 -3.9021604 0.89982533 0
4.2512302 -3.8980157 0.22286105 0
4.0479808 -3.9074719 1.2913074 0
-2.9954724 4.8373356 -0.98935771 0
4.1581821 -3.9044206 0.9039824 0
-3.9181404 -3.8076093 1.8741841 0
4.4205284 -3.5863941 -0.98570323 0
4.2569456 -3.9047339 0.086312532 0
4.1076603 -3.8961027 1.1599638 0
-0.64060569 5.6580091 -0.98831916 0
4.4220953 3.5890486 -0.98652923 0
4.2533503 -3.9005082 -0.32726485 0
4.262434 -3.9111862 -0.051648021 0
-5.5113192 -1.4700726 -0.98809135 0
3.9046872 -3.9096761 1.7265952 0
-4.2516761 -3.7994342 1.0064301 0
4.2590714 -3.9072328 0.35793066 0
4.0753088 -3.9113028 1.2796547 0
4.2484713 -3.8947728 -0.61022854 0
4.2480593 -3.9096434 0.52112877 0
4.1545396 -3.8973219 1.0904403 0
-4.0441298 -3.8030376 1.6799455 0
4.2598672 -3.9081686 -0.47092867 0
4.4838619 3.5454543 -0.98502529 0
-0.57086396 5.687314 -0.98702717 0
4.0452037 -3.903908 1.4291267 0
4.1613483 -3.9071031 1.0446811 0
-4.1154518 -3.7993355 1.5211191 0
-2.9401345 4.9054213 -0.98959434 0
-5.4995842 -1.5735433 -0.98739898 0
4.2618494 -3.9104984 0.49354398 0
-4.3366823 -3.8039517 0.65062654 0
4.1059914 -3.8940232 1.2971797 0
4.193325 -3.9149003 0.8979454 0
-5.5028138 1.5738214 -0.98802912 0
4.4883003 -3.5527341 -0.98730993 0
4.1803722 -3.8992255 1.0316467 0
3.9814296 -3.892112 1.6572199 0
3.8885415 -3.8951805 1.8624115 0
-3.8503408 -3.8077369 2.1088064 0
3.8989587 -3.8945611 1.8464909 0
4.257988 -3.9059594 0.6290853 0
4.2497306 -3.8962529 0.76411319 0
-5.4827037 -1.6764158 -0.98598957 0
4.0668545 -3.8936779 1.4699326 0
-5.4846063 1.6766071 -0.98636127 0
-4.3363514 -3.8036277 0.77737522 0
-2.8741908 4.9643493 -0.98688579 0
-0.50080609 5.7156601 -0.98575652 0
4.1555452 -3.9021862 1.1851778 0
4.252306 -3.9178827 0.71270514 0
4.5479708 3.5058529 -0.9850508 0
-3.7259083 -3.8047988 2.3675699 0
4.3268814 -3.9003255 -0.19541651 0
4.3291049 -3.9028645 0.082311392 0
4.3280773 -3.9016905 0.22008383 0
4.2427435 -3.8993299 0.90299559 0
4.5515833 -3.5115917 -0.98686779 0
4.3265676 -3.8999672 0.35725689 0
-5.4697924 -1.7795572 -0.98564231 0
-4.2529364 -3.8000333 1.2408876 0
4.3348727 -3.9061272 0.1372304 0
-4.3364077 -3.803683 0.90396523 0
4.3372841 -3.912205 -0.057747722 0
4.3248334 -3.8979864 0.49409699 0
4.3338652 -3.9083011 -0.33863765 0
-2.8147259 5.0286484 -0.98640919 0
-0.43228984 5.7471142 -0.98570442 0
-4.12216 -3.8062887 1.6473935 0
4.1883326 -3.9088588 1.1717887 0
4.3364563 -3.9090946 0.3295629 0
4.1124463 -3.9020662 1.4399161 0
-5.4832921 1.7811098 -0.98828375 0
4.1594839 -3.9072626 1.2849319 0
4.6104097 3.4636467 -0.98453617 0
4.1542377 -3.9010787 1.3260376 0
-3.8959322 -3.812628 2.129822 0
4.3322639 -3.9012387 0.52168155 0
4.1741142 -3.8916519 1.3066864 0
-4.4629025 -3.7916634 0.067968965 0
-4.3343596 -3.8016787 1.0304904 0
4.2641029 -3.9131474 0.90336406 0
4.335474 -3.9101377 -0.48267806 0
-5.4598808 1.8830571 -0.98617148 0
3.8903081 -3.8967667 2.0027928 0
-4.046731 -3.799691 1.8814127 0
4.6183782 -3.4759138 -0.98845577 0
-4.0376391 -3.7998378 1.9137142 0
4.3322349 -3.9064388 -0.62726021 0
4.3320346 -3.9062102 0.6316309 0
-5.4691076 -1.8842523 -0.98798001 0
4.6693196 -3.4162462 -0.98262799 0
4.25808 -3.9060676 1.0403848 0
4.2455807 -3.904834 1.096313 0
4.0685444 -3.8972008 1.6668515 0
-2.7584739 5.09585 -0.98722136 0
-0.36595345 5.7835879 -0.9874078 0
-4.3341923 -3.8015151 1.1571424 0
4.3355885 -3.9074686 0.71424913 0
-4.4846258 -3.80161 -0.17358047 0
4.1522799 -3.8994193 1.4671974 0
3.9872718 -3.904752 1.858752 0
-4.4639564 -3.792146 0.54486692 0
-4.4743114 -3.7968872 -0.4139576 0
4.4012566 -3.8990138 -0.20308495 0
4.677907 3.4290612 -0.98676145 0
4.332653 -3.9069161 0.76955974 0
-4.1225042 -3.8066454 1.7734416 0
4.1546021 -3.8974478 1.4780779 0
-5.4511228 -1.9868236 -0.98721898 0
-5.4511914 1.9868333 -0.98723245 0
-4.248569 -3.7979574 1.4764757 0
4.4063768 -3.9046953 0.077701569 0
-4.4897265 -3.8039453 0.30603826 0
4.4029131 -3.9008522 -0.34646934 0
4.1780314 -3.8963921 1.4498343 0
4.4210224 -3.899173 0.1353966 0
4.4121518 -3.9111028 -0.063751936 0
4.4116354 -3.9105299 0.21682906 0
-5.4313006 -2.0890112 -0.9863832 0
4.403019 -3.900969 0.49504232 0
-4.3320312 -3.7993996 1.2838631 0
-0.2964797 5.8130927 -0.98735285 0
-5.4335608 2.08937 -0.98682809 0
4.4106536 -3.9094405 0.35615849 0
-2.6981344 5.1593418 -0.98704875 0
4.3336 -3.9079981 0.90846097 0
4.4234848 -3.9036314 0.32892191 0
4.3367963 -3.9097321 0.90762365 0
4.4335871 -3.902719 0.17318237 0
-4.1124945 -3.7962697 1.8976717 0
-4.4789729 -3.7990215 -0.65821803 0
4.7419033 -3.388963 -0.98752654 0
4.4090662 -3.9076793 -0.49353808 0
4.2689199 -3.9188106 1.1833355 0
4.7443738 3.3925383 -0.98869109 0
4.4039679 -3.9020226 0.63397074 0
4.4220543 -3.9010408 0.52242637 0
4.4380493 -3.9062853 0.31976426 0
4.4060097 -3.9042876 -0.63995838 0
4.4455824 -3.9123056 0.023106456 0
4.2509503 -3.9152529 1.2926056 0
4.4314222 -3.9009893 0.46696842 0
-5.4134202 -2.1914325 -0.98621678 0
-5.4160576 2.19189 -0.98673701 0
4.257515 -3.9054036 1.3214905 0
4.7986069 3.3384616 -0.9851768 0
4.334022 -3.9084799 1.048533 0
-4.3301182 -3.7975276 1.4108889 0
4.4009089 -3.8986282 0.77298379 0
4.4753637 -3.895359 -0.067562699 0
-4.471683 -3.7956839 -0.90300047 0
-4.4877787 -3.8030534 0.78486478 0
4.8032827 -3.3450248 -0.98733592 0
-0.22945762 5.8487105 -0.98935211 0
4.8507957 -3.2822092 -0.98115873 0
-2.6428237 5.2277327 -0.98878634 0
4.3363295 -3.9088576 1.1019263 0
4.1694059 -3.9139299 1.6117773 0
4.4811473 -3.9015942 0.07348752 0
-3.8853064 -3.8036544 2.3998036 0
4.4237318 -3.9040797 0.71629715 0
-4.040278 -3.7943976 2.1527433 0
4.0736504 -3.9078443 1.8693626 0
4.1590228 -3.9063351 1.6779153 0
-5.3978138 -2.2942784 -0.98678911 0
4.4411869 -3.9087925 0.61232305 0
-5.3981528 2.2943423 -0.98685622 0
-4.0394263 -3.8007188 2.1532459 0
4.4846687 -3.905391 -0.21274543 0
-0.15560651 5.8672814 -0.98672009 0
4.332118 -3.9063053 1.1895218 0
4.2532649 -3.9004076 1.4636106 0
-4.4728866 -3.7962348 1.0238509 0
4.4901066 -3.911253 0.21402597 0
4.4855385 -3.9063287 0.35531652 0
-5.3685923 -2.3944669 -0.98495424 0
-4.2575879 -3.8022442 1.7172256 0
4.8650918 3.3016803 -0.9876312 0
-2.5767426 5.2856455 -0.98734426 0
4.4882855 -3.9092901 -0.35887796 0
4.248724 -3.9109333 1.4886818 0
4.4829879 -3.9035785 0.49601793 0
-5.373867 2.3955381 -0.98600054 0
4.5131235 -3.9005883 0.13296843 0
4.4269619 -3.8974247 0.90398824 0
4.1582127 -3.9044464 1.7529762 0
4.4434814 -3.9106266 0.75816655 0
4.5151281 -3.9040983 -0.063334703 0
4.4147558 -3.9139922 0.91562951 0
-4.5627394 -3.8004251 0.6431129 0
-4.3392792 -3.8064935 1.5401552 0
4.3273706 -3.9008837 1.3312383 0
4.4902573 -3.9114156 -0.50682336 0
4.4031544 -3.9011197 1.054934 0
-4.5542727 -3.7926016 0.77388 0
4.5165863 -3.9066517 -0.26098895 0
4.4822454 -3.9027779 -0.65344429 0
4.4300966 -3.9156063 0.9119699 0
4.33778 -3.9115751 1.2984776 0
4.5145245 -3.9030411 -0.45942748 0
-0.088207245 5.9025311 -0.98916984 0
-5.3500199 2.4967227 -0.98551714 0
4.4890661 -3.9101317 0.63729382 0
4.9279995 3.2597101 -0.98868728 0
-5.3565421 -2.4981449 -0.98681474 0
-4.2214465 -3.8018405 1.9080868 0
4.5232172 -3.9182656 0.32784677 0
4.9300909 -3.2624743 -0.98961592 0
-2.5168452 5.3497128 -0.98820615 0
4.3991632 -3.8966916 1.1967804 0
4.5186086 -3.9101942 0.52339089 0
-4.5573034 -3.7954023 0.90396965 0
4.4868584 -3.9077513 0.77864718 0
4.4348984 -3.9037676 1.0495553 0
4.1503944 -3.8978221 1.8951442 0
-4.4735146 -3.7965224 1.26525 0
4.9805579 -3.2042496 -0.98547673 0
4.4241905 -3.9049103 1.1066475 0
4.1575298 -3.9033344 1.8781424 0
4.9813013 3.2052033 -0.98580062 0
-5.3250246 2.5975883 -0.98509157 0
4.5640206 -3.9049683 -0.075881898 0
-4.3389692 -3.8061903 1.6688623 0
4.5167847 -3.9069998 -0.66147554 0
-5.3286967 -2.5984442 -0.98582447 0
4.563529 -3.9044535 -0.22119671 0
4.5674591 -3.908571 0.067868114 0
4.2478056 -3.9091518 1.6877556 0
4.3305421 -3.8980119 1.4938445 0
4.5635738 -3.9045 0.35440636 0
-0.019402742 5.934639 -0.99098921 0
5.0326838 -3.1487734 -0.98248065 0
4.4848223 -3.9055562 0.92067039 0
-4.5568085 -3.7949448 1.0341399 0
4.5192947 -3.9113958 0.71908367 0
4.5709705 -3.9122493 0.21108365 0
4.3345079 -3.9090347 1.4795847 0
4.5103502 -3.8957317 -0.86255765 0
-2.4549866 5.4118786 -0.98872709 0
4.5622787 -3.9031439 0.49696088 0
5.0801497 -3.0881355 -0.97791266 0
4.4330711 -3.9023068 1.1951711 0
0.057127476 5.9445195 -0.9867928 0
5.0396566 3.1574628 -0.98546588 0
4.5728302 -3.9141977 -0.37083471 0
4.5661583 -3.9072077 -0.5181244 0
-4.2560959 -3.8015351 1.9592814 0
-5.3068209 2.7000971 -0.98631334 0
-5.30691 -2.7001193 -0.98633122 0
-4.7014842 -3.790041 0.056598067 0
4.4223976 -3.9016631 1.3034923 0
4.5158873 -3.9054286 0.91486859 0
4.6084242 -3.904784 -0.067484736 0
4.6086421 -3.905153 0.13024819 0
4.5638442 -3.9047835 -0.66881919 0
-4.3393564 -3.8065691 1.7985549 0
4.5680332 -3.9091718 0.64009321 0
-2.3871078 5.4675822 -0.98749876 0
4.4901352 -3.9112837 1.0654182 0
-5.2732944 -2.7987766 -0.98475409 0
-4.5633554 -3.8009946 1.1648667 0
4.6117883 -3.9104841 -0.26726484 0
-4.7125597 -3.7949216 -0.19153148 0
4.1558065 -3.9024074 2.041193 0
-5.2786827 2.8001964 -0.98583722 0
4.4193735 -3.9191153 1.3484921 0
-4.7140937 -3.7955976 0.3025254 0
5.1042871 3.1173475 -0.98806643 0
4.4377766 -3.9060674 1.3415794 0
0.12480402 5.9805045 -0.99027264 0
4.6110864 -3.9092948 -0.46796274 0
4.6164465 -3.9183776 0.32702804 0
-4.2038736 -3.7878416 2.1811643 0
-4.4808164 -3.7998657 1.5099392 0
4.5705338 -3.9117918 0.78392136 0
4.6444006 -3.9033673 -0.082606375 0
-4.5562487 -3.7944272 1.2949924 0
4.2453823 -3.9044497 1.8890438 0
-4.0535798 -3.8053095 2.4347432 0
4.3314314 -3.8996789 1.6947863 0
4.4858017 -3.9066119 1.2095678 0
4.6049204 -3.8988469 -0.66870642 0
4.6469116 -3.9059234 0.063198924 0
-2.3201327 5.5241003 -0.98683953 0
4.6143026 -3.9147441 0.52429819 0
5.1548243 3.0602119 -0.98503482 0
-4.7134843 -3.7953291 0.54886281 0
-4.3325453 -3.7999032 1.9273715 0
-4.7244005 -3.8001394 -0.44213229 0
4.4197721 -3.8969076 1.5019314 0
4.5205765 -3.9136407 1.1133771 0
4.6082163 -3.9044316 0.72110784 0
-5.2552328 2.9015524 -0.98659384 0
4.6489525 -3.9080014 0.35332572 0
5.1608953 -3.0673497 -0.98754573 0
4.6544685 -3.9136171 0.20798802 0
4.5695276 -3.9107378 0.92826116 0
-4.546917 -3.7858043 1.4248085 0
4.4144354 -3.9136364 1.4947305 0
0.19721174 6.0023532 -0.99004793 0
4.4304781 -3.9002345 1.4873109 0
4.4767404 -3.896843 1.3536346 0
4.644125 -3.9030864 -0.52996248 0
-4.712956 -3.7950962 -0.69176888 0
-5.2644162 -2.9041133 -0.98844695 0
4.6601181 -3.9193683 -0.23353595 0
5.2090478 -3.0077558 -0.98388743 0
4.6559863 -3.9151618 -0.38221371 0
4.5603399 -3.9011126 1.0718651 0
0.27357507 6.0105515 -0.98630548 0
-4.7073026 -3.7926049 0.79513514 0
-5.2204905 2.999723 -0.98535883 0
4.5132818 -3.9008653 1.3104305 0
4.6588936 -3.9181221 0.49832177 0
4.6996336 -3.8994052 0.12805355 0
-5.2278547 -3.0018907 -0.98685098 0
5.2185378 3.0185933 -0.98774731 0
4.6505833 -3.9096618 0.64312124 0
4.6389666 -3.8978348 0.78720903 0
4.6123466 -3.9114306 -0.87751496 0
5.2605553 2.9524455 -0.98197412 0
4.6495028 -3.9085612 -0.68551302 0
-2.2630696 5.5920053 -0.98995507 0
-4.7060776 -3.7920651 -0.94427371 0
4.7006683 -3.9011028 0.32653034 0
4.6135435 -3.9134591 0.91976595 0
4.7039804 -3.9065363 -0.27267206 0
-4.2607026 -3.8037248 2.206965 0
-4.3961353 -3.7989762 1.934453 0
-5.1892304 3.098805 -0.98511243 0
5.268877 -2.9616783 -0.98530447 0
4.4303474 -3.9001303 1.6343145 0
0.34498525 6.0353131 -0.98748469 0
4.709939 -3.9163101 -0.072918117 0
4.4817324 -3.9022248 1.504642 0
-4.479486 -3.7992566 1.7560685 0
4.5651245 -3.9061248 1.2200654 0
-5.1991153 -3.1018689 -0.98712397 0
-4.5597687 -3.7976799 1.5581293 0
5.3178329 -2.9036334 -0.98267758 0
4.4221492 -3.9012134 1.7050905 0
4.5494661 -3.8897207 1.3639431 0
4.7073841 -3.9121201 -0.4761923 0
4.7377367 -3.9072917 -0.0089033246 0
-2.196383 5.6490612 -0.99001253 0
-4.7148709 -3.7959402 1.0431523 0
-5.1526346 -3.1961331 -0.98406327 0
4.3377161 -3.9114549 1.9021978 0
4.6492157 -3.9082689 0.93484986 0
-5.156064 3.1972499 -0.98476434 0
4.610445 -3.9082077 1.11834 0
4.7092619 -3.9152005 0.52515769 0
4.7405205 -3.9151158 -0.091958821 0
0.41792905 6.0547309 -0.98746383 0
4.7396526 -3.9142573 0.20481312 0
4.743041 -3.9176092 0.056538343 0
4.7409267 -3.9155173 -0.24213803 0
5.329771 2.9165039 -0.98738146 0
4.7440796 -3.9120684 0.29686284 0
4.7320986 -3.9067838 0.49908352 0
4.7490025 -3.9157763 0.14311898 0
4.7044544 -3.9073136 0.72383177 0
4.7405643 -3.915159 0.35210848 0
-4.8070774 -3.8003862 0.63464904 0
4.7323303 -3.9070132 -0.54497862 0
0.49377394 6.0623355 -0.98447299 0
4.7218351 -3.8966303 -0.69692886 0
-2.1249704 5.7003536 -0.98863935 0
4.743988 -3.9185462 -0.39475399 0
4.7112551 -3.9184697 -0.6826098 0
4.5209007 -3.9142082 1.5144889 0
-4.8021193 -3.7960613 0.76953793 0
5.3782868 2.8580184 -0.98487687 0
-4.5612688 -3.7990665 1.6908219 0
4.6981459 -3.8969653 0.92233586 0
4.6533709 -3.9124997 1.083411 0
4.752635 -3.9185126 0.44847393 0
4.7261696 -3.9009182 0.79278541 0
4.4410286 -3.9086664 1.784059 0
-2.0492229 5.7459188 -0.98589838 0
4.7392001 -3.9138095 0.6465534 0
-5.1324749 3.2989352 -0.98667061 0
5.3873138 -2.8674757 -0.98837996 0
4.73458 -3.9049139 0.75290012 0
-4.7100267 -3.7938054 1.2916036 0
4.7083874 -3.9137657 -0.88938308 0
-5.1389318 -3.301141 -0.98799682 0
0.56561863 6.0860238 -0.98621249 0
4.7550802 -3.9203541 0.60044646 0
5.4319386 2.8051212 -0.98469472 0
-5.0860939 3.3927889 -0.98418117 0
-5.0865126 -3.3929386 -0.98426759 0
4.6145077 -3.9150918 1.3204288 0
4.4204788 -3.8981884 1.9096544 0
4.8006687 -3.9073341 -0.27900738 0
-4.8086863 -3.801789 0.90397513 0
-4.5514603 -3.7900028 1.8219497 0
5.4354033 -2.8086483 -0.98601961 0
-4.4708433 -3.7952993 2.0036025 0
4.8046813 -3.9137094 -0.077089846 0
4.6953731 -3.8924172 1.1220417 0
4.6520233 -3.9111273 1.2325144 0
4.5676498 -3.9087706 1.5216959 0
4.8032598 -3.9114516 0.32543373 0
4.8197474 -3.9075823 -0.09827733 0
-4.2305551 -3.8090971 2.4722593 0
4.8102016 -3.9224808 0.12397385 0
4.8201809 -3.907999 0.20202076 0
4.7337375 -3.9084051 0.94218707 0
4.802423 -3.9101217 -0.48385024 0
-4.8061752 -3.7995994 1.0385375 0
-4.3924284 -3.7961085 2.2165847 0
4.826654 -3.9142222 0.051508069 0
-1.9851964 5.806221 -0.98779428 0
0.63888216 6.1040525 -0.98667777 0
4.8035908 -3.9119771 0.52597702 0
4.8255358 -3.9131474 -0.25146991 0
4.5189548 -3.9108002 1.7179637 0
4.7483644 -3.9152956 0.90399587 0
4.8216195 -3.9093821 -0.40431356 0
4.6444426 -3.9034097 1.3814671 0
-4.7955208 -3.7903063 1.1725872 0
5.4934087 2.7599642 -0.98774958 0
4.8004351 -3.9069631 -0.68983734 0
-5.0610642 -3.4942575 -0.98638725 0
5.4960184 -2.7625461 -0.98873317 0
4.8249717 -3.912605 0.50031507 0
4.6116629 -3.9102709 1.5226848 0
4.8354635 -3.9226918 0.35083079 0
4.8245869 -3.9122348 -0.56106889 0
4.4511204 -3.9167314 1.9353013 0
4.7447166 -3.9125481 1.0553865 0
-4.9555397 -3.7882078 -0.21081275 0
-5.0734754 3.498898 -0.98896301 0
4.8230639 -3.9107711 0.64958882 0
-4.7117128 -3.7945483 1.5429535 0
-4.9455886 -3.7839916 -0.46627659 0
4.7429123 -3.9174824 1.0939803 0
5.5459528 -2.7057519 -0.98768675 0
5.5470524 2.7068086 -0.9880954 0
-4.9622393 -3.7910461 0.29858088 0
-4.5698657 -3.790508 1.9603143 0
-1.9212911 5.8671098 -0.99010408 0
4.812295 -3.9258063 0.72763205 0
4.8247271 -3.9123695 -0.71961129 0
-5.0233269 -3.5911376 -0.98625648 0
-4.9505768 -3.7861049 0.552598 0
-4.5661564 -3.8035827 1.9597473 0
5.5881805 -2.6418896 -0.98412848 0
-4.9762712 -3.7969911 0.043233871 0
4.7054634 -3.9089687 1.3270075 0
0.78716743 6.1318283 -0.98620772 0
4.895772 -3.9029505 -0.080590189 0
4.8053837 -3.9148257 -0.901384 0
-5.0330167 3.5949197 -0.98827839 0
4.434351 -3.9033296 2.0818307 0
4.7340465 -3.908711 1.2434356 0
4.7421513 -3.9106159 1.2067921 0
-4.8055391 -3.7990448 1.3081882 0
5.5919275 2.6453905 -0.9855026 0
0.70769119 6.1447563 -0.99362421 0
4.6500063 -3.9090738 1.5371053 0
4.8064275 -3.9164841 0.9287765 0
4.8295069 -3.9169652 0.80023813 0
-4.9784904 -3.6851313 -0.98492527 0
0.86329162 6.1340046 -0.98322392 0
4.9077759 -3.9062386 -0.10600913 0
4.9051614 -3.9037962 -0.25960499 0
4.9031572 -3.9143202 0.12170959 0
4.893024 -3.89872 -0.49005961 0
4.9111581 -3.9093983 0.046432018 0
-1.8497801 5.9180017 -0.98980391 0
4.5202913 -3.913141 1.9262433 0
-4.4691315 -3.7945156 2.2565336 0
4.903234 -3.914438 0.32444978 0
-4.9896669 3.6896789 -0.98727071 0
4.8245859 -3.9122343 0.95050144 0
4.9063749 -3.9192741 -0.28723484 0
5.6426077 -2.5895941 -0.98536384 0
4.7369518 -3.9066999 1.3581462 0
-4.801877 -3.79585 1.4431562 0
4.6119432 -3.9107463 1.7287316 0
-1.7683449 5.9547167 -0.9857986 0
4.8999619 -3.9094007 0.52684534 0
4.7303886 -3.9050922 1.3957481 0
4.9151459 -3.9131241 0.34993613 0
4.920804 -3.9184101 0.19781768 0
-4.9699807 -3.7943261 -0.72909009 0
0.93732643 6.1476741 -0.98365891 0
4.9149733 -3.9129629 -0.41796368 0
4.9111304 -3.9093726 0.50136793 0
5.6528468 2.5988891 -0.98906934 0
4.7023973 -3.9039395 1.5307019 0
-4.9688134 -3.7938316 0.80774164 0
4.8077598 -3.9186008 1.1320419 0
4.8980436 -3.9064481 0.72919834 0
-4.9507017 -3.7861578 -0.987468 0
-4.9513764 3.7864439 -0.98761046 0
5.6953354 2.5356035 -0.98624587 0
5.6956158 -2.5358505 -0.98634589 0
4.9203601 -3.9179952 -0.57803285 0
4.9054451 -3.9178426 -0.70261574 0
4.9102926 -3.9085898 -0.73555624 0
-4.8961148 3.8758082 -0.98464072 0
-4.7226343 -3.799361 1.7991905 0
4.9207902 -3.9183969 0.65358114 0
4.8360319 -3.9232383 1.105176 0
1.0107504 6.1661367 -0.985677 0
-4.8078022 -3.8010185 1.5799735 0
4.7424574 -3.9108467 1.510942 0
4.8194718 -3.9073174 1.2551343 0
5.742095 -2.4763546 -0.98528552 0
5.742321 2.476548 -0.98536515 0
-1.7044802 6.0163994 -0.98913157 0
4.7350121 -3.9096663 1.5532954 0
4.8999438 -3.909373 -0.91208458 0
-4.4020715 -3.8035676 2.5074952 0
4.8046803 -3.913708 1.3359213 0
4.9192867 -3.9169927 0.8059411 0
-4.9685163 -3.7937057 1.0634456 0
4.9032421 -3.9144504 0.93318987 0
4.9946918 -3.901788 -0.29141492 0
4.999918 -3.9095862 0.11912394 0
4.9101505 -3.9084575 0.95780814 0
1.085234 6.1780324 -0.98620212 0
4.6124315 -3.9115736 1.9382758 0
5.0001545 -3.9063928 -0.27095127 0
5.7898297 -2.41803 -0.98497379 0
5.0046501 -3.9104741 0.19486701 0
5.0072851 -3.9128659 0.040040016 0
5.0004148 -3.9103277 0.32357538 0
5.794755 2.4221296 -0.98669088 0
5.0058517 -3.9184406 -0.087025404 0
-5.0506239 -3.7860162 0.76528013 0
-1.631815 6.065527 -0.98921466 0
4.817245 -3.9051766 1.4101176 0
4.7069511 -3.9114101 1.7401462 0
5.0063319 -3.9120004 0.34877849 0
-4.5815353 -3.7992704 2.2517519 0
-4.8691134 3.9776542 -0.9879657 0
-5.0680599 -3.8003652 0.62537873 0
5.014605 -3.9195108 -0.11676216 0
4.8982096 -3.9067037 1.1367943 0
-4.8101139 -3.8030348 1.7172303 0
