# .PCD v0.7 - Point Cloud Data file format
VERSION 0.7
FIELDS x y z intensity
SIZE 4 4 4 4
TYPE F F F F
COUNT 1 1 1 1
WIDTH 1406
HEIGHT 1
VIEWPOINT 0 0 0 1 0 0 0
POINTS 1406
DATA ascii
-4.0730772 -4.2144732 1.2926674 0
-3.8272805 -4.2106986 1.9159093 0
4.2409115 -4.2514505 -0.082590818 0
-5.3704791 -2.5011837 -0.98958743 0
-3.5464196 -4.2089791 2.4055724 0
3.7923212 -4.2445078 1.9219241 0
4.9836416 -3.2082069 -0.98682094 0
3.9674726 -4.2475805 1.5246148 0
4.0251884 -4.2518463 1.3523042 0
3.9633121 -4.2626963 1.4942064 0
-4.0216413 -4.2145953 1.4750271 0
-0.017416477 5.9290223 -0.98939288 0
-3.8522668 -4.2031426 1.9043477 0
4.2447729 -4.2565551 0.062963486 0
-3.8528986 -4.1960893 1.9216933 0
4.1718278 -4.2574687 0.7846868 0
4.028615 -4.2592082 1.3362412 0
3.8831382 -4.2552361 1.7249951 0
-5.3774066 2.5026944 -0.99096572 0
4.2435665 -4.254961 -0.23066068 0
-4.0633698 -4.2031817 1.4215007 0
-5.3352418 -2.5999699 -0.98713076 0
4.182477 -4.2719727 -0.67858064 0
-5.3357773 2.6000946 -0.98723781 0
-2.4499359 5.4065108 -0.9870255 0
4.2411709 -4.2570729 0.32489431 0
-4.208045 -4.2085538 -0.89319205 0
-4.2802296 -4.2051401 0.50616205 0
4.1657658 -4.2492123 0.92825651 0
4.2467885 -4.268784 0.12235641 0
4.2443819 -4.2560382 -0.38009369 0
4.2501936 -4.263721 0.20794129 0
4.2462654 -4.2585282 0.35328639 0
5.0383797 -3.1558712 -0.98491907 0
-4.27565 -4.2001128 0.63932157 0
5.0405879 3.1586225 -0.98586452 0
4.0597277 -4.2558856 1.3281651 0
-4.2009244 -4.2046547 1.01861 0
0.05493927 5.9510007 -0.98862576 0
4.1004076 -4.2584295 1.2153039 0
4.247036 -4.2595468 0.49813581 0
4.1583982 -4.2749944 0.92929339 0
4.2459021 -4.2580481 -0.53193414 0
4.2397337 -4.2498941 0.64254999 0
-5.309649 -2.7007992 -0.98687983 0
-5.3107166 2.7010641 -0.98709357 0
5.0905352 3.1007049 -0.98228157 0
-4.0586972 -4.1977463 1.5511038 0
4.2468367 -4.2688842 0.52673423 0
4.0269833 -4.2576571 1.4808478 0
3.7775681 -4.2579942 2.0343153 0
4.0255599 -4.2523832 1.5013061 0
4.2424335 -4.2534628 -0.68420434 0
4.2388992 -4.2523375 0.72808754 0
4.2904434 -4.256012 0.30916953 0
4.2952633 -4.2603388 0.15849173 0
-4.2832942 -4.2085052 0.77145457 0
0.12755108 5.9719667 -0.98786938 0
-5.2783279 -2.8001029 -0.98576593 0
4.1522198 -4.2616262 1.130652 0
-2.394824 5.4760213 -0.99013865 0
4.1729803 -4.2590384 1.0758975 0
4.3162155 -4.2516985 -0.088246107 0
-5.2828469 2.8012936 -0.98667431 0
5.1453004 3.049017 -0.98109651 0
-4.2768669 -4.2014489 0.90397227 0
-2.3143663 5.5176096 -0.98483503 0
-4.0141506 -4.2103534 1.7118335 0
4.3170605 -4.2527819 -0.23747599 0
4.2940674 -4.2592654 0.4580996 0
4.1000772 -4.2579656 1.3633919 0
5.1073341 -3.1210349 -0.98934817 0
4.2477026 -4.260428 0.78886127 0
5.1507821 -3.0554607 -0.98336339 0
4.3229589 -4.2603517 0.058534145 0
4.3215876 -4.2585917 0.20587587 0
3.8815742 -4.2514315 1.9325795 0
0.20045447 5.9917569 -0.98707879 0
-5.2484188 2.8996525 -0.98521888 0
-5.2493262 -2.8999054 -0.98540199 0
3.9727931 -4.2600145 1.7340188 0
4.3223028 -4.2595096 0.35246444 0
4.2951365 -4.2602253 0.60693204 0
-4.2060471 -4.2074594 1.2585273 0
4.0267963 -4.2574792 1.6262124 0
4.3228464 -4.2602077 -0.39002514 0
-4.2754798 -4.1999259 1.0362201 0
4.2445526 -4.2562642 0.93473184 0
4.0621481 -4.2613254 1.5344245 0
4.3209076 -4.257719 0.49889576 0
4.2877951 -4.253634 0.75577188 0
-4.0659399 -4.206172 1.6836495 0
-3.8298383 -4.2121954 2.1560538 0
4.3196964 -4.2561646 -0.54196483 0
4.3143377 -4.2492881 0.64490592 0
4.3413868 -4.2729578 0.11998367 0
4.2466612 -4.2685184 0.93207073 0
5.2080364 -3.0066011 -0.98347628 0
5.2082911 3.0068913 -0.98357964 0
4.338757 -4.2676711 0.32398045 0
4.1774588 -4.2651377 1.2251379 0
-4.4058113 -4.2033224 0.30426896 0
-2.2529092 5.5802331 -0.98636496 0
4.1526814 -4.2626262 1.3352184 0
4.3342314 -4.2585731 0.52724218 0
-4.4151382 -4.2082572 0.060557604 0
4.3174534 -4.2532868 -0.69640911 0
0.27248991 6.0142879 -0.98734796 0
-3.695365 -4.2044396 2.4335003 0
-4.4184523 -4.2100105 -0.18419045 0
-5.225584 3.0012224 -0.98639095 0
4.2888832 -4.2546105 0.90399182 0
-4.2775984 -4.2022514 1.1687584 0
4.1050901 -4.2650023 1.5163145 0
-3.8584056 -4.208796 2.1838369 0
4.1703587 -4.2554679 1.3724339 0
-4.4149799 -4.2081733 -0.42975861 0
4.2486458 -4.2616749 1.0833941 0
4.2411251 -4.2569771 1.1347861 0
4.3922377 -4.2507143 0.20390296 0
4.3327112 -4.255517 0.73039532 0
-4.4091082 -4.2050667 0.54719603 0
4.395998 -4.2553997 0.054910183 0
4.3971553 -4.2568417 -0.094906092 0
4.394671 -4.253746 -0.24522078 0
0.34608912 6.0312991 -0.98636925 0
-2.18367 5.6338987 -0.98544443 0
-4.0642166 -4.2041664 1.8153234 0
5.2687688 2.9615586 -0.98526132 0
4.2377067 -4.2472143 1.2293429 0
-4.1983376 -4.2032385 1.4986031 0
-5.2455673 -3.0071042 -0.99044013 0
4.3266635 -4.2651057 0.79339314 0
-4.4063587 -4.2036119 -0.67624354 0
4.0578842 -4.2517419 1.7401259 0
4.3968048 -4.2564054 0.35170031 0
-4.0089612 -4.2074151 1.9518814 0
-4.3982205 -4.1993065 0.78983927 0
4.3968868 -4.2565079 -0.3983885 0
5.2751703 -2.9686613 -0.98782337 0
-4.0226622 -4.2095199 1.9297054 0
-4.2788167 -4.203589 1.3016376 0
4.0380716 -4.2682023 1.7745824 0
4.396636 -4.2561951 0.49969482 0
4.3216562 -4.2586803 0.94073284 0
-5.2051249 3.1037314 -0.98834693 0
4.2959976 -4.2609982 1.0524688 0
5.320457 -2.9064627 -0.9837116 0
-5.2068648 -3.1042707 -0.98870111 0
-5.1527305 3.1961644 -0.98408282 0
3.9742022 -4.2633071 1.9451146 0
4.4281845 -4.2591305 0.1185751 0
4.4246988 -4.2523665 0.32354105 0
5.3230476 2.9092557 -0.98473239 0
-4.3946948 -4.1974411 -0.92411613 0
4.4003668 -4.2608442 -0.55436498 0
0.41709113 6.0579581 -0.98835719 0
4.3369694 -4.2640762 0.93518972 0
-2.1186166 5.6925511 -0.9863162 0
4.1738043 -4.2601609 1.5260539 0
5.3692789 -2.8485811 -0.98138106 0
4.1572733 -4.2725611 1.5440512 0
-4.2728882 -4.1970806 1.4340434 0
-5.1699438 -3.201771 -0.98760188 0
4.4028435 -4.2639298 0.64838505 0
4.2446861 -4.2644014 1.3416812 0
4.3939314 -4.2528253 0.79620099 0
4.0271511 -4.2578168 1.9196177 0
4.4708371 -4.2507453 -0.10003853 0
4.4298258 -4.2623148 0.52805424 0
4.473074 -4.2534528 0.050784111 0
4.4051971 -4.2668624 -0.71384621 0
4.2486486 -4.2616782 1.3843849 0
4.3288794 -4.2679496 1.0919213 0
0.48969209 6.0790348 -0.98907936 0
4.3032827 -4.267539 1.2015631 0
4.3327188 -4.2555323 1.1395636 0
-4.074297 -4.2158928 1.951297 0
-5.133709 3.2993567 -0.98692405 0
-5.1355505 -3.2999859 -0.9873023 0
4.4780221 -4.2594409 -0.25425649 0
4.4797816 -4.2615705 0.20056462 0
4.4696903 -4.2493577 0.50040758 0
5.3909521 2.8712869 -0.98979175 0
4.055913 -4.2473116 1.9499435 0
4.4749956 -4.2557783 -0.40786594 0
4.4301367 -4.2629175 0.73304796 0
-4.4206567 -4.2111769 1.0358086 0
4.4804831 -4.2624197 0.35069656 0
4.2922087 -4.2575965 1.3497114 0
-2.0589571 5.7582278 -0.98952127 0
4.2390556 -4.2489972 1.5341039 0
-5.0906758 -3.3944278 -0.98512709 0
5.4357576 -2.8090093 -0.98615515 0
-4.5090418 -4.2073021 0.63164556 0
0.56373239 6.0942497 -0.98847377 0
4.4017377 -4.2625523 0.94720495 0
4.1523013 -4.2618032 1.751245 0
4.3278418 -4.2666178 1.2430048 0
4.4769735 -4.258172 -0.56505466 0
4.5190811 -4.2513142 0.11672521 0
-4.0030627 -4.2040749 2.1951935 0
-3.84902 -4.2001524 2.4628022 0
4.3110743 -4.2451 1.3901262 0
5.4434366 2.8168266 -0.98909116 0
-4.2143264 -4.2119927 1.7459838 0
4.2437944 -4.2625427 1.5494547 0
4.3295193 -4.2491002 1.3454015 0
4.4280128 -4.2587972 0.93837619 0
-4.5097809 -4.2080679 0.76786017 0
4.0279236 -4.2585511 2.0681031 0
-1.9857275 5.8069134 -0.98799574 0
-4.2904487 -4.2163596 1.5706944 0
0.63824332 6.1070337 -0.98749483 0
4.5225172 -4.2577515 0.32266474 0
5.4889617 2.7555647 -0.98607337 0
-5.1142569 3.4028623 -0.98999512 0
4.5173507 -4.2480712 0.52854371 0
-4.5028687 -4.2009034 0.90397668 0
4.4844017 -4.2671618 0.65121543 0
-4.4085479 -4.2047701 1.2802651 0
-4.0210438 -4.2080717 2.2115269 0
4.4809103 -4.2629366 -0.72584128 0
4.3856368 -4.2424889 1.2462945 0
4.2919006 -4.2573199 1.4990003 0
5.4948006 -2.7613413 -0.9882741 0
4.4048691 -4.2664542 1.0992014 0
-4.276217 -4.2007351 1.7026711 0
-5.0670857 -3.4965088 -0.98763692 0
4.547183 -4.2459149 -0.41541207 0
-5.0671992 3.4965515 -0.98766053 0
4.5569906 -4.2574444 0.19813049 0
-1.9136627 5.8568745 -0.98715699 0
4.5598431 -4.260798 -0.10800594 0
4.5606689 -4.2617683 0.045302749 0
4.4254026 -4.2537322 1.1445074 0
4.5586329 -4.2593751 -0.26245159 0
0.71163416 6.1249795 -0.98822069 0
5.5441885 2.704056 -0.9870311 0
4.4743414 -4.2549863 0.95211387 0
4.2796774 -4.246346 1.6470482 0
4.5527673 -4.25248 0.50138104 0
4.489656 -4.27352 0.8028934 0
5.5492296 -2.7089019 -0.9889046 0
4.3168097 -4.2524605 1.5475283 0
-4.5091085 -4.2073708 1.0400712 0
4.5222826 -4.2573133 0.73503101 0
-4.6297188 -4.2059064 0.050636649 0
-4.6237602 -4.2028623 0.30089724 0
4.5790224 -4.2609901 0.13344646 0
-5.0268979 -3.5925314 -0.98700166 0
-4.6292624 -4.2056732 -0.20037961 0
-4.1951313 -4.2127228 1.9552603 0
-1.8392141 5.9033928 -0.98564148 0
4.5795784 -4.2614613 0.28849459 0
4.3295207 -4.2491026 1.5544219 0
4.5675964 -4.2699118 0.34961939 0
0.78674674 6.1341081 -0.98682892 0
5.5919943 2.6454523 -0.9855268 0
-5.0344658 3.5954852 -0.9885807 0
5.5929279 -2.6463244 -0.98586917 0
4.5752039 -4.2577548 0.44335604 0
-4.2734318 -4.1976771 1.8373218 0
4.2439165 -4.2627964 1.7604642 0
4.1539783 -4.2654309 1.965219 0
-4.2030759 -4.205833 1.9908583 0
4.562603 -4.2640419 -0.57879484 0
4.5593724 -4.2602444 0.65346205 0
-4.4030004 -4.2018352 1.5270417 0
-4.6275921 -4.2048197 0.55057776 0
4.3958368 -4.255199 1.4040937 0
-4.6352782 -4.2087464 -0.45379078 0
4.5208654 -4.2546563 0.94182861 0
4.4785652 -4.260098 1.1057913 0
4.5577626 -4.2583518 -0.73813057 0
-4.9881406 -3.6890581 -0.9869504 0
-4.5117998 -4.2101603 1.1764941 0
4.5537024 -4.2535787 0.80515647 0
5.6405153 -2.5876949 -0.98460674 0
0.86122692 6.1461654 -0.98652911 0
4.6311245 -4.2477694 -0.11251366 0
-4.9914317 3.690397 -0.9876411 0
4.5814676 -4.2630615 0.59679854 0
4.4262056 -4.2552905 1.3531945 0
-4.6246819 -4.2033329 -0.7069037 0
5.6450424 2.5918043 -0.98624492 0
-4.4984922 -4.1963663 1.3117819 0
-1.7692862 5.956058 -0.98617697 0
4.6194677 -4.2585578 0.32184494 0
4.5757151 -4.2581873 0.75065684 0
4.6288528 -4.2755537 0.11286402 0
4.644052 -4.2625327 0.040485501 0
-4.6278663 -4.2049599 0.80065429 0
4.6411543 -4.2592239 -0.2709735 0
4.4770632 -4.2582798 1.2598968 0
4.6404886 -4.2584634 0.3489393 0
0.93528748 6.160821 -0.98722374 0
4.6221104 -4.2633438 0.52965045 0
-4.9526052 3.7869644 -0.98786986 0
4.6488876 -4.2680554 0.19456267 0
4.5602198 -4.2612405 0.95947719 0
-4.8902054 -3.873204 -0.98338544 0
-4.955534 -3.7882054 -0.9884882 0
5.6984882 2.5383844 -0.98737228 0
4.5772734 -4.2595077 0.90399814 0
4.3012238 -4.2656903 1.8015177 0
4.645164 -4.2638025 -0.43048877 0
4.5241413 -4.2607951 1.1509068 0
4.6422148 -4.2604346 0.50250626 0
1.0112402 6.1626487 -0.98473334 0
4.638526 -4.2562222 -0.58888102 0
4.6184502 -4.2567148 0.73740816 0
4.2408714 -4.2564487 1.9729614 0
-4.5018444 -4.199842 1.4488583 0
-1.701489 6.0120044 -0.98790419 0
4.4037571 -4.2650681 1.5646296 0
5.7395124 2.4741414 -0.98437417 0
5.7077465 -2.5465498 -0.99067998 0
-4.288166 -4.2138538 1.977716 0
-4.6306677 -4.2063909 -0.96561599 0
-4.9077978 3.8809564 -0.98712242 0
-4.0213428 -4.2083392 2.4984655 0
4.5567665 -4.2571812 1.1133952 0
4.5726852 -4.255621 1.0572469 0
4.6431255 -4.2614741 0.65637875 0
4.3390236 -4.2682066 1.7712245 0
-4.8465776 -3.9673359 -0.98314786 0
4.4281106 -4.2589869 1.5647936 0
5.7810936 -2.410759 -0.98192835 0
4.638731 -4.2564564 -0.75192189 0
-4.1906748 -4.1990428 2.2384586 0
4.6134939 -4.2477388 0.94516325 0
-4.1880832 -4.2065954 2.2402239 0
-1.6241827 6.0539594 -0.9860152 0
-4.6324687 -4.2073112 1.0520945 0
4.7090883 -4.2437787 -0.30865574 0
5.7548985 -2.4873254 -0.98980343 0
4.6399384 -4.2578349 0.81036806 0
4.4841261 -4.2668276 1.4190469 0
4.7156181 -4.2552147 0.1115669 0
1.0847895 6.1815629 -0.98715556 0
5.7921515 2.4199626 -0.98578322 0
-4.8606911 3.9737978 -0.98616505 0
-4.4166899 -4.2090778 1.7803528 0
4.295764 -4.2607884 1.9523873 0
4.7160096 -4.2559009 0.32106018 0
4.5241013 -4.2607203 1.3611581 0
-4.7402067 -4.1988869 0.62434042 0
4.726779 -4.2601962 -0.12145495 0
4.7225738 -4.2673965 -0.09993577 0
4.5750275 -4.2576056 1.2108054 0
1.1605622 6.182991 -0.98514378 0
-4.3583441 -4.2031527 1.9781413 0
-4.5106487 -4.2089672 1.5876753 0
4.5621853 -4.2635512 1.2713127 0
4.7288485 -4.2624917 -0.28058535 0
4.7239957 -4.2571077 -0.43969315 0
4.6426015 -4.2608762 0.96605265 0
-4.8116727 4.0655985 -0.985075 0
4.734479 -4.2687392 0.19155669 0
5.8421693 2.3634517 -0.98654187 0
-1.5551889 6.1085124 -0.98790026 0
4.7382388 -4.2729111 0.034333706 0
-4.6228151 -4.2023792 1.3034723 0
-4.8187613 -4.0689673 -0.98660052 0
4.7344704 -4.2687302 0.34771585 0
-4.7460995 -4.2046542 0.76404488 0
4.723042 -4.2682161 0.5305872 0
4.3323836 -4.2548575 1.9833417 0
4.619319 -4.2582874 1.1562119 0
4.7306881 -4.2645335 0.50358546 0
4.4850674 -4.2679667 1.5789897 0
4.7252026 -4.2584467 -0.60255563 0
5.8820028 -2.2988231 -0.98409986 0
4.7273426 -4.2757473 -0.52740383 0
-4.7399273 -4.1986132 0.90398145 0
4.2883549 -4.254137 2.10358 0
5.8563099 -2.3748829 -0.99141407 0
5.8864722 2.3023317 -0.98562229 0
-4.5046759 -4.202776 1.7248499 0
4.4294024 -4.2614932 1.7792683 0
1.2345203 6.201076 -0.98791099 0
-4.3880496 -4.1939254 2.0271597 0
-1.4768658 6.1484838 -0.98607814 0
4.6419973 -4.2601862 1.122576 0
4.7184286 -4.2601371 0.74013007 0
4.7196407 -4.2622595 -0.74099553 0
4.730485 -4.264308 0.65953064 0
4.5806875 -4.2624011 1.3651447 0
4.5220327 -4.256845 1.5729051 0
4.5626612 -4.2641101 1.4302154 0
4.7231932 -4.2562175 0.81509995 0
-4.7743936 -4.1630306 -0.98680496 0
1.3104249 6.1993442 -0.98563194 0
4.7290363 -4.2627006 -0.7692436 0
-4.8499246 -4.2002645 0.040454626 0
5.9308505 2.2413733 -0.98503458 0
-4.7812076 4.1663895 -0.98828161 0
-1.3987803 6.1884465 -0.98457229 0
4.8101559 -4.2563019 -0.12801027 0
-4.7453737 -4.2039442 1.043895 0
4.8109322 -4.2571383 0.18930161 0
-4.8570476 -4.2037759 -0.21811682 0
4.6409254 -4.2589622 1.2806382 0
5.9684701 -2.1754739 -0.98249269 0
4.7188263 -4.2608337 -0.95962155 0
4.8132315 -4.2518296 0.32026958 0
-4.6183057 -4.2000756 1.5571694 0
4.8156252 -4.2558861 -0.31650913 0
-4.8610744 -4.205761 0.29717219 0
4.5567288 -4.2571368 1.589103 0
5.946167 -2.2530465 -0.99019468 0
-4.7261577 4.2551751 -0.98645926 0
4.7232041 -4.2685003 0.95144689 0
-4.8531003 -4.2018299 -0.47731394 0
4.8213544 -4.265594 -0.10413849 0
4.8143163 -4.260787 0.34687769 0
4.72789 -4.2614288 0.9730587 0
1.3852291 6.2104187 -0.9870863 0
4.8105679 -4.2567458 -0.45099676 0
4.5809765 -4.2626457 1.5196762 0
4.8091879 -4.2552581 0.5043906 0
5.9794874 2.1836243 -0.98616481 0
4.8120174 -4.2497725 -0.53057933 0
-4.5085087 -4.206749 1.8648455 0
4.819787 -4.266685 -0.29079485 0
4.626616 -4.271503 1.3704059 0
4.8262615 -4.2739086 0.10780823 0
4.8274741 -4.2749724 0.028932333 0
-4.1851692 -4.204062 2.5306296 0
-4.7473507 -4.2058787 1.1840889 0
1.460942 6.2077641 -0.98514307 0
4.7136827 -4.2518253 1.1611934 0
4.8080378 -4.2540183 0.66187525 0
-4.8481832 -4.1994061 -0.73826349 0
4.8201237 -4.2635093 0.53136694 0
4.4277554 -4.2582974 1.9957089 0
4.8147936 -4.2613015 -0.61699939 0
4.6395645 -4.2574077 1.4406447 0
4.7250624 -4.2582912 1.1310897 0
-4.8715167 -4.2109089 0.55443096 0
-4.6834373 4.3502045 -0.98761296 0
6.0287318 -2.1261435 -0.9877578 0
4.8158121 -4.2562032 0.74251425 0
-4.3613181 -4.2056642 2.2704546 0
6.030386 2.1273308 -0.98830342 0
4.5258665 -4.2640281 1.7901311 0
4.8083677 -4.254374 0.82000947 0
-1.3364899 6.255281 -0.99055207 0
4.8179145 -4.2597656 -0.75016725 0
-4.8577609 -4.2041273 0.81140304 0
1.5361454 6.2131605 -0.98565054 0
4.580472 -4.2622185 1.6747773 0
6.0623899 2.0575824 -0.98451591 0
6.0648551 -2.059299 -0.98532081 0
4.8815594 -4.260716 0.10616171 0
4.8833532 -4.2621498 -0.055647373 0
-4.7510471 -4.209497 1.3248851 0
4.6221495 -4.2634144 1.5833123 0
4.8899908 -4.2464647 0.34615457 0
4.8763771 -4.2565746 0.42714906 0
4.8954163 -4.2521482 0.18645787 0
4.8845835 -4.2631335 0.26641035 0
-1.2551155 6.2896819 -0.98813331 0
4.8114777 -4.2488585 0.95383823 0
-4.6313066 4.440299 -0.98699045 0
-4.5143595 -4.2128139 2.0067225 0
4.8250265 -4.2723336 -0.78850484 0
4.7281947 -4.2617664 1.2923121 0
4.9038811 -4.2610164 0.02524066 0
4.9013262 -4.2583399 -0.29868251 0
4.8137813 -4.26021 0.98006463 0
4.895153 -4.2518725 0.50537586 0
-4.539484 -4.2039008 2.0052972 0
-4.8497319 -4.2001696 1.0688031 0
6.1103926 1.9991081 -0.98626196 0
4.880373 -4.2597685 0.58614993 0
4.8187494 -4.2611799 -0.97127295 0
-4.6225204 -4.202229 1.8152375 0
4.6444626 -4.2630014 1.6056528 0
1.6112546 6.2251067 -0.98820186 0
4.9099512 -4.2673755 -0.13739765 0
4.7208171 -4.2643199 1.3767195 0
-1.1749237 6.3256702 -0.98645735 0
4.920022 -4.2609315 0.10586381 0
6.1155696 -2.0026045 -0.9879359 0
6.1409683 1.9289834 -0.98267996 0
4.9035058 -4.2606235 -0.46392566 0
4.8035641 -4.2491951 1.1384165 0
-4.4156203 -4.2085123 2.2927365 0
4.9251723 -4.2693796 -0.10909474 0
4.8984823 -4.2553611 -0.62924123 0
-4.5822649 4.5320621 -0.98733997 0
4.9143448 -4.2516189 -0.53916705 0
4.5193491 -4.2518153 2.0055704 0
4.923872 -4.2672467 0.31904542 0
-4.7576742 -4.2159829 1.4667647 0
4.8851385 -4.2635765 0.74502158 0
4.9259286 -4.2706203 -0.32502747 0
1.6867437 6.2284837 -0.98874474 0
4.9025965 -4.2596707 0.66548705 0
6.1555495 -1.9385295 -0.98734987 0
4.61624 -4.2527118 1.7977896 0
4.5881262 -4.268703 1.8321974 0
4.7315755 -4.2655177 1.4561532 0
4.9224749 -4.2649555 0.53230762 0
-1.0974581 6.3664479 -0.98634303 0
6.1849036 -1.8677692 -0.98368967 0
1.762253 6.2170067 -0.98559725 0
4.8990874 -4.2559948 -0.79891574 0
4.8803091 -4.2597175 0.90400481 0
6.1897988 1.8708749 -0.98524308 0
4.9019499 -4.2589931 0.8259145 0
4.91716 -4.256237 -0.75950265 0
1.8374759 6.2074451 -0.98325157 0
-1.0134132 6.3942413 -0.9831574 0
4.8248358 -4.2714939 1.1701343 0
4.7800627 4.3680763 -0.98813236 0
4.5711937 -4.2543569 1.985822 0
-4.7546425 -4.2130151 1.6081147 0
-4.5365624 4.625864 -0.98873901 0
6.225904 -1.8046067 -0.98404419 0
4.9233227 -4.266346 0.74586844 0
4.8129253 -4.2592874 1.3030703 0
4.7211637 -4.2649274 1.5929928 0
4.9873409 -4.2524981 -0.30749482 0
-5.0003881 -4.2048397 0.61537123 0
-4.8599544 -4.2052088 1.3296521 0
4.8801918 -4.2596235 1.0628409 0
4.8494616 4.3132215 -0.98522389 0
4.7266302 -4.2600307 1.6196806 0
4.995676 -4.2609835 0.18246996 0
4.9977427 -4.2630873 0.019397974 0
4.9926763 -4.2579293 0.34476388 0
6.2391238 1.8127308 -0.98820198 0
4.9144382 -4.2517719 -0.9807744 0
-4.3562398 -4.2013755 2.5649698 0
-4.7438469 -4.2024493 1.7485113 0
5.0015488 -4.2669625 -0.14518499 0
-4.4808526 4.7138801 -0.98818064 0
-4.6191401 -4.2005019 2.0751967 0
4.9941769 -4.2594571 0.50667334 0
5.0210361 -4.2574511 0.10323095 0
-5.0057421 -4.2097869 0.75958776 0
4.9136305 -4.2712302 0.98945189 0
4.9853611 -4.2504821 0.66815853 0
6.2730851 1.7450593 -0.98660588 0
6.2740493 -1.7456331 -0.98690665 0
4.9223652 4.2647748 -0.98429012 0
5.0230045 -4.2605777 -0.11294758 0
4.9251246 -4.2693014 0.96048665 0
4.9992571 -4.2646289 -0.47743255 0
4.8235798 -4.2693653 1.3855824 0
1.9134645 6.2289596 -0.9895246 0
5.0216851 -4.2584815 0.31827641 0
4.6157703 -4.2518616 2.0179081 0
4.991848 -4.2570863 -0.64452207 0
4.8131828 -4.2595649 1.4678526 0
-4.7304611 -4.1893492 1.8885283 0
-0.94513655 6.4534526 -0.98837686 0
-5.090857 -4.1982932 0.029134393 0
-5.0882134 -4.1970367 -0.2360639 0
-5.087131 -4.1965222 0.2936908 0
4.8878822 -4.265769 1.2223086 0
1.9885936 6.2172623 -0.98718488 0
5.0200906 -4.2559485 0.53307128 0
6.3094573 -1.6789553 -0.98606944 0
5.0277328 -4.2680907 -0.33134627 0
4.5730009 -4.255888 2.144217 0
-5.007246 -4.2111769 0.90398717 0
-4.4277511 4.8034534 -0.98850262 0
4.912209 -4.2697411 1.1525788 0
4.7193861 -4.2618141 1.8112822 0
4.9959869 4.2176528 -0.98399258 0
-4.8518043 -4.2011909 1.5903029 0
6.3177381 1.6837232 -0.9886297 0
-4.5483613 -4.2111826 2.30446 0
-4.9982185 -4.2028346 1.0481479 0
5.0257721 -4.2649751 -0.55025941 0
4.9954815 -4.2607856 0.83171964 0
6.3435006 -1.6116023 -0.9851141 0
4.9981766 -4.2635293 -0.81883621 0
2.0639176 6.2126269 -0.98702741 0
-5.0910649 -4.1983919 0.55778503 0
-0.86600184 6.491168 -0.98832595 0
4.8836403 -4.2623792 1.3815126 0
-5.1006188 -4.2029333 -0.50472838 0
5.0058146 -4.2332668 -0.98825192 0
4.9287701 -4.2752819 1.1770978 0
6.3533926 1.6171107 -0.98814785 0
5.0862327 -4.2571359 0.014302135 0
4.9079556 -4.265285 1.3165784 0
2.1388538 6.2028527 -0.98577857 0
5.0265007 -4.2661328 0.74870658 0
-4.9960785 -4.2008572 1.1923296 0
-4.7207084 -4.1995735 2.0321636 0
5.0265679 -4.2662396 -0.77235508 0
4.8176451 -4.2643757 1.6369963 0
4.9944496 -4.2597351 0.99534106 0
5.0707917 4.1723871 -0.98449218 0
5.0902834 -4.2611437 0.17896426 0
5.0920658 -4.2629066 -0.15267718 0
4.826323 -4.2740135 1.6047831 0
5.0892467 -4.2601185 -0.31974262 0
5.0734787 -4.1765232 -0.98563087 0
6.3884163 1.5501995 -0.98776913 0
-4.3832898 4.8986769 -0.9911207 0
-0.78724837 6.5297523 -0.98878372 0
5.0866323 -4.2575316 -0.48844361 0
5.0931149 -4.2639446 0.34345198 0
-5.092804 -4.1992188 0.82237852 0
4.9183426 -4.2581768 1.3917835 0
6.4148779 -1.4788649 -0.98509777 0
-4.6091862 -4.1954165 2.3371363 0
6.3979692 -1.5553415 -0.99067605 0
-4.3145566 4.9782491 -0.98841476 0
5.0942688 -4.2650862 0.50797617 0
-4.7491426 -4.207633 2.0372 0
6.4216838 1.4824038 -0.98715329 0
5.027297 -4.2673984 0.9650526 0
4.8854742 -4.263845 1.5417094 0
6.4439101 1.4091227 -0.98352349 0
-5.1141911 -4.209384 -0.77687466 0
2.215395 6.2122951 -0.98998606 0
5.1479206 4.130446 -0.98621666 0
-5.0041447 -4.2083106 1.3376613 0
4.9114676 -4.2689643 1.4849827 0
5.1283255 -4.2609577 0.31723714 0
5.1332994 -4.2686148 0.099568367 0
5.0024471 -4.2678766 1.1623089 0
5.150651 -4.1345205 -0.98734903 0
4.721909 -4.266232 2.0351911 0
5.0173979 -4.2516704 1.1803639 0
-0.70911646 6.5699468 -0.9899292 0
5.1359925 -4.2727609 -0.11917114 0
2.2902005 6.2005844 -0.98879623 0
6.4568715 -1.4156277 -0.98740935 0
5.0987563 -4.269526 0.67306018 0
5.1261997 -4.2576847 0.53409457 0
5.1335659 -4.2690253 -0.33844364 0
4.8194075 -4.2622948 1.8229718 0
5.1264882 -4.2581291 -0.55793983 0
-5.0908504 -4.1982903 1.0877192 0
5.102376 -4.2731075 -0.66515398 0
-4.2569242 5.0649767 -0.98856556 0
-0.62155008 6.5880637 -0.98582137 0
-4.8613925 -4.2059178 1.8570588 0
5.2157793 -4.0746827 -0.98438776 0
4.913722 -4.250597 1.6096187 0
2.3647051 6.1872826 -0.98746383 0
5.0972843 -4.2680693 -0.83844256 0
2.4377494 6.1639767 -0.98371255 0
5.0974932 -4.2682762 0.83848357 0
-5.0028563 -4.2071199 1.4827895 0
5.2228184 4.0848684 -0.98724604 0
5.1797447 -4.2536812 -0.15959364 0
4.9056702 -4.2628908 1.6528702 0
6.494132 1.3498075 -0.98856628 0
-4.1889224 5.1444268 -0.98654366 0
6.4977279 -1.3515484 -0.98963678 0
5.0041623 -4.2696228 1.330193 0
4.8912344 -4.2684484 1.7033017 0
6.5154724 -1.2764068 -0.9852879 0
5.1866755 -4.260345 0.17537689 0
5.1292467 -4.2623768 -0.78247511 0
-4.5415378 -4.2055855 2.6038532 0
6.521256 1.2791049 -0.98699796 0
-0.54196119 6.6246734 -0.98665273 0
5.0944629 -4.2652783 1.0044911 0
5.1932955 -4.2667093 0.0070114136 0
5.135273 -4.2716527 0.75202131 0
6.5395775 1.2046146 -0.98315227 0
6.5410328 -1.2052684 -0.98357975 0
2.513025 6.1584082 -0.98504066 0
5.1898556 -4.2634015 0.34224975 0
5.1909056 -4.264411 -0.33174449 0
5.2076426 -4.2612143 0.076013088 0
5.123796 -4.2539849 0.96861219 0
5.2947636 4.0348954 -0.98734248 0
5.1864319 -4.2601104 -0.50268185 0
-4.1256447 5.2269769 -0.98590875 0
5.1888094 -4.2623963 0.50912488 0
5.2104225 -4.2633085 0.24236882 0
-5.0035143 -4.2077289 1.6287785 0
-0.45771623 6.6495628 -0.98486161 0
4.9980164 -4.2633657 1.4979541 0
5.088294 -4.2591753 1.1709301 0
-5.0954099 -4.2004571 1.3554201 0
5.0272169 -4.267271 1.4020891 0
5.2182035 -4.2691684 -0.09343493 0
5.2104979 -4.2633648 0.40840161 0
5.3595157 -3.9750755 -0.98491311 0
5.3039732 -4.0478234 -0.99100709 0
5.360837 3.9768755 -0.98542869 0
4.8863926 -4.2645788 1.864212 0
5.1889849 -4.2625647 -0.67776954 0
2.5889337 6.155755 -0.98745525 0
6.5804019 1.1402795 -0.98621106 0
5.2315645 -4.2552643 0.31632769 0
-4.7333555 -4.2096486 2.3374519 0
4.8198128 -4.2629824 2.0476091 0
5.2075167 -4.2611194 0.57407737 0
5.1935253 -4.2669301 0.67652094 0
-4.9900227 -4.195261 1.7728972 0
5.2387352 -4.265965 0.096641064 0
6.6001306 -1.0668135 -0.98339891 0
6.5877619 -1.14346 -0.98835945 0
-4.0646615 5.3111601 -0.98611057 0
2.6624341 6.1379404 -0.9860456 0
5.18472 -4.2584648 -0.85341859 0
5.2430158 -4.2723527 -0.1242981 0
-0.37670946 6.68262 -0.98538792 0
5.2044601 -4.2588172 0.739223 0
-5.2677851 -4.2022305 0.60618854 0
5.1894703 -4.2630315 0.84392428 0
5.1267633 -4.258553 1.1883101 0
4.9923644 -4.2576118 1.6680136 0
5.0892439 -4.2601151 1.3405576 0
5.2426653 -4.2718301 -0.34610873 0
5.4310522 -3.9246938 -0.98545635 0
6.6172657 1.0739291 -0.98837054 0
5.2370691 -4.2634792 -0.56829298 0
-0.28987074 6.6994352 -0.9822191 0
-4.8696661 -4.2099962 2.1278744 0
5.2414217 -4.2699738 0.53538132 0
4.9304013 -4.2779574 1.8392544 0
5.4368191 3.9323161 -0.98766291 0
2.737143 6.1271377 -0.9868319 0
-5.2702246 -4.2043586 0.75509584 0
5.0246177 -4.2631412 1.6230435 0
5.2328858 -4.257236 0.75420809 0
6.64116 -1.0021443 -0.98705149 0
4.8817654 -4.2608814 2.0259347 0
6.6430359 1.002892 -0.98759246 0
-5.2624369 -4.197566 0.9039923 0
-5.0882177 -4.1970391 1.6237197 0
5.4982634 -3.8686221 -0.98463833 0
6.6590152 -0.92818636 -0.98430276 0
-4.9222002 -4.2058911 2.0637302 0
5.21418 -4.2661381 0.90401244 0
5.193573 -4.2669764 1.0133491 0
2.8107097 6.110322 -0.98626745 0
6.6623592 0.92946428 -0.98526204 0
5.2919188 -4.2651143 0.17120147 0
5.293725 -4.2668018 0.00062823296 0
5.2376356 -4.2643242 -0.79439437 0
5.2884684 -4.2618914 -0.34268606 0
-4.012094 5.401917 -0.98867726 0
5.1981936 -4.2540975 1.0686185 0
-5.3490667 -4.1974092 -0.2567597 0
5.2958455 -4.2687831 -0.17121637 0
5.2922363 -4.2654114 0.34092844 0
5.2845678 -4.2582469 0.51028824 0
5.0898285 -4.2606936 1.5124788 0
-5.3571701 -4.2011194 0.016423464 0
2.8835032 6.0902276 -0.9850899 0
-5.3537936 -4.1995735 0.28945017 0
-5.2604218 -4.1958079 1.0525863 0
5.1271753 -4.2591872 1.4095395 0
5.5098438 3.8834827 -0.9889878 0
-5.0030842 -4.2073307 1.9230485 0
5.2907152 -4.2639899 -0.51791394 0
5.1871309 -4.2607827 1.1823151 0
6.6946263 -0.86101943 -0.9869374 0
-3.9419823 5.479208 -0.98723423 0
-0.21393609 6.747375 -0.98695326 0
5.5707855 -3.8193018 -0.98609269 0
6.701241 0.8634389 -0.98882473 0
5.5727286 3.8217227 -0.98680937 0
-5.3569946 -4.2010388 0.56201124 0
-5.257452 -4.1932182 1.2011583 0
5.242269 -4.2712383 0.97558069 0
6.7152157 0.78828567 -0.9855684 0
-5.361022 -4.2028828 -0.53370154 0
5.2937536 -4.266829 0.68033004 0
2.9587934 6.0811524 -0.98722899 0
5.339828 -4.2541866 0.31527996 0
5.2938433 -4.266912 -0.69603157 0
5.2030535 -4.2577581 1.2336874 0
4.9250259 -4.2691398 2.0635262 0
-0.128021 6.7662706 -0.98488593 0
4.8812256 -4.2604499 2.1896093 0
-4.8434434 -4.1970692 2.393436 0
3.0302749 6.0559664 -0.98522127 0
6.7251649 -0.79176432 -0.98839259 0
5.0246077 -4.2631249 1.8477969 0
5.3488407 -4.2672286 -0.12913656 0
6.7387404 -0.7166695 -0.98532987 0
-3.8774791 5.5608525 -0.98746073 0
5.2928739 -4.2660069 0.85066974 0
5.3488073 -4.26718 -0.35296917 0
6.7430973 0.71812302 -0.98656058 0
5.6400356 3.7657101 -0.98659408 0
5.1921072 -4.2655668 1.3556123 0
5.3564329 -4.2782145 0.092639923 0
-5.0022135 -4.2065263 2.0716109 0
-4.7284417 -4.2057338 2.6428256 0
5.2373552 -4.2639055 1.1963372 0
5.3441243 -4.2604032 -0.57743013 0
5.3470263 -4.2646027 0.53634095 0
-5.3612113 -4.2029696 -0.81190121 0
5.6455755 -3.7724149 -0.98860204 0
-5.0895405 -4.1976676 1.8962772 0
-5.3631382 -4.2038522 0.83532047 0
5.301156 -4.2737446 -0.87888062 0
3.1049762 6.0435972 -0.98704398 0
5.1017179 -4.2724562 1.6915138 0
6.765698 -0.64615458 -0.98634648 0
3.1740963 6.0107131 -0.98345876 0
5.3412457 -4.2562375 0.75735998 0
5.2916803 -4.2648916 1.0219164 0
5.2084808 -4.2618456 1.3994484 0
-0.047641516 6.8024397 -0.98729575 0
5.1343088 -4.2701693 1.6356812 0
-4.9096661 -4.1961961 2.3675528 0
-5.2727919 -4.2065973 1.3515689 0
6.7769127 0.64971882 -0.98949957 0
-3.8118176 5.6415901 -0.98769093 0
5.3966236 -4.2662964 0.16712296 0
-5.3457713 -4.1959004 1.1078424 0
5.3997641 -4.2691474 -0.18063289 0
5.7125053 -3.7157805 -0.98851025 0
6.7979541 0.49849886 -0.9831773 0
5.7132092 3.7166073 -0.98876095 0
6.7929602 0.57560223 -0.98772717 0
5.7640877 -3.6416085 -0.98332787 0
5.1902151 -4.2637477 1.5295634 0
6.7962923 -0.57660908 -0.98865998 0
5.2861605 -4.2597346 1.1935856 0
5.2334433 -4.2580676 1.4186611 0
5.3937664 -4.2637033 0.51175487 0
-5.2617912 -4.1970029 1.5001554 0
5.4026213 -4.2717414 -0.35704279 0
5.4095354 -4.2780175 -0.0074898005 0
5.1985741 -4.254384 1.5642738 0
5.384798 -4.2555618 0.68343997 0
5.3553004 -4.2765756 -0.80923152 0
0.035514474 6.8301854 -0.9879477 0
5.4070554 -4.2757664 0.33933175 0
-3.7396865 5.7167764 -0.98655343 0
5.3984761 -4.2679782 -0.53384769 0
3.2519329 6.0083427 -0.98866618 0
6.8152995 -0.50346965 -0.98801208 0
6.8220234 0.4270553 -0.9842478 0
5.3921614 -4.2622461 -0.71199918 0
6.8286681 -0.42885715 -0.98609269 0
5.0268564 -4.2666984 2.0773392 0
5.3497152 -4.2684937 0.98067093 0
5.7814093 3.6613901 -0.98939824 0
3.32442 5.98702 -0.98888683 0
0.12043953 6.8518701 -0.98743141 0
5.3906927 -4.2609129 0.85666323 0
5.4574637 -4.2632709 0.090239644 0
6.847158 0.35575038 -0.98589242 0
5.8392177 -3.5944979 -0.98671663 0
5.8393302 3.5946224 -0.98675537 0
5.1320858 -4.2667465 1.8618693 0
3.3949914 5.9597626 -0.98772621 0
5.2927103 -4.2658539 1.3698444 0
6.8559008 -0.35798723 -0.98831058 0
5.4635763 -4.2718511 -0.13523352 0
5.3424964 -4.2580476 1.203006 0
5.4593773 -4.2659569 -0.36064446 0
5.2301989 -4.2532268 1.6431975 0
5.3851495 -4.2558808 1.0296092 0
-3.6798253 5.8027463 -0.98888075 0
5.4637051 -4.2720313 0.31378293 0
5.1990747 -4.272265 1.7101541 0
5.4557819 -4.2609105 0.53737855 0
3.4666724 5.9360476 -0.98784959 0
5.4026947 -4.2718081 -0.89854312 0
5.4552045 -4.2600994 -0.5874964 0
6.8704281 0.28380018 -0.98729944 0
-5.1202188 -4.2037578 2.0940928 0
-5.2755098 -4.2089686 1.6525435 0
-5.3594937 -4.2021832 1.3848951 0
-5.0949225 -4.2002258 2.1737008 0
3.5353055 5.903821 -0.98584008 0
5.9046783 -3.5363176 -0.98700154 0
5.211729 -4.2642922 1.732615 0
-3.6005678 5.8713484 -0.98643661 0
6.8810282 -0.28635103 -0.99022067 0
5.4992638 -4.2626686 -0.012444615 0
5.9090095 3.5409873 -0.98847187 0
0.20212448 6.88585 -0.9901402 0
6.8867416 0.21011096 -0.98707426 0
5.4969563 -4.2606335 0.33833838 0
6.8899951 -0.21084481 -0.98796785 0
5.5031052 -4.2660565 0.16297257 0
5.4568424 -4.2623987 0.76110411 0
5.5063944 -4.2689576 -0.19037431 0
0.29022956 6.8950548 -0.9872297 0
3.6080275 5.8829765 -0.98736072 0
5.9663062 3.4740455 -0.98628128 0
5.4954233 -4.2592812 -0.54676402 0
5.504632 -4.2674031 -0.36862528 0
6.9039888 -0.13662714 -0.98739469 0
5.2966857 -4.269568 1.5483296 0
5.4611669 -4.2684689 -0.81976187 0
0.37871134 6.9010825 -0.98387563 0
6.9102397 0.13794333 -0.98910642 0
5.9720917 -3.4801066 -0.9882158 0
-5.5490427 -4.1961827 0.5963794 0
-5.2731819 -4.2069383 1.8036201 0
5.3956256 -4.2653904 1.2069464 0
3.6777325 5.8539987 -0.98684621 0
5.1270757 -4.2590337 2.090076 0
5.4949989 -4.2589073 0.68786085 0
5.5089521 -4.2712135 0.51334071 0
-5.544219 -4.1922131 0.75041747 0
5.3494558 -4.2681174 1.430315 0
6.9214325 0.063131154 -0.98805559 0
3.7457652 5.8210554 -0.98546827 0
-3.5350728 5.952527 -0.98790598 0
6.9235864 -0.01321733 -0.98483825 0
5.2798104 -4.2538028 1.7224534 0
-4.9123387 -4.1982632 2.6803496 0
3.8120246 5.7843037 -0.98325467 0
5.2120152 -4.2645073 1.9003789 0
6.0304141 3.4143999 -0.98668444 0
-5.603641 -4.1875906 0.28555763 0
6.9320455 0.011687577 -0.98714173 0
6.9317198 -0.065144002 -0.9908644 0
-5.3520384 -4.1987696 1.6617031 0
5.4626675 -4.2705755 0.98649645 0
-5.2583265 -4.1939807 1.9528112 0
-3.450459 6.0153913 -0.98451817 0
5.5590363 -4.2613201 -0.13145816 0
6.0350122 -3.419081 -0.98819935 0
5.5076246 -4.2700429 -0.73306513 0
-5.5435581 -4.1916695 0.90399837 0
5.3904419 -4.260685 1.3831384 0
6.9393325 -0.086975515 -0.98561764 0
-5.6227751 -4.1960225 0.0038352013 0
5.5029659 -4.265934 0.86427641 0
5.5613718 -4.2629762 0.38861239 0
5.2425408 -4.2716441 1.8768573 0
5.5689268 -4.2602897 0.31287265 0
6.9474039 0.16199559 -0.98460197 0
5.5527391 -4.2568545 0.56121814 0
5.5003004 -4.2635832 -0.91656387 0
6.9520178 0.084868491 -0.98906326 0
5.5717697 -4.2703505 0.21474838 0
5.5746403 -4.2723861 0.04061079 0
5.5768337 -4.2710581 0.086242676 0
6.094049 -3.3541906 -0.98720753 0
-5.1031098 -4.1909108 2.402334 0
5.5724783 -4.2651262 -0.36870056 0
6.095387 3.3555143 -0.98764193 0
5.5787868 -4.2737188 -0.1412732 0
5.5673828 -4.2581863 0.53848171 0
0.45874012 6.9446559 -0.98969603 0
3.8889723 5.7721171 -0.9885087 0
-5.6312661 -4.1997643 -0.27936572 0
3.9529452 5.7304845 -0.98542941 0
5.4580011 -4.2640252 1.2117531 0
6.9588161 -0.23646462 -0.98478246 0
6.9675822 -0.15894014 -0.99007034 0
-3.3826861 6.094481 -0.98596537 0
5.3485613 -4.2668238 1.6583273 0
-5.6252122 -4.1970963 0.56625378 0
6.1505518 -3.2870095 -0.9857173 0
5.5051212 -4.2678347 1.0415657 0
6.9681687 0.31122053 -0.9846946 0
5.5617256 -4.263227 0.73245573 0
-5.6300826 -4.1992426 -0.56365436 0
5.3908844 -4.2610869 1.5630009 0
6.9772243 0.2339462 -0.98976088 0
-5.5602379 -4.2053952 1.058063 0
4.0250673 5.7065639 -0.98786402 0
-5.102458 -4.2038074 2.4566922 0
5.6130614 -4.2657895 -0.2000035 0
5.6096101 -4.2628322 0.33682919 0
5.2202702 -4.2707248 2.0709014 0
-5.2641544 -4.1990638 2.1073985 0
0.63468528 6.9581299 -0.9848038 0
6.9769387 0.38604522 -0.98473859 0
0.54401445 6.9657016 -0.99046671 0
5.5813308 -4.2771835 -0.60139632 0
4.0907326 5.6690454 -0.98655438 0
5.6129518 -4.2656956 -0.3813957 0
5.5735493 -4.2665854 0.76486647 0
5.6198473 -4.2716045 0.15816438 0
5.4972467 -4.2608891 1.2184656 0
5.6227694 -4.2741079 -0.02125603 0
6.9867501 -0.30894876 -0.98971045 0
5.6092176 -4.262496 0.51456165 0
6.1658435 3.3017108 -0.99061453 0
6.9812512 -0.46130607 -0.98387134 0
4.156724 5.6324306 -0.98578978 0
6.9893594 -0.38470685 -0.98808587 0
-5.5565224 -4.2023382 1.21207 0
-3.3114495 6.1703305 -0.98678029 0
-5.6277986 -4.198236 0.84785235 0
6.2151632 -3.2276328 -0.98711467 0
5.2362366 -4.2622366 2.1069012 0
5.4581814 -4.2642784 1.4397089 0
5.6144676 -4.2669945 -0.56521153 0
6.9910121 0.4603954 -0.98649788 0
6.2173553 3.2296803 -0.98780715 0
5.5797758 -4.2750654 -0.83431268 0
-5.6339417 -4.200943 -0.8511734 0
-5.3565607 -4.20084 1.9435751 0
5.5743265 -4.2721634 0.90402091 0
5.5548983 -4.2583857 1.0753903 0
6.267312 3.1566837 -0.98487484 0
5.6148796 -4.2673473 0.69289267 0
6.998518 0.53546757 -0.98677659 0
5.5731721 -4.2660713 0.99184299 0
4.2272053 5.6043706 -0.98790336 0
7.0001726 -0.53533709 -0.98722112 0
0.71874666 6.9854012 -0.98761833 0
5.2083311 -4.2617331 2.2384543 0
-3.2308331 6.2364173 -0.98525262 0
5.3927126 -4.2627468 1.7463307 0
6.9971766 0.61115569 -0.98496783 0
5.6151476 -4.2675772 -0.75142598 0
6.2745619 -3.163265 -0.98713529 0
5.3487139 -4.2670441 1.8897705 0
-5.5563536 -4.2021995 1.3665087 0
-5.6164742 -4.1932459 1.1293514 0
5.5024309 -4.2654619 1.3999803 0
7.0025015 -0.68633163 -0.98523974 0
4.2958403 5.5724678 -0.98916507 0
5.6151609 -4.2675886 0.87177932 0
4.356864 5.5269322 -0.98653257 0
5.6093202 -4.2625837 -0.93843436 0
7.0083604 0.6860379 -0.98681152 0
-5.3271966 -4.2025905 2.1263032 0
5.6882401 -4.2646694 -0.14636093 0
0.80514753 6.9999819 -0.98774302 0
4.4215813 5.4881778 -0.98625827 0
7.0215816 -0.60958171 -0.99152076 0
5.6891847 -4.2659178 0.31153941 0
5.6931829 -4.2712035 0.082592607 0
6.3326545 -3.0977185 -0.98703921 0
7.0036883 -0.83705097 -0.98411274 0
5.4563475 -4.261704 1.6695471 0
-5.5496855 -4.196712 1.5206552 0
5.4896221 -4.2541647 1.5789232 0
7.0123906 -0.76138866 -0.98702395 0
5.5726032 -4.2652965 1.2201264 0
6.336287 3.1009223 -0.98815739 0
-3.1566606 6.3092504 -0.9858278 0
5.5672722 -4.2671609 1.2476535 0
4.485343 5.4478831 -0.98578763 0
7.0192227 0.7611441 -0.98885572 0
0.89248919 7.0081029 -0.98665023 0
6.3847551 -3.0270295 -0.98540962 0
5.6986837 -4.2784748 -0.3792752 0
6.3861637 3.0282364 -0.98583782 0
5.619453 -4.2712665 1.0524368 0
7.0091715 0.9123162 -0.98529327 0
5.6898289 -4.2667694 -0.61034322 0
5.7227812 -4.2622228 -0.21001363 0
5.69526 -4.2739491 0.5400362 0
4.5522475 5.4126472 -0.98720193 0
5.7205238 -4.260344 -0.39386588 0
5.6032052 -4.2573438 1.2307627 0
5.5610723 -4.2627645 1.419405 0
7.030673 0.83647156 -0.99134493 0
-5.1096568 -4.195827 2.7220056 0
5.7278767 -4.2664638 0.33521116 0
5.7330675 -4.2707844 0.15365875 0
7.0132184 -0.98771274 -0.98637748 0
-3.0797167 6.3791232 -0.98590374 0
7.0243583 -0.91220754 -0.9893626 0
5.3416653 -4.2568455 2.1216009 0
5.7359385 -4.2731743 -0.028767824 0
7.0054088 -1.062986 -0.98457384 0
-5.3495135 -4.1976137 2.226712 0
6.4417958 -2.9606917 -0.98558879 0
4.6198773 5.378222 -0.9891932 0
4.6777496 5.3288255 -0.98668551 0
5.7267361 -4.2655149 0.51616287 0
5.6883354 -4.2647953 -0.84532249 0
7.0014224 1.1382188 -0.98408306 0
0.97858727 7.0251632 -0.98793066 0
6.4451351 2.9634714 -0.98659182 0
7.0243273 0.98779225 -0.98935425 0
5.695961 -4.2748756 0.76904869 0
6.9917212 -1.2131279 -0.98234761 0
-5.5560122 -4.2019181 1.677038 0
4.7384019 5.2838964 -0.98587632 0
7.0056424 -1.1383698 -0.98521447 0
4.7949915 5.2333865 -0.98350716 0
7.0196128 1.063291 -0.98838067 0
5.5754051 -4.2691121 1.4512105 0
5.4946194 -4.2585721 1.765934 0
-5.6382113 -4.2028246 1.4161448 0
5.7342415 -4.2717619 -0.58359694 0
1.0665407 7.0271597 -0.98599625 0
-2.9993505 6.4450808 -0.98525798 0
6.4983296 2.8938928 -0.98589909 0
5.7265615 -4.2653694 -0.77074909 0
7.0121946 1.2141544 -0.98784029 0
7.0000954 -1.2890325 -0.98575151 0
6.5016861 -2.8966062 -0.98689556 0
5.6928349 -4.2707429 0.99842715 0
5.4605207 -4.2675619 1.904695 0
5.737011 -4.2740664 0.69800997 0
5.7980576 -4.2533479 0.079987526 0
6.9919724 1.3640161 -0.98501718 0
5.6140451 -4.2666326 1.4165032 0
5.5672731 -4.2671614 1.592782 0
6.9938841 -1.3641669 -0.98553097 0
6.5457749 2.8198876 -0.98382068 0
4.8684692 5.2062798 -0.9891603 0
-5.5508938 -4.1977062 1.8325732 0
7.0110998 1.2897422 -0.98870623 0
5.7288771 -4.2672963 0.87936389 0
1.1533058 7.0391192 -0.98666763 0
5.7236171 -4.2629185 -0.9618907 0
4.9270568 5.1584635 -0.98826849 0
5.8007078 -4.2567492 0.31048083 0
6.9902005 -1.4395289 -0.98627961 0
-5.3247285 -4.2007914 2.4448249 0
6.9643693 -1.588315 -0.98366892 0
6.5609779 -2.8318222 -0.9882828 0
6.9847708 1.5147986 -0.98684919 0
5.8124075 -4.2717633 -0.15346909 0
7.0010929 1.4405452 -0.98921096 0
-5.847744 -4.1881776 0.58574784 0
5.0454483 5.0646787 -0.9879452 0
5.1521215 4.9570351 -0.98391736 0
4.9914446 5.1182203 -0.99022257 0
5.7254257 -4.2644238 1.061836 0
5.5549889 -4.2584496 1.7646196 0
5.6909647 -4.268271 1.229104 0
5.8034148 -4.2602234 0.54099596 0
5.5744157 -4.267765 1.6839521 0
6.9740424 1.5894976 -0.9862802 0
-2.9311562 6.5254407 -0.98856688 0
1.2404832 7.0473113 -0.98675334 0
6.9940066 -1.5157939 -0.98933828 0
6.9612765 -1.663872 -0.98544776 0
-5.6283498 -4.1984792 1.7016056 0
6.6068902 -2.756602 -0.9860419 0
5.1055512 5.0188766 -0.98859811 0
5.2130122 4.9122829 -0.98549998 0
6.6105857 2.7594185 -0.98711467 0
5.6140842 -4.2666664 1.6025028 0
-2.8400741 6.5785003 -0.98523998 0
5.840456 -4.2620664 -0.22117275 0
-5.5479898 -4.1953163 1.9892917 0
5.8196959 -4.281117 -0.38858151 0
5.843821 -4.2647872 0.14937043 0
6.9736338 1.6655626 -0.9887898 0
5.2697792 4.8626795 -0.98566568 0
6.9568248 1.7394309 -0.98715508 0
5.4518867 -4.2554426 2.1382575 0
5.8496881 -4.2695298 -0.036260068 0
6.9624577 -1.740284 -0.98868155 0
6.9442201 -1.8138363 -0.98694527 0
6.9055743 -1.9600284 -0.98372591 0
6.657217 -2.6849711 -0.98540342 0
5.8469701 -4.2673326 0.3335942 0
5.8164129 -4.2769036 -0.62382638 0
5.8390417 -4.2609234 0.51762772 0
5.808722 -4.2670341 0.7723217 0
6.9501166 1.8148156 -0.98854685 0
1.3273809 7.0600314 -0.98817575 0
6.6619277 2.6884561 -0.98675621 0
5.7290154 -4.2674117 1.2470155 0
6.9324031 1.8883771 -0.987239 0
6.8917108 -2.0340419 -0.98403287 0
-5.8655214 -4.2019711 0.74443936 0
5.3316903 4.8185735 -0.98813784 0
-5.3537555 -4.1995559 2.5172324 0
5.3846149 4.764648 -0.9873327 0
-5.9177923 -4.1958947 0.28046632 0
5.854434 -4.2733665 -0.4115724 0
6.9402142 -1.8897896 -0.98936594 0
6.920445 1.9629378 -0.98778605 0
5.810421 -4.2692142 -0.86045623 0
5.4373903 4.7106709 -0.98677933 0
5.6907854 -4.2680345 1.4619942 0
-5.9196849 -4.1966968 -0.30242288 0
-5.9286985 -4.2005157 -0.010975838 0
5.5387025 4.5987816 -0.98499191 0
-5.9097157 -4.1924729 0.5707804 0
6.8175392 2.3258395 -0.9830029 0
6.8868213 -2.1101289 -0.98709619 0
6.8422241 2.2544882 -0.98452795 0
-5.5342293 -4.1956215 2.1582062 0
5.4944787 4.6610227 -0.98815286 0
-5.8662548 -4.2025409 0.90400577 0
6.8439403 -2.2549272 -0.98500252 0
5.6128235 -4.2655854 1.7910705 0
6.9123759 2.038393 -0.98969138 0
6.8684616 2.183327 -0.9867574 0
5.8564329 -4.2749825 -0.6023581 0
-2.7686753 6.6556945 -0.98825634 0
6.7162919 2.6196952 -0.98755026 0
5.8505073 -4.2701921 0.70248008 0
6.8711777 -2.1839805 -0.98750591 0
-5.916429 -4.1953173 -0.59573817 0
6.717689 -2.620698 -0.98794734 0
5.6898961 4.4308057 -0.9843024 0
5.5754442 -4.269166 1.9205449 0
1.414404 7.0740361 -0.9901818 0
5.5983653 4.5514045 -0.98786306 0
5.847477 -4.2677426 -0.79268003 0
5.8126926 -4.2721291 1.0049095 0
5.7289982 -4.2673974 1.4336708 0
6.9028783 2.1137507 -0.9915067 0
5.6495194 4.4958687 -0.98786521 0
6.8353996 -2.3306823 -0.98796141 0
6.7859898 -2.4734962 -0.98577607 0
5.8790679 -4.1965194 -0.98310018 0
-5.6200519 -4.1948223 1.9898167 0
5.8350439 -4.2576914 -0.98408687 0
5.5771351 -4.2741547 1.9426265 0
6.7605424 2.5437498 -0.98576951 0
-5.8636942 -4.2005534 1.0635183 0
6.7349591 2.6154079 -0.98426187 0
6.8149371 2.4033656 -0.98791099 0
-5.5592651 -4.2045951 2.1504984 0
6.7099447 -2.6864429 -0.98407221 0
5.9690871 -4.0759306 -0.98269844 0
5.8390937 4.2609653 -0.98548222 0
1.5023808 7.0706019 -0.9884454 0
6.817275 -2.4040358 -0.9885627 0
6.6547446 -2.8265548 -0.98307788 0
5.8502941 -4.27002 0.88772821 0
5.9287338 4.13976 -0.98432148 0
-5.9111605 -4.1930852 0.8613776 0
6.7941279 2.475955 -0.98805404 0
5.7525177 4.3852854 -0.98896337 0
6.7692943 -2.549844 -0.98823166 0
5.931685 -4.1420093 -0.9853158 0
-7.1720057 0.95002365 -0.98635948 0
6.7721686 -2.5482111 -0.98816574 0
6.7460523 -2.6191089 -0.98739529 0
5.6853266 -4.260818 1.6957529 0
6.0193477 4.0194073 -0.98466265 0
-7.1765108 -0.95002365 -0.98707283 0
1.5902748 7.0626006 -0.9859457 0
5.9303284 -4.2673278 0.07511282 0
5.802608 4.3286662 -0.98942876 0
-2.6884151 6.7221117 -0.98885059 0
6.7222829 2.6907568 -0.98757446 0
6.5739827 3.0375056 -0.98433733 0
6.4770932 -3.2415595 -0.98349404 0
5.9376688 -4.25982 -0.17518485 0
5.8945084 4.2086401 -0.98835993 0
6.8092813 -2.4710803 -0.98556066 0
5.8414884 -4.2629013 1.0727358 0
6.780241 2.5507765 -0.99043536 0
6.6977949 -2.7621784 -0.98784137 0
6.0680671 -3.9615359 -0.98636961 0
6.6404805 -2.9018734 -0.98685539 0
5.9427204 -4.2631888 0.0057723522 0
-5.8621187 -4.1993313 1.2231112 0
6.5153666 -3.1763575 -0.98525667 0
6.6718082 2.8330746 -0.9879725 0
6.4483886 3.3113704 -0.98486614 0
6.4825282 3.2441905 -0.98511195 0
5.9357753 -4.2741151 -0.16032553 0
6.3794856 3.4453928 -0.98505151 0
6.2690082 3.6426339 -0.98533487 0
6.2691479 -3.6427169 -0.98537838 0
5.8114395 -4.2705216 1.238332 0
6.2311211 3.7078128 -0.98568499 0
6.5178738 3.177527 -0.98599792 0
6.1529837 3.8368497 -0.98652804 0
6.7036862 2.7643332 -0.98952234 0
-7.1712666 -1.0776234 -0.98638701 0
-7.1712923 1.0776237 -0.98639107 0
5.98804 4.089951 -0.98901534 0
6.5513535 3.1099048 -0.98661137 0
5.9344645 -4.2724819 0.30881715 0
6.1540341 -3.8375373 -0.98686445 0
6.6152129 2.9730766 -0.98777485 0
6.8168435 2.4761872 -0.98766732 0
6.3816986 -3.4465837 -0.98572493 0
6.5523 -3.1103301 -0.98688936 0
6.4174175 3.3801856 -0.98586476 0
5.9324269 -4.2699428 -0.39609122 0
-5.9281726 -4.2002931 -0.89391172 0
6.1945119 -3.7738647 -0.98673856 0
6.0323539 -4.0287433 -0.98895252 0
6.1961226 3.7748868 -0.98724973 0
6.3485184 -3.5143967 -0.98665309 0
5.9429026 -4.2633109 0.36662066 0
6.5874605 -3.04333 -0.98827147 0
5.7276769 -4.2662973 1.622484 0
6.6200104 -2.9750688 -0.98916674 0
6.3137188 -3.581409 -0.98738694 0
6.3141031 3.5816302 -0.98750579 0
6.4577699 -3.3160787 -0.98767865 0
-2.6001086 6.777915 -0.98714542 0
6.4231782 -3.3831809 -0.98760462 0
6.6524587 2.9066477 -0.99031043 0
5.9521103 -4.2694507 0.18554282 0
6.3523526 3.5165315 -0.98782885 0
-5.3262606 -4.2019081 2.7696354 0
6.23985 -3.713177 -0.98843026 0
6.1221075 3.9070196 -0.99004984 0
5.9327011 -4.2702847 0.54253352 0
6.0815468 3.9709227 -0.99077094 0
6.1238074 -3.9081676 -0.99059939 0
-7.1647797 1.2050897 -0.98579323 0
-5.8551521 -4.1939259 1.3824806 0
5.5731354 -4.2713189 2.1178007 0
5.9620256 -4.2616415 0.33208537 0
5.9655614 -4.2644172 -0.2333675 0
6.8624372 2.4013121 -0.98686099 0
5.932754 -4.2703505 -0.63444233 0
5.8391194 -4.2609863 1.2598534 0
5.9464092 -4.2656493 0.54588425 0
5.9700422 -4.2679348 -0.044409037 0
1.677645 7.0761795 -0.98871934 0
5.9704432 -4.2682495 0.14406681 0
-7.1745386 -1.2053691 -0.98733962 0
6.8667336 -2.4041247 -0.98804653 0
-5.9153662 -4.1948671 1.1534123 0
5.5729942 -4.2658291 2.1595306 0
5.9294953 -4.2662897 0.77621722 0
1.7652854 7.0641594 -0.98587191 0
6.9024148 2.3229711 -0.98482084 0
-2.5159492 6.8390603 -0.98704422 0
-7.164834 1.3327557 -0.9865253 0
5.9629688 -4.262382 -0.61702943 0
5.9496222 -4.2677917 0.72496402 0
6.9108391 -2.3283155 -0.98712409 0
5.9608307 -4.2607031 0.70669258 0
5.8115315 -4.2706394 1.4739685 0
5.551959 -4.2563014 2.2901247 0
-7.1736345 -1.3331339 -0.98792052 0
5.9795079 -4.2753649 -0.42726421 0
5.975224 -4.2720022 0.51960742 0
5.9337897 -4.2716408 -0.87570131 0
5.9226141 -4.2577152 1.0098858 0
-5.8559303 -4.19453 1.5428743 0
-2.4243741 6.8896475 -0.9847244 0
-7.158659 -1.4602234 -0.98655951 0
5.9616728 -4.2613645 -0.81238377 0
5.6915388 -4.2690301 1.9365368 0
-5.5342007 -4.1956015 2.4834135 0
6.9551435 2.2527418 -0.98655891 0
5.7351885 -4.2725496 1.8173246 0
-7.1654139 1.4606106 -0.98763108 0
-5.6268334 -4.1978106 2.2851338 0
5.9540377 -4.2707362 0.90402973 0
6.9608717 -2.2562621 -0.98811114 0
-7.1437979 -1.587101 -0.98550403 0
1.85309 7.0800433 -0.98975658 0
5.8502312 -4.269969 1.4522078 0
-7.1493397 1.5874982 -0.98638391 0
6.9951925 2.1746969 -0.98514724 0
5.9466114 -4.2657838 1.0830112 0
5.9547057 -4.2558951 1.0830729 0
1.940603 7.0713601 -0.98825836 0
5.8041878 -4.2612152 1.7098851 0
6.0505753 -4.2625461 0.071327806 0
7.0042949 -2.1801126 -0.98759246 0
-5.9242463 -4.1986294 1.4481804 0
-5.8583612 -4.1964154 1.7042572 0
-2.3435163 6.9554148 -0.98630595 0
5.9810886 -4.2766061 0.89703751 0
-7.1396313 1.7147338 -0.98643589 0
-7.1422024 -1.7149551 -0.98684454 0
2.0278332 7.0602088 -0.98647833 0
6.0537624 -4.2664032 0.30758452 0
6.0516253 -4.2638168 -0.40474999 0
7.0420828 2.1007721 -0.98586857 0
5.9325552 -4.2701025 1.2475164 0
6.0597339 -4.2736292 -0.16714084 0
7.0481372 -2.1042578 -0.98748136 0
-2.252439 7.0061541 -0.9846437 0
-7.1264248 -1.8416536 -0.98622072 0
5.8510337 -4.2706175 1.6451359 0
5.9487886 -4.2672358 1.2623091 0
-7.1335878 1.8423736 -0.98736095 0
7.0856152 -2.0248547 -0.98597753 0
6.0910997 -4.263504 -0.052549541 0
2.1154816 7.0592604 -0.98734522 0
6.0916586 -4.2639298 0.13918042 0
6.0610666 -4.2752423 0.54401553 0
7.0875711 2.0259438 -0.98649442 0
6.0556927 -4.2687387 -0.64654005 0
-5.8553467 -4.194077 1.8656962 0
5.6914153 -4.2688665 2.1791456 0
-7.108778 1.9680498 -0.98558664 0
6.0513692 -4.2635069 0.78013742 0
5.9660854 -4.2648287 1.2759614 0
5.9247732 -4.2604055 1.4838228 0
7.1226287 1.9453926 -0.98466265 0
-7.1171618 -1.9690139 -0.98692322 0
2.2025752 7.049273 -0.98641074 0
6.1011705 -4.2711792 0.33006227 0
-5.9124174 -4.1936178 1.7426014 0
-2.1677327 7.0664415 -0.98550189 0
6.1053224 -4.274343 -0.24768722 0
7.1324229 -1.9506645 -0.98723054 0
6.0560832 -4.2692113 -0.89034605 0
-5.7671943 -4.2007093 2.1959333 0
5.844429 -4.2652783 1.8387203 0
6.102479 -4.2721763 0.52136636 0
-7.1010866 -2.0956461 -0.98683 0
5.9566317 -4.2724667 1.442595 0
6.1100302 -4.2779312 -0.44386518 0
5.8121791 -4.2714705 1.9539459 0
-7.1048365 2.0961318 -0.9874289 0
6.1001902 -4.270432 -0.63908541 0
