# .PCD v0.7 - Point Cloud Data file format
VERSION 0.7
FIELDS x y z intensity
SIZE 4 4 4 4
TYPE F F F F
COUNT 1 1 1 1
WIDTH 1411
HEIGHT 1
VIEWPOINT 0 0 0 1 0 0 0
POINTS 1411
DATA ascii
-4.0534453 -2.9303172 -0.98854363 0
-2.86514 -3.9477732 1.4908478 0
3.1175089 -4.0382733 0.010666847 0
2.7317166 -4.040451 1.5051656 0
3.1181765 -4.0397735 -0.10992706 0
2.8662972 -4.0543113 1.1878312 0
2.9271183 -4.0474262 1.0562842 0
-3.202857 -3.941061 0.52659535 0
-2.0695605 4.5636282 -0.98191071 0
-3.1190538 -3.9407704 0.90394592 0
-4.0086966 3.0074229 -0.98466647 0
-3.1081438 -3.9246621 1.0142906 0
2.9660211 -4.0496387 0.95344424 0
3.11835 -4.040164 0.24844408 0
-3.0505114 -3.9434633 1.119648 0
3.0016129 -4.0422444 0.87612236 0
2.7774491 -4.0495119 1.4180737 0
3.1166985 -4.0364523 -0.35421437 0
-2.6072402 -3.9472821 1.9380419 0
3.0731418 -4.0575604 -0.47999644 0
3.0150421 -4.0434613 0.8363688 0
3.068819 -4.0474582 0.60226786 0
2.7011352 -4.0395465 1.5986547 0
2.9103208 -4.0371547 1.1876419 0
2.5444634 -4.0356688 1.8506236 0
3.0644081 -4.0371499 0.71947861 0
2.8614056 -4.0407882 1.3063881 0
-4.0216999 -3.012074 -0.98785472 0
3.1295373 -4.0449505 0.27253497 0
-2.9661951 -3.9548652 1.3416083 0
-3.1961555 -3.9370086 0.72822189 0
3.1212564 -4.0466962 0.36653793 0
3.1260829 -4.0575433 0.12812781 0
3.1261652 -4.0411401 0.40012002 0
3.0771465 -4.0394878 0.69636869 0
-2.9061608 -3.946661 1.5009289 0
3.0832887 -4.0624661 0.51626468 0
-2.8089428 -3.9537392 1.6607509 0
-3.2042036 -3.9418752 -0.69818139 0
3.0137894 -4.0404139 0.95491529 0
2.9323175 -4.0505109 1.1497808 0
3.1206355 -4.0453 -0.48207563 0
3.1211166 -4.046382 0.48485601 0
2.966836 -4.0517044 1.0738156 0
-2.9576426 -3.9414222 1.4500561 0
2.6272781 -4.039485 1.7834415 0
3.1188567 -4.0328813 0.6531018 0
-3.9863181 -3.0923991 -0.98655355 0
-3.9875298 3.0928521 -0.98685229 0
2.926949 -4.0467114 1.2389979 0
3.1569543 -4.0500789 0.33500266 0
2.9237006 -4.0401917 1.272084 0
-3.0416675 -3.9379411 1.3191984 0
3.121989 -4.0483422 0.60342491 0
2.7363193 -4.0462956 1.6278994 0
2.9619584 -4.0393386 1.1924071 0
3.1771567 -4.0520191 0.0061045885 0
-3.1943555 -3.9359202 -0.90649247 0
-3.2803173 -3.9310784 0.56517065 0
3.0034451 -4.0495143 1.0587585 0
3.1777945 -4.0533986 -0.11579269 0
3.0711598 -4.0529289 0.84010613 0
3.1771004 -4.0518975 -0.2385357 0
3.1791444 -4.0563197 0.12630773 0
3.1744413 -4.046144 -0.36175871 0
3.1705096 -4.0376377 0.48507309 0
-2.806107 -3.948987 1.7702043 0
-2.0351334 4.6350732 -0.98852849 0
3.0786452 -4.045095 0.8780576 0
-3.1240034 -3.9480789 1.1260741 0
-2.9524822 -3.9333117 1.5592408 0
2.853869 -4.0566192 1.4225373 0
3.1213484 -4.0469027 0.72225308 0
3.1571395 -4.0507336 0.51640904 0
-2.4981637 -3.9643919 2.1651421 0
3.066613 -4.0423026 0.95842743 0
3.1739559 -4.0450935 -0.4879266 0
3.1783462 -4.0545926 0.36600077 0
3.1814184 -4.0612397 0.24607289 0
3.0183985 -4.0516262 1.0775459 0
3.1463542 -4.0639539 0.5244298 0
2.7775786 -4.0501375 1.6045036 0
-3.9556074 3.1743934 -0.98668694 0
3.1271994 -4.0423088 0.77830791 0
2.9193497 -4.0610404 1.3168635 0
-3.2847881 -3.937288 0.6779443 0
2.7002811 -4.0350971 1.7858353 0
2.9221125 -4.0262933 1.4197567 0
-3.3490815 -3.9307933 0.32270265 0
-3.962739 -3.177177 -0.98845446 0
-3.2137733 -3.9476624 0.93252635 0
-2.7676468 -3.9496288 1.8772631 0
3.2277522 -4.0444117 -0.11787605 0
2.7282405 -4.0360365 1.7484167 0
2.9609914 -4.0368876 1.314846 0
-1.9755833 4.6823292 -0.98609054 0
-3.3627 -3.9387648 -0.091925979 0
3.2302454 -4.0496087 0.0035951138 0
-3.3628621 -3.9388597 0.1156199 0
3.0142159 -4.0414515 1.1973667 0
2.9263871 -4.0434089 1.3958066 0
3.1764557 -4.0505023 0.60470712 0
-2.9022465 -3.9441383 1.7016892 0
-2.8703294 -3.9532888 1.734395 0
3.1705275 -4.0376759 0.72329521 0
-2.7338986 -3.9468715 1.9575486 0
-3.1244879 -3.9487941 1.2375002 0
3.2308445 -4.050858 0.24546158 0
3.0771627 -4.0395489 1.059849 0
-3.2845111 -3.9369032 0.79101861 0
3.232971 -4.0552907 0.12438285 0
-3.3630033 -3.9389422 -0.30079693 0
3.228096 -4.0451283 -0.36682403 0
3.2321649 -4.0536103 -0.24339712 0
3.2338438 -4.0476875 0.3346684 0
3.159801 -4.0601478 0.69856131 0
3.0685153 -4.0467482 1.0804398 0
3.0034561 -4.0495577 1.2423134 0
3.127167 -4.0599799 0.84365022 0
3.2268195 -4.0424666 0.48556817 0
3.2265096 -4.0418205 -0.49313265 0
-3.9259534 -3.256855 -0.98737621 0
-3.3554692 -3.9345324 -0.51005322 0
-3.1983991 -3.9383652 1.1347911 0
-2.9551654 -3.9375291 1.6710956 0
3.2231753 -4.0348697 0.60500908 0
3.1213834 -4.0469813 0.96257639 0
3.1348751 -4.0509825 0.9039644 0
-3.9316425 3.2591698 -0.98879421 0
-2.6027412 -3.9422176 2.1791322 0
3.2344513 -4.0583768 0.3655237 0
3.15537 -4.0444746 0.87978506 0
3.2336588 -4.0470676 0.51672018 0
2.7209184 -4.0267382 1.8694801 0
3.1238983 -4.0385785 1.0295043 0
3.2820277 -4.0432363 0.12344658 0
3.282794 -4.0447769 0.0012960434 0
-3.2867894 -3.9400678 0.90394866 0
-3.0486045 -3.9422724 1.5238523 0
-3.1238136 -3.947798 1.3491368 0
-3.3682237 -3.941998 0.52908444 0
3.014245 -4.041522 1.3213286 0
2.7741404 -4.0335145 1.789289 0
3.281487 -4.0421491 -0.24560374 0
-3.8836083 3.3340516 -0.98518252 0
-3.3459454 -3.9289577 0.73475266 0
2.8537753 -4.0561976 1.6095579 0
-3.8864083 -3.335238 -0.98588467 0
3.2829676 -4.045126 0.24453235 0
2.9257665 -4.0426655 1.5196605 0
3.1776381 -4.0530605 0.84543622 0
3.0689783 -4.0478301 1.2036152 0
3.2261 -4.0409675 0.72562718 0
3.2879055 -4.0550528 -0.12357253 0
-1.9350297 4.7488508 -0.99119222 0
2.9224844 -4.027863 1.6067274 0
3.2816925 -4.0425625 0.48599005 0
3.2864583 -4.0521436 0.36522305 0
3.2864664 -4.0521598 -0.37419796 0
-3.1177616 -3.9388633 1.460083 0
-3.3645701 -3.9398594 -0.72477067 0
3.0783873 -4.0441294 1.2444639 0
3.1748095 -4.0469408 0.96606576 0
3.2357507 -4.0540814 0.69936621 0
-2.9558902 -3.9386685 1.7833562 0
3.1268146 -4.0591879 1.0871887 0
3.0029242 -4.0474472 1.4274812 0
3.2802038 -4.0395694 0.60654223 0
-3.8500099 -3.4148252 -0.98545969 0
-1.8728445 4.793201 -0.98828328 0
-2.9879274 -3.9362171 1.7477779 0
-3.1943836 -3.9359372 1.3396404 0
-3.2946186 -3.9509418 1.0172818 0
3.33776 -4.0434437 0.1212275 0
3.2896013 -4.0584626 -0.50456011 0
3.1332378 -4.0491323 1.155838 0
2.847662 -4.0286355 1.7921391 0
-3.4465561 -3.9197359 0.55888176 0
2.9226663 -4.0389528 1.6436014 0
-3.8592768 3.4189088 -0.98779762 0
-2.8983541 -3.9416296 1.9053917 0
3.2316928 -4.0526266 0.84821582 0
3.0704618 -4.0512967 1.3295708 0
3.3435302 -4.0546389 -0.0031533241 0
3.3411717 -4.0500627 -0.25221729 0
3.3176064 -4.0653138 0.33394635 0
-2.8613343 -3.9437292 1.9770248 0
3.175405 -4.0482292 1.0891502 0
-3.2903109 -3.9449587 1.130394 0
3.339736 -4.0472775 0.36487865 0
3.3344564 -4.037034 -0.50486726 0
3.3413877 -4.0443826 0.38636732 0
-1.8123055 4.8389144 -0.9862324 0
3.1617134 -4.0669122 1.0658414 0
3.3455143 -4.0584888 -0.12818015 0
3.1257858 -4.0568757 1.2107751 0
3.3417382 -4.0511622 -0.37975729 0
-3.3646793 -3.9399235 -0.94075918 0
3.2860079 -4.0512381 0.72873521 0
3.3388271 -4.0455136 0.48648655 0
3.3468585 -4.0610967 0.24227297 0
-3.042501 -3.9384613 1.7283297 0
3.2379203 -4.0613565 0.88321805 0
3.1169434 -4.0370026 1.3310421 0
3.2313349 -4.0518804 0.97058797 0
-3.1227899 -3.9462867 1.5739086 0
-3.5182104 -3.9295156 -0.10331321 0
-3.8235521 -3.4989257 -0.98784435 0
-3.3742161 -3.9455056 0.94449329 0
3.3121238 -4.0478463 0.70022511 0
-1.7491624 4.8813901 -0.98335969 0
3.3457665 -4.0490532 0.51581156 0
3.3376431 -4.0432172 0.60807276 0
3.3193612 -4.0709043 0.51755583 0
3.3595154 -4.0637197 0.25281179 0
-2.7325692 -3.9454172 2.2030592 0
-3.2877131 -3.9413509 1.243613 0
3.1354942 -4.051682 1.2823551 0
3.1561472 -4.0472236 1.2482021 0
3.0792665 -4.0474195 1.4312053 0
-3.519227 -3.9300911 -0.3168785 0
-3.832233 3.5029004 -0.99004865 0
3.2264261 -4.041647 1.0922179 0
-3.4520292 -3.9268956 0.7888844 0
3.3983989 -4.051281 -0.0059175491 0
3.1765079 -4.0506158 1.2142959 0
3.2342052 -4.0488997 1.0662003 0
3.2886133 -4.0564756 0.85170817 0
3.3974738 -4.0495477 0.24157691 0
-3.525239 -3.9334955 0.32001436 0
-3.4649391 -3.943783 0.67270339 0
-3.777462 -3.5740423 -0.98553371 0
-3.7775221 3.5740709 -0.98554909 0
3.3924134 -4.0519428 0.33376861 0
-3.3553615 -3.9344692 1.1511097 0
3.4024386 -4.0588508 0.11740541 0
3.3975759 -4.0497389 0.36437166 0
3.400975 -4.0561085 -0.25865757 0
3.397361 -4.0493364 -0.38534874 0
3.4042993 -4.0623374 -0.13304466 0
-3.1208854 -3.943475 1.6868682 0
2.9323599 -4.0505614 1.7714121 0
3.3948174 -4.04457 -0.51416808 0
2.9263043 -4.0439897 1.8008595 0
3.3440537 -4.0556545 0.73137426 0
-3.201036 -3.9399598 1.5488617 0
-3.5487714 -3.9468215 0.10696793 0
3.3576126 -4.0616903 0.64462459 0
3.2873192 -4.0538745 0.97476387 0
3.3923192 -4.0516577 0.51762605 0
3.1335113 -4.0494413 1.4088461 0
3.0077851 -4.0667338 1.620121 0
-3.5278029 -3.9349475 -0.53374094 0
3.3147297 -4.0561485 0.88474882 0
3.3384471 -4.0447764 0.8531909 0
-3.2903996 -3.9450819 1.3578386 0
-3.4567108 -3.9330196 0.90395141 0
-3.7358575 -3.6510708 -0.98463702 0
3.3510044 -4.0546408 0.77459157 0
-3.5329571 -3.937866 0.53154039 0
-3.7378988 3.6520772 -0.9851625 0
-1.70436 4.9446692 -0.98820746 0
3.1788898 -4.055769 1.3424778 0
3.4528725 -4.0458536 -0.26171881 0
3.4057295 -4.0650182 0.48733056 0
3.1550684 -4.0434074 1.4343605 0
3.4565091 -4.0524392 -0.0094467998 0
3.3443449 -4.0475368 0.90396845 0
3.401226 -4.0565791 0.6102407 0
3.4574232 -4.0540953 -0.13591188 0
3.0772519 -4.0398827 1.6181517 0
3.2338727 -4.0477843 1.2517211 0
-3.5221353 -3.9317379 0.74282765 0
-3.2828469 -3.9345918 1.4707277 0
-3.4551592 -3.93099 1.0191381 0
3.4577 -4.0545964 0.23983836 0
3.3971286 -4.0489011 0.73300779 0
3.4497647 -4.040226 -0.52016973 0
3.2375672 -4.0648727 1.2232795 0
2.9260864 -4.0430489 1.8962181 0
3.2898054 -4.0588722 1.1006341 0
3.3125381 -4.0491657 1.069046 0
3.4625826 -4.0634389 0.11454201 0
-3.5296192 -3.935976 -0.75219786 0
3.3955541 -4.0614696 0.70224404 0
3.4528522 -4.0458169 0.48742843 0
-1.6411421 4.986814 -0.98583317 0
-2.9965711 -3.9451439 1.9988194 0
-3.1358023 -3.9467113 1.7693763 0
3.1318004 -4.0475082 1.5357971 0
-3.1219578 -3.9450586 1.801537 0
3.3433685 -4.0543251 0.97883821 0
3.2277179 -4.0443397 1.3452811 0
3.4607515 -4.0601225 0.3636862 0
-3.7017012 -3.7317996 -0.98594952 0
-3.0528073 -3.9448969 1.9408078 0
3.462682 -4.0636187 -0.39544189 0
-3.3625836 -3.9386966 1.3627586 0
-3.708775 3.7354136 -0.98778331 0
-3.4556231 -3.9315968 1.1344857 0
3.3921185 -4.0510483 0.88639796 0
3.4763603 -4.0640779 0.33309913 0
3.0041702 -4.0523911 1.8080001 0
3.4716969 -4.0505848 0.51805151 0
3.3998098 -4.053925 0.85768545 0
3.3507879 -4.05441 1.0333385 0
3.5126796 -4.0485206 0.11353397 0
3.5124879 -4.0481853 -0.13936609 0
3.4587522 -4.0565023 0.61167562 0
-1.5812078 5.0326142 -0.98506391 0
-2.8703055 -3.9532635 2.2296991 0
-3.5276489 -3.9348602 0.95566201 0
3.291496 -4.0622711 1.2282052 0
-3.2872763 -3.9407439 1.5865126 0
3.5114679 -4.0463996 -0.39749056 0
3.5127325 -4.0486135 0.36341715 0
-3.6595516 -3.8085039 -0.98548484 0
3.3963213 -4.0473881 0.98176074 0
3.5091629 -4.0423622 0.4878571 0
-3.203238 -3.9412916 1.7602887 0
3.517993 -4.0578265 0.23814356 0
3.5211568 -4.0633669 -0.014503419 0
3.3465643 -4.0605259 1.1059053 0
3.1291862 -4.0445538 1.6631286 0
-3.6636634 3.8106792 -0.98655879 0
-3.4531393 -3.9283473 1.2497797 0
-3.5320349 -3.9373438 -0.97394645 0
3.519032 -4.0596461 -0.27035338 0
3.458241 -4.0555763 0.73607206 0
3.1561904 -4.0473757 1.6246519 0
3.3139706 -4.0537295 1.2563341 0
3.2839961 -4.047194 1.3525877 0
3.5478208 -4.0384212 0.33310544 0
3.236608 -4.0569568 1.4413104 0
3.3515425 -4.0552149 1.1629004 0
-3.6917701 -3.9258811 0.10095429 0
3.5151916 -4.0529203 -0.53171974 0
3.0772796 -4.0399857 1.8097062 0
-3.6425529 -3.936713 0.54947126 0
3.3921995 -4.0512938 1.0722909 0
3.4755313 -4.0616798 0.70359528 0
3.4547668 -4.0492845 0.86040425 0
-1.5216589 5.078794 -0.98472786 0
-3.6118779 3.8821385 -0.9838506 0
-3.6367388 -3.9295435 0.66827559 0
-3.6983318 -3.9294739 -0.11707956 0
-3.2830634 -3.9348924 1.7009802 0
3.5733347 -4.0508246 -0.016388178 0
3.5737691 -4.0515604 0.11062062 0
-3.6226983 -3.8880627 -0.98669851 0
3.3994842 -4.0533152 1.109442 0
3.5742505 -4.0523763 -0.14485157 0
-3.6990566 -3.9298708 0.31739438 0
-3.3583894 -3.9362419 1.5747786 0
3.3487573 -4.0647802 1.2346942 0
3.520885 -4.062891 0.61356199 0
3.3481686 -4.0516162 1.2923727 0
-3.4583921 -3.9352193 1.3664494 0
3.4552059 -4.0500793 0.98658514 0
-3.7054296 -3.9333601 -0.33704883 0
-3.5300179 -3.9362016 1.169801 0
3.5740476 -4.0520325 0.36282814 0
3.474134 -4.0576367 0.88923943 0
3.5770683 -4.0571513 -0.27559799 0
3.5782905 -4.0592217 0.23649371 0
3.5168948 -4.0559034 0.73860955 0
-3.6414919 -3.935405 0.78600335 0
3.5820854 -4.0611048 0.23496914 0
3.130976 -4.0465765 1.7922049 0
3.5702393 -4.0491738 0.50490868 0
-3.2702312 -3.9396217 1.7869833 0
3.5564818 -4.0623655 0.51873887 0
3.5771961 -4.0573678 -0.4072994 0
3.3955588 -4.0459595 1.2358651 0
3.2321086 -4.0418692 1.62832 0
3.3419862 -4.0516434 1.360671 0
3.3120871 -4.0477285 1.4438889 0
-1.4661131 5.1301537 -0.98643494 0
-3.6995392 -3.930135 -0.55713487 0
3.5741086 -4.0521359 -0.53946412 0
-3.7063003 -3.9338367 0.53414977 0
3.5780401 -4.0587978 0.48870885 0
3.5150318 -4.0526404 0.86438668 0
-3.5828862 3.9661398 -0.98743796 0
-3.6413107 -3.9351811 0.90395463 0
3.5887997 -4.0678673 0.36875367 0
3.5536575 -4.0545573 0.70460856 0
3.470336 -4.046648 1.0748196 0
-1.3970778 5.1637449 -0.98245311 0
3.4554234 -4.0504732 1.1141443 0
-2.9960384 -3.9445937 2.2512813 0
3.3955512 -4.061461 1.2614577 0
-3.4568014 -3.9331377 1.482713 0
-3.1437702 -3.9547079 2.024209 0
3.5752833 -4.0542536 0.63783717 0
3.6339092 -4.0511918 -0.14955133 0
3.5464218 -4.0345531 0.88944411 0
3.5778165 -4.0584192 0.61485732 0
-3.2878013 -3.941473 1.8188767 0
3.3489313 -4.0524297 1.4226022 0
3.1566322 -4.0489388 1.8176575 0
3.6334076 -4.0503688 -0.2801007 0
3.637326 -4.0567966 0.1073674 0
-3.2048345 -3.9422569 1.9751444 0
3.5740538 -4.0520434 0.74082828 0
3.6373441 -4.0568261 0.23500943 0
-3.5197473 -3.9303856 1.3836746 0
3.6410117 -4.0628424 -0.021928191 0
3.5728252 -4.0517778 0.77105832 0
-3.7064323 -3.9339089 0.75132167 0
-3.5358057 4.0400891 -0.98653698 0
3.6373343 -4.0605102 0.33220184 0
3.5182297 -4.0582409 0.99259996 0
-3.6439166 -3.9383945 1.0219958 0
3.4534521 -4.0469031 1.2424335 0
3.1308546 -4.0464392 1.9218559 0
-3.710403 -3.9360831 -0.78291023 0
3.639523 -4.060401 -0.41530174 0
3.6425343 -4.0653405 0.36201406 0
3.3418078 -4.0448308 1.552103 0
3.6386003 -4.058887 0.489254 0
3.6366706 -4.0557218 -0.54891121 0
3.6333156 -4.0502181 0.61598492 0
-3.4573622 -3.9338713 1.5999873 0
3.5760465 -4.0554194 0.86844313 0
3.6377678 -4.0616565 0.5192194 0
3.3922112 -4.0513296 1.4493258 0
-3.3621759 -3.938458 1.7914891 0
-1.3447518 5.2197394 -0.98624921 0
3.6925268 -4.0467381 -0.15384084 0
-3.6413884 -3.935277 1.1399779 0
-3.4874597 4.1131635 -0.98557115 0
-3.699163 -3.929929 0.96856236 0
3.4089386 -4.0710316 1.3736048 0
3.6928582 -4.0472651 -0.2856735 0
3.5799944 -4.0589986 0.90397334 0
3.3146586 -4.055922 1.6369996 0
3.2329257 -4.0446091 1.8222454 0
3.5199552 -4.0612626 1.1221151 0
3.6326778 -4.0491714 0.7432512 0
3.6995311 -4.0578666 -0.025192678 0
3.6926451 -4.0469265 -0.41911578 0
3.6994324 -4.0577097 0.23325646 0
3.5529258 -4.0525341 1.078882 0
3.5707419 -4.0496798 1.036819 0
3.4550881 -4.0498667 1.3745205 0
3.4776852 -4.0679116 1.266587 0
-3.4045105 -3.9287903 1.8043404 0
3.7057033 -4.0676727 0.1034081 0
3.6999297 -4.0584998 0.361588 0
3.6400714 -4.0677509 0.706828 0
3.6301589 -4.0415268 0.89255762 0
3.6933019 -4.0479698 -0.55513662 0
3.719523 -4.0599475 0.14345336 0
-3.2671871 -3.9366529 2.0415335 0
-1.2843845 5.265007 -0.9867425 0
-3.4421177 4.187994 -0.98569763 0
3.5822184 -4.0658779 0.99873447 0
3.570231 -4.0455656 1.124383 0
3.7181308 -4.0564179 0.33176041 0
3.6351926 -4.053297 0.87195539 0
-3.4602537 -3.937654 1.7187057 0
3.7016215 -4.0611882 0.48986745 0
-3.6482019 -3.9436789 1.2590671 0
3.3490725 -4.0525799 1.6847825 0
3.5216804 -4.0642838 1.2536449 0
3.4692178 -4.0434127 1.452656 0
-3.1293178 -3.9402039 2.2754679 0
-3.826602 -3.9277661 0.66267312 0
-3.8359699 -3.9386635 0.54069889 0
-3.884336 -3.9274292 -0.13132447 0
3.3904014 -4.0458403 1.6401401 0
3.7004666 -4.0593529 0.61824524 0
-3.7011061 -3.9309928 1.1878436 0
-3.533134 -3.9379663 1.604383 0
3.7110133 -4.0383735 0.7067312 0
3.7589145 -4.052804 -0.16031498 0
3.7555861 -4.0476804 0.3612237 0
3.759572 -4.0538163 0.23173034 0
-1.2218266 5.3071761 -0.98650849 0
3.7623491 -4.0580916 0.10144436 0
3.5524573 -4.0512395 1.2680461 0
-3.8963256 -3.9337723 0.09131825 0
-3.8892078 -3.9300067 0.31447053 0
3.5806887 -4.0596981 1.1704674 0
3.7226179 -4.0677938 0.519853 0
-3.8883753 -3.9295661 -0.35660815 0
-3.398488 4.263968 -0.9865886 0
-3.8290997 -3.9306715 0.7832917 0
-3.8180065 -3.9177678 0.90395749 0
3.7013335 -4.0607305 0.74727416 0
-3.6474628 -3.9427669 1.3779292 0
3.6402044 -4.0615182 1.0028667 0
3.7689056 -4.0681853 -0.030849218 0
3.7652936 -4.0626249 -0.29577434 0
3.5188308 -4.0592933 1.3850861 0
3.7595186 -4.0537343 0.49030221 0
3.5760796 -4.0554757 1.2581921 0
3.3154039 -4.0582962 1.8322198 0
-3.3606582 -3.9375696 2.010385 0
-3.8834786 -3.9269755 -0.58255136 0
3.6361871 -4.0574741 1.0829973 0
3.7654076 -4.0627999 -0.43125331 0
3.8035133 -4.0451345 0.21777773 0
3.633357 -4.0502863 1.1314816 0
3.6982176 -4.0557799 0.87628984 0
-3.3432217 4.3323584 -0.9845618 0
-1.1598518 5.3502121 -0.98684359 0
3.7624531 -4.0582514 -0.56743997 0
3.3494849 -4.05302 1.8171821 0
3.7594628 -4.053648 0.61965895 0
-3.4660912 -3.9452896 1.8394728 0
-3.6406698 -3.9343913 1.4961309 0
-3.9008722 -3.9361777 0.53715968 0
-3.8813877 -3.9258692 0.75919592 0
3.5842407 -4.0632758 1.3044291 0
3.756474 -4.049047 0.74901187 0
3.8042192 -4.0632544 0.3310883 0
3.7986746 -4.0497661 0.52005696 0
3.57335 -4.0508504 1.3904641 0
3.8244467 -4.0554724 0.22978544 0
-3.6285419 -3.9194365 1.6132836 0
3.8179884 -4.045835 -0.43466961 0
3.8090806 -4.0750799 0.14096427 0
3.7200775 -4.0613532 0.89700997 0
-3.2881231 4.4005804 -0.9828347 0
3.8284874 -4.061502 -0.034193218 0
-3.703177 -3.9321265 1.4091916 0
3.824491 -4.0555387 -0.30096191 0
-3.5210819 -3.9311416 1.8224404 0
3.553391 -4.0538201 1.4600186 0
-3.88692 -3.9287961 -0.81245232 0
3.4730825 -4.054594 1.6481612 0
3.8313994 -4.0658474 0.097550869 0
3.7023273 -4.0623093 1.0081549 0
-3.8350439 -3.9375861 1.024837 0
3.8330932 -4.0683751 -0.1688441 0
-1.0992754 5.3955302 -0.98818493 0
3.6364446 -4.058156 1.2736878 0
-3.8226786 -3.9232023 1.1449628 0
3.5771878 -4.0561719 1.4376574 0
3.8277414 -4.0681758 0.35279262 0
3.8308678 -4.0650544 0.3602469 0
3.7144952 -4.0472012 1.0852845 0
3.8269143 -4.0591545 0.49102914 0
3.6408315 -4.0625467 1.267282 0
3.3947434 -4.0590105 1.8389137 0
3.8240502 -4.0646653 0.49146879 0
3.6967497 -4.0534477 1.1384935 0
3.346657 -4.0500035 1.9497344 0
3.8246155 -4.0557241 -0.5760479 0
-3.4135766 -3.9373825 2.0660143 0
-1.0270505 5.4223456 -0.98395705 0
-3.5562897 -3.9305718 1.8261361 0
3.8171909 -4.0581422 0.62966108 0
3.7659259 -4.0635977 0.88157737 0
3.8045588 -4.0640802 0.7098124 0
3.564132 -4.0430222 1.5700026 0
-3.8908472 -3.9308741 0.98336887 0
3.8884063 -4.0539165 0.095607758 0
-3.2757554 -3.9450095 2.3042684 0
-3.8229814 -3.9235544 1.265825 0
3.8321552 -4.0669751 0.62234008 0
3.8177626 -4.0586858 0.76687551 0
-3.2520275 4.4819984 -0.98673785 0
3.7995343 -4.0518575 0.89883637 0
3.8931007 -4.0607095 -0.17318773 0
-3.6365638 -3.929328 1.7355654 0
3.8265495 -4.05861 0.75308681 0
3.764214 -4.0609622 1.0132556 0
3.8902855 -4.0671968 0.13969898 0
3.8908558 -4.0574613 -0.30852872 0
3.8172474 -4.0447292 0.8831141 0
-3.6961851 -3.9282985 1.6311593 0
3.8991899 -4.069521 -0.039891541 0
3.6428738 -4.065897 1.4035044 0
3.6994977 -4.0578132 1.2734857 0
3.8119757 -4.0531821 0.90397799 0
3.8936129 -4.061451 0.35968268 0
3.5531325 -4.0531058 1.6539993 0
3.8978105 -4.0675249 0.22710001 0
3.8907599 -4.0683055 0.33042276 0
3.7588716 -4.0527377 1.1448827 0
-3.1970124 4.5502505 -0.98560858 0
3.6383767 -4.0632672 1.4674714 0
3.4731245 -4.0547156 1.8445418 0
-3.8797588 -3.9250076 1.2068112 0
3.8952713 -4.0638504 0.49176812 0
-4.0282826 -3.9285321 0.53231871 0
3.7197576 -4.0605421 1.2787943 0
3.8989334 -4.0691495 -0.44963384 0
-0.97405553 5.480372 -0.9898417 0
3.8916464 -4.0703773 0.52101648 0
3.8214741 -4.0510359 1.0169382 0
-3.8303947 -3.9321778 1.3881221 0
3.8945165 -4.062758 0.62399626 0
3.8967152 -4.0659399 -0.58918047 0
3.7530284 -4.0437427 1.2774067 0
-4.0814853 -3.9258242 0.082900643 0
-4.0816064 -3.9258862 -0.14657539 0
-3.526763 -3.9343584 2.0485277 0
3.9569883 -4.0571184 -0.042721391 0
-4.030859 -3.931361 0.65624535 0
3.8884916 -4.063004 0.7114619 0
-4.0788951 -3.9245009 0.31157708 0
3.8898196 -4.0559616 0.75600958 0
3.5775511 -4.0565376 1.7074883 0
-0.90504646 5.5120959 -0.98776448 0
-3.1433806 4.6193881 -0.98514688 0
3.8048825 -4.064867 1.0914426 0
3.821955 -4.0626726 1.0412159 0
3.7037001 -4.0644903 1.411767 0
3.9577889 -4.0582418 -0.31612629 0
3.9615588 -4.0635333 0.22535229 0
-4.0855675 -3.9279099 -0.37799686 0
-3.6451941 -3.9399695 1.8595643 0
3.9657106 -4.0693612 0.090616822 0
-5.5155916 -0.95001924 -0.98530293 0
3.9550738 -4.054431 0.49223316 0
-3.8264084 -3.9275413 1.509438 0
3.974978 -4.0654125 0.13800931 0
3.8849711 -4.0547776 0.90196335 0
-4.0741839 -3.9220941 -0.60899413 0
3.9510174 -4.0487375 -0.59376502 0
-0.8345542 5.5407567 -0.98506749 0
-5.5043483 1.0537596 -0.98326182 0
-4.0834794 -3.9268429 0.53991258 0
3.8907661 -4.0573311 0.88947213 0
3.9698324 -4.0751472 -0.18204045 0
3.9738374 -4.0628495 0.32992995 0
3.7173345 -4.054399 1.4713926 0
3.9665089 -4.0704818 0.3588227 0
3.9626522 -4.0650687 -0.45731246 0
-4.0405636 -3.9420154 0.77983558 0
3.8212593 -4.0620112 1.1785576 0
3.7993245 -4.0513473 1.2821515 0
3.6380475 -4.0623965 1.6628113 0
3.5539665 -4.0554109 1.8519399 0
-3.560667 -3.934603 2.0903912 0
-3.4106517 -3.9346106 2.3283942 0
-4.0317397 -3.9323277 0.9039619 0
3.8313041 -4.0657048 1.1547406 0
-5.5226135 -1.0540211 -0.98681259 0
-3.0958695 4.6932106 -0.98675394 0
-3.7076659 -3.9276583 1.8475425 0
3.97612 -4.0679793 0.52156794 0
-3.8892732 -3.9300413 1.4349895 0
3.5776489 -4.0566363 1.843658 0
4.0244856 -4.0567918 0.088494301 0
3.882781 -4.0496597 1.0934205 0
4.0248461 -4.0572829 -0.18485433 0
3.9667292 -4.0707912 0.62651467 0
3.7654552 -4.0628738 1.4203167 0
-3.7102447 -3.9359965 1.8611412 0
-4.0763845 -3.9232183 -0.84462845 0
-4.0287371 -3.9290311 1.0276797 0
3.9711289 -4.0567627 0.71289444 0
-3.8269577 -3.9281797 1.6321089 0
3.8956699 -4.0644274 1.0253034 0
-4.0893359 -3.9298351 0.76896131 0
4.0306692 -4.0652137 -0.04882884 0
-0.77334046 5.585938 -0.98773694 0
3.8188517 -4.0597215 1.3159878 0
3.9622149 -4.0644546 0.76025605 0
4.0532207 -4.0474362 0.13717365 0
4.0311422 -4.0658584 0.22311628 0
3.8298464 -4.06353 1.290987 0
4.0295486 -4.0636878 -0.32515883 0
4.0240593 -4.0562115 -0.46396405 0
-4.0211124 -3.92066 1.1510043 0
-5.5271459 -1.1581953 -0.98812819 0
3.7116892 -4.0400872 1.6641316 0
4.0304041 -4.0648527 0.35824871 0
-5.5100322 1.2616547 -0.98552322 0
-0.70112395 5.6107883 -0.98450112 0
3.9583011 -4.0589609 0.89439905 0
3.8908257 -4.0574174 1.1599183 0
-3.0464578 4.7657967 -0.9881283 0
-5.5140839 -1.2618288 -0.98631144 0
-5.5366788 1.1584682 -0.98998201 0
3.8206167 -4.0497565 1.425523 0
4.0268002 -4.0599446 -0.60809875 0
-2.9760208 4.8213787 -0.98354924 0
-4.0818553 -3.9260132 0.99799967 0
-3.8220453 -3.9224653 1.7542472 0
3.8011718 -4.055841 1.4777408 0
4.355669 -3.6248391 -0.98588657 0
4.059659 -4.0613666 0.32933474 0
3.6342659 -4.0523925 1.858645 0
-5.5005012 -1.3651857 -0.98468053 0
3.9730358 -4.061048 0.90554786 0
3.8145926 -4.0556712 1.4534726 0
-4.0181265 -3.917382 1.2745509 0
4.0280623 -4.0616632 0.62801087 0
4.07306 -4.0608435 0.19339216 0
4.0360761 -4.0725775 0.49331844 0
4.3606653 3.6335895 -0.98858666 0
-5.5105581 1.3657622 -0.98663867 0
4.0753479 -4.0628967 0.33615112 0
3.9595795 -4.0607557 1.0306416 0
4.0678892 -4.056201 0.47934926 0
4.0592299 -4.0604372 0.52204728 0
-3.885808 -3.9282079 1.6636078 0
4.0979767 -4.0625057 0.084251165 0
-0.63711548 5.6511164 -0.98624897 0
4.0973144 -4.0616302 -0.19226551 0
4.0289459 -4.0628667 0.76356494 0
3.8903427 -4.0673304 1.2900624 0
3.5879424 -4.0670042 1.9836071 0
4.0983696 -4.063025 0.22112989 0
-5.4983931 1.469146 -0.98557234 0
4.0954423 -4.0591555 0.35765004 0
-2.9191303 4.887682 -0.98324716 0
3.895896 -4.064754 1.2998002 0
4.4213428 3.5877745 -0.98613274 0
4.4239397 -3.5921743 -0.98750162 0
-0.5633564 5.671946 -0.98244417 0
4.0727816 -4.0605927 0.62084365 0
-5.5072141 -1.4697783 -0.98729134 0
4.1023779 -4.0683236 -0.33434129 0
4.1083245 -4.0761843 -0.055606961 0
3.9590812 -4.0600557 1.167959 0
-4.0805826 -3.9253631 1.2287095 0
-3.7056289 -3.9334693 2.0902853 0
4.0303793 -4.0648189 0.90016854 0
3.9765029 -4.06884 1.1001821 0
-5.4901586 -1.572732 -0.98556006 0
3.8184073 -4.0592985 1.5925853 0
4.0639172 -4.0705791 0.71556246 0
4.1427498 -4.0518961 0.13496304 0
-5.4946361 1.5731174 -0.98643363 0
4.1032505 -4.0694771 0.49397576 0
3.8897572 -4.0558715 1.4373012 0
4.1046124 -4.0712776 -0.47786665 0
4.4845695 3.5466144 -0.98538935 0
-3.8304439 -3.9322352 1.8808191 0
4.0968466 -4.0610123 0.63013768 0
4.0991735 -4.0640883 -0.62057793 0
-4.0338039 -3.9345942 1.4008827 0
-3.7121673 -3.9316862 2.1158366 0
3.8844423 -4.0535412 1.4835896 0
-4.2340388 -3.9222541 0.65008497 0
3.953599 -4.052361 1.3051102 0
4.0793266 -4.0664697 0.76228571 0
-3.5640073 -3.9376791 2.358983 0
4.0921125 -4.0547543 0.76629841 0
4.0586872 -4.0592637 0.90850091 0
3.8045754 -4.0641208 1.67729 0
-2.870368 4.9610257 -0.98571622 0
4.0299196 -4.0641928 1.037612 0
-4.2913947 -3.9249301 -0.16294223 0
-3.8653989 -3.9260662 1.8703325 0
-4.2937689 -3.9261003 0.072950602 0
3.721168 -4.0641179 1.8699646 0
-4.2311707 -3.919281 0.77718997 0
-4.2885346 -3.9235203 0.3083142 0
4.4947186 -3.5632627 -0.99061394 0
4.1506701 -4.068408 0.32854676 0
4.1668186 -4.0599766 0.21907187 0
4.1699457 -4.0639901 -0.059027195 0
-4.0247183 -3.9246187 1.5245509 0
-5.4901762 -1.6771669 -0.98744941 0
-4.2795229 -3.9190776 0.54291034 0
3.9739327 -4.0630641 1.2947385 0
-5.4635 -1.7788336 -0.98441112 0
-4.2919035 -3.9251809 -0.40049011 0
-0.50449276 5.7234893 -0.98807514 0
4.1742039 -4.0694542 0.079707384 0
4.1738544 -4.0690055 -0.20057499 0
4.1648898 -4.0575013 -0.48381907 0
-2.8060765 5.0209088 -0.98372948 0
4.1508985 -4.0688834 0.52286232 0
-4.2308292 -3.918927 0.90396547 0
4.0553246 -4.0519886 1.1022952 0
4.5544596 3.5161622 -0.98831487 0
-5.5043044 1.6785872 -0.99020946 0
4.0862389 -4.0726748 0.90398407 0
-0.42916441 5.7402229 -0.98367679 0
-5.4763837 1.7803153 -0.98693204 0
4.0992708 -4.0642166 0.90516424 0
4.1759272 -4.0716658 0.35662127 0
3.8241084 -4.0647206 1.7330692 0
-4.0775709 -3.9238243 1.4609966 0
4.5581226 -3.5219815 -0.99015713 0
-3.889235 -3.9300208 1.8968754 0
4.0318651 -4.066843 1.1773195 0
-4.0171084 -3.9162643 1.6485727 0
-4.2894053 -3.9239495 -0.63959265 0
3.9574251 -4.0577312 1.4481239 0
4.1813974 -4.0786858 -0.34529328 0
4.1752911 -4.0708494 0.49476063 0
4.1498871 -4.0667748 0.71730161 0
4.1687174 -4.0624137 0.63248992 0
4.1699586 -4.0640059 -0.63211143 0
-5.4589124 1.8829317 -0.9859817 0
-5.4621668 -1.8833532 -0.98661959 0
-4.2329998 -3.9211767 1.0308025 0
-2.7468963 5.0851884 -0.98358786 0
4.0986233 -4.0633602 1.044009 0
4.6192312 -3.477227 -0.98887527 0
-4.290122 -3.9243028 0.77823615 0
4.6208239 3.4796793 -0.98965883 0
-4.2797179 -3.919174 -0.87960124 0
3.8881736 -4.0622611 1.6843598 0
4.0288763 -4.0627723 1.3172431 0
3.803061 -4.0604362 1.8772473 0
4.0730104 -4.0607986 1.1871386 0
3.8138282 -4.054944 1.8712173 0
-0.36376977 5.778584 -0.98594487 0
4.2379656 -4.0650401 0.13215375 0
4.0952358 -4.0807528 1.0461805 0
4.2405987 -4.0617571 -0.20623189 0
3.9743133 -4.0639186 1.4924257 0
4.2365255 -4.0621457 0.32798719 0
4.17345 -4.0684867 0.77158523 0
4.6755514 -3.4255459 -0.98562753 0
4.1502914 -4.0676179 0.91257668 0
-5.4483747 1.9864275 -0.98667932 0
-4.2723808 -3.9155569 1.0124874 0
4.2478466 -4.0707884 -0.065615118 0
4.0948219 -4.0583353 1.1833067 0
4.2361021 -4.0561543 0.4952178 0
4.2493281 -4.0726347 0.075412154 0
4.165534 -4.0583282 0.90954578 0
4.2365565 -4.0567198 -0.49394077 0
4.2482615 -4.0713053 0.2159586 0
-4.2351847 -3.9234414 1.1579239 0
-5.4546728 -1.9873352 -0.98791611 0
4.2447834 -4.0669708 0.35593998 0
4.0208349 -4.0518198 1.4567978 0
4.0617561 -4.0659032 1.3008935 0
4.6831341 3.4368613 -0.98927736 0
-4.0232716 -3.9230304 1.7762437 0
-2.6916323 5.1531792 -0.98498046 0
4.2388077 -4.0667334 0.52350223 0
-0.29563665 5.8110828 -0.98676884 0
4.2530475 -4.0772691 -0.35371643 0
-5.431963 -2.0891163 -0.98651361 0
-5.4324522 2.0891941 -0.98660994 0
3.8054454 -4.0469718 2.010257 0
-3.7103786 -3.9300859 2.3866556 0
4.1474056 -4.0616021 1.10818 0
-3.8647614 -3.9255121 2.141315 0
-4.0808053 -3.9254768 1.6969934 0
-4.2339125 -3.922123 1.2851198 0
-3.8777394 -3.9239392 2.129684 0
4.2466602 -4.0693097 0.63530719 0
4.0839319 -4.0706038 1.3301275 0
4.745842 -3.3946621 -0.98938274 0
4.2481947 -4.0712223 -0.64663172 0
4.7466526 3.3958356 -0.98976505 0
4.0992575 -4.064199 1.3272173 0
4.2425938 -4.0642428 0.77504635 0
-5.4167037 -2.1920021 -0.98686457 0
3.9724498 -4.059731 1.691607 0
-0.22623014 5.8406963 -0.98703706 0
4.1609087 -4.052392 1.1902137 0
4.1774096 -4.0735679 1.052891 0
4.0578041 -4.0573521 1.4979668 0
4.3214703 -4.0520797 0.32747412 0
4.2461491 -4.0814924 0.72020912 0
4.8023739 -3.3437493 -0.9869163 0
-4.0245104 -3.9243906 1.9039459 0
4.8030443 3.3446906 -0.98722601 0
4.320806 -4.0691776 0.071697831 0
4.3215837 -4.0701189 -0.071268559 0
3.8905749 -4.0678735 1.8881557 0
-5.4282765 2.1940095 -0.98914766 0
4.3167477 -4.0642667 -0.35957551 0
-5.3922844 -2.2932374 -0.98569548 0
4.3227472 -4.0715275 0.21348453 0
-4.2355213 -3.9237905 1.4130328 0
4.330761 -4.0701056 0.12971985 0
-4.0365005 -3.9313438 1.896256 0
-2.6467566 5.2315683 -0.99005473 0
4.0824556 -4.0692787 1.4727116 0
4.3274417 -4.0772085 -0.21681505 0
-0.15497351 5.8656421 -0.98624933 0
4.317431 -4.0650935 0.49623525 0
4.2418413 -4.0728326 0.91650248 0
4.1482019 -4.0632625 1.3063486 0
-4.2946882 -3.9265535 1.2522712 0
-2.5705924 5.2794733 -0.98533273 0
4.3263016 -4.0758286 0.35492158 0
4.2483654 -4.071435 0.91711688 0
4.3208771 -4.0692639 -0.50847912 0
4.099299 -4.0642538 1.4720335 0
-5.4076257 2.2961254 -0.98872983 0
4.3502474 -4.0671539 0.16849101 0
-4.4909348 -3.9131529 -0.17820674 0
-5.3712735 2.3950114 -0.98548603 0
4.8662643 3.3032777 -0.98816228 0
4.2392559 -4.0600839 1.057292 0
-4.2275314 -3.915509 1.5399947 0
-5.3746099 -2.395689 -0.98614788 0
4.8678198 -3.3053958 -0.98886645 0
-4.4537115 -3.9184897 0.64300311 0
4.3321581 -4.0728164 0.524333 0
4.3562574 -4.0722461 0.31581545 0
4.341424 -4.0596776 0.61144567 0
4.0761318 -4.0636005 1.6150622 0
3.9684291 -4.0506945 1.8922808 0
-4.5107603 -3.922576 0.062795162 0
4.3248606 -4.0740852 -0.66019857 0
4.3156796 -4.0629735 0.7789979 0
4.2386308 -4.0663781 1.1136236 0
-4.0771174 -3.9235928 1.9346766 0
4.1735368 -4.0685983 1.3384669 0
4.3282642 -4.0782042 0.6383692 0
4.0563445 -4.0541945 1.6984429 0
-2.507648 5.3402147 -0.98515368 0
-5.3486357 2.4964209 -0.98524177 0
4.3924398 -4.0640111 0.068017483 0
-0.088173628 5.9024405 -0.98914397 0
4.3301835 -4.068985 0.721614 0
-4.5117288 -3.9230363 0.30481124 0
-4.443706 -3.9086974 0.90396953 0
-4.4964285 -3.9157641 0.5462929 0
-4.5070238 -3.9208002 -0.42403054 0
-5.3544717 -2.4976933 -0.98640275 0
-4.4596024 -3.9242556 0.7733655 0
4.9282875 -3.2600906 -0.98881507 0
4.1448398 -4.0562525 1.5049813 0
4.9287348 3.2606814 -0.98901367 0
4.3966417 -4.0689502 -0.22285467 0
4.393218 -4.0649252 0.35431695 0
4.3678532 -4.0820708 0.46235538 0
-0.01287818 5.9161897 -0.98574567 0
4.3991923 -4.0719485 0.21089363 0
4.4015741 -4.074748 -0.078014493 0
-4.4956546 -3.9153965 -0.66840565 0
4.9778104 3.2007234 -0.98427892 0
-4.2902341 -3.9243579 1.4911389 0
4.325305 -4.0595188 0.91876209 0
-3.8556976 -3.9176323 2.4136512 0
4.9806108 -3.2043178 -0.98549986 0
-4.2311888 -3.9192996 1.6694708 0
4.3932524 -4.0649657 0.4970839 0
4.2488832 -4.0720801 1.2038231 0
4.171381 -4.0658317 1.4841316 0
-5.330338 -2.5988266 -0.98615205 0
-5.3325076 2.5993323 -0.98658514 0
-2.4479527 5.4044032 -0.98635745 0
-4.496707 -3.9158964 0.78778934 0
4.3605909 -4.0759172 0.75721252 0
0.060106516 5.9356961 -0.98429751 0
4.3280392 -4.0779309 0.92391276 0
4.4069252 -4.0810385 -0.37333596 0
4.3461208 -4.0636573 0.90398943 0
4.400651 -4.0736637 -0.52109063 0
4.42451 -4.0740972 0.32629824 0
4.2410622 -4.0712662 1.3139434 0
-4.4554892 -3.9202294 1.034441 0
-5.2974434 2.6977692 -0.9844352 0
4.4296436 -4.0837169 0.12668109 0
4.2418828 -4.0633569 1.3473053 0
5.0402389 3.1581881 -0.98571515 0
4.397418 -4.0698628 -0.67182291 0
-4.0298138 -3.9256966 2.170279 0
4.0860548 -4.0725093 1.7608633 0
-5.3054395 -2.6997542 -0.98603678 0
4.402782 -4.0761681 0.64079666 0
4.423594 -4.072381 0.52506769 0
-4.5005078 -3.9177032 -0.91810644 0
-4.4488935 -3.9137743 1.1646233 0
4.4172397 -4.0604739 0.72333813 0
4.3296022 -4.079823 1.0687521 0
-2.3853202 5.4656267 -0.9868871 0
-4.1875448 -3.9152019 1.9168153 0
4.3299141 -4.0684619 1.1189156 0
4.4709024 -4.0647964 0.20872176 0
4.4721355 -4.0662045 -0.23033816 0
5.05336 -3.1745384 -0.99133241 0
4.4693866 -4.0630655 0.35347283 0
4.4762602 -4.0709147 -0.083650053 0
-4.4969335 -3.9160042 1.0301876 0
4.4766788 -4.0713935 0.062713146 0
4.40308 -4.0765185 0.78481901 0
4.061799 -4.0659952 1.9063487 0
-5.2778864 2.7999866 -0.98567712 0
0.12710118 5.9733653 -0.98826301 0
-4.2415934 -3.9300847 1.8016415 0
5.1011686 3.1135728 -0.98675454 0
4.150104 -4.0672274 1.7103875 0
5.1013918 -3.1138437 -0.98684847 0
4.0733137 -4.0610704 1.9032369 0
-5.2820415 -2.8010814 -0.98651242 0
4.2357044 -4.0604954 1.5134754 0
4.3605061 -4.0758452 1.050765 0
4.396553 -4.0688462 0.92846298 0
4.2462311 -4.0687752 1.497191 0
4.4803305 -4.0755634 -0.38185334 0
4.5095778 -4.0595465 0.1257956 0
5.1514425 -3.056237 -0.98363638 0
4.3295965 -4.0798163 1.2148962 0
-4.294559 -3.9264898 1.7342174 0
-4.0870786 -3.9286816 2.1800387 0
4.3240018 -4.0569906 1.3178608 0
-2.322031 5.5262375 -0.98749948 0
4.4705896 -4.0644393 0.64265323 0
0.2001909 5.9926181 -0.98732018 0
4.3538532 -4.0702085 1.1972933 0
4.4801674 -4.0753775 -0.53338522 0
5.1580687 3.0640261 -0.98637652 0
4.422327 -4.0700068 0.92351747 0
4.4827299 -4.0783033 0.49828064 0
-4.2316484 -3.919776 1.9300056 0
-4.461977 -3.9265792 1.2965848 0
4.5157518 -4.0707273 0.32559013 0
-5.2613587 2.9032607 -0.98783004 0
4.4004936 -4.0734787 1.0751963 0
-5.2637968 -2.9039404 -0.98832202 0
4.4724369 -4.0665488 0.78812349 0
-4.4499421 -3.9148006 1.4265482 0
0.2737453 6.0099654 -0.98614192 0
4.4810376 -4.0763707 -0.68778288 0
4.3261728 -4.0756731 1.3617985 0
-2.2531042 5.5804591 -0.98643386 0
-4.5014977 -3.9181736 1.2746792 0
5.214447 3.013921 -0.98608339 0
5.216135 -3.0158494 -0.98677003 0
-5.2248101 3.0009944 -0.98623407 0
-5.2254577 -3.0011852 -0.98636544 0
4.5181026 -4.0749846 0.52589464 0
4.554347 -4.0688744 -0.23930246 0
4.4221706 -4.0697141 1.1243134 0
4.5514669 -4.0656791 -0.38960069 0
4.5595961 -4.0746989 -0.090793431 0
4.5578794 -4.0727944 0.20538092 0
4.3588963 -4.0744815 1.3448057 0
4.0812559 -4.0682011 2.0511415 0
4.2371378 -4.0633774 1.7184091 0
4.4737148 -4.0680089 0.93457556 0
4.1501117 -4.0672431 1.9167328 0
4.4012737 -4.0743952 1.2230403 0
4.5645142 -4.0801558 0.057036042 0
4.5586066 -4.0736012 0.352301 0
-5.1925869 3.0998452 -0.98579538 0
-4.279151 -3.9188943 1.9758782 0
4.5545254 -4.0690727 -0.54369873 0
0.34276879 6.0433731 -0.98972452 0
4.5212159 -4.0806231 0.72686613 0
5.276082 -2.9696732 -0.98818839 0
5.2762232 2.9698293 -0.98824465 0
-5.2001667 -3.1021945 -0.98733795 0
4.5506783 -4.0648041 0.64545524 0
4.3316665 -4.0718622 1.5238733 0
4.561152 -4.0764251 0.4991653 0
-4.4571428 -3.9218478 1.5594392 0
-4.7293143 -3.9136448 0.05261302 0
4.3302498 -4.0806065 1.5138652 0
-4.687273 -3.9155021 0.63521898 0
0.4198606 6.0472922 -0.98540449 0
4.3540344 -4.0703621 1.4918952 0
-4.0360303 -3.9309466 2.4526656 0
4.5528412 -4.067204 -0.6987251 0
-4.1921206 -3.9189551 2.1980844 0
4.3965278 -4.0688162 1.3710213 0
-2.1994243 5.652689 -0.99110544 0
-4.7294998 -3.9137297 0.30143511 0
-4.7366729 -3.9170139 -0.19783318 0
4.5162401 -4.0716128 0.92756116 0
-4.684741 -3.9131627 0.76974976 0
4.6083326 -4.0673265 -0.2837069 0
4.4806089 -4.0758815 1.0837753 0
4.6119647 -4.0736876 0.122522 0
4.6012049 -4.0548439 0.5262984 0
-4.5016556 -3.9182484 1.5208578 0
4.6149955 -4.0789952 -0.080954969 0
-5.1695886 -3.2016551 -0.98752916 0
-4.7359004 -3.9166605 -0.44928336 0
-5.1715465 3.2022929 -0.98792946 0
-4.4494061 -3.9142764 1.690588 0
-4.7292113 -3.9135976 0.5499593 0
4.4264336 -4.0777025 1.3283017 0
-4.6803379 -3.9090934 0.90397441 0
-2.1259251 5.7015262 -0.9889884 0
4.5606527 -4.075871 0.79385912 0
0.49215186 6.0689721 -0.98630357 0
-2.0420966 5.7369075 -0.98324597 0
5.3390512 2.9265094 -0.99103808 0
4.4723778 -4.0664811 1.2309065 0
4.6102028 -4.0706024 -0.48998827 0
5.3793864 2.8591702 -0.98530352 0
-4.7229767 -3.910743 -0.70072269 0
5.3419828 -2.9296703 -0.99219334 0
4.6408381 -4.0737586 0.05294323 0
4.6189938 -4.0859981 0.32447529 0
4.2358551 -4.0607982 1.925266 0
4.6348143 -4.0672636 0.35148501 0
-5.1296167 -3.2979589 -0.98608339 0
-4.3650169 -3.9162147 1.9437668 0
4.6394672 -4.0722809 -0.24879819 0
-5.1303644 3.2982142 -0.98623705 0
4.3525934 -4.0691414 1.6398528 0
4.6354799 -4.0679812 -0.40095079 0
4.6432533 -4.0763626 0.20222366 0
4.6483917 -4.0743804 0.14104557 0
5.3889513 -2.8691909 -0.98901534 0
4.5580835 -4.0730205 0.94191599 0
4.6515503 -4.0769043 -0.013946593 0
4.6486573 -4.0821881 -0.098851264 0
4.64114 -4.0685854 0.44820058 0
-5.0844579 3.3922038 -0.98384345 0
5.4313092 2.8044803 -0.98445415 0
0.56548512 6.0866065 -0.98637259 0
4.3319349 -4.0723834 1.7301512 0
4.5208387 -4.0799403 1.131197 0
4.6411047 -4.0740457 0.50007629 0
4.4069767 -4.0810995 1.5271754 0
4.6126785 -4.0749373 0.72895336 0
4.6560192 -4.0804763 0.29372025 0
5.4360819 -2.809339 -0.98627889 0
4.4213953 -4.0682611 1.5313549 0
-4.4495511 -3.9144182 1.823905 0
-4.6914043 -3.9193196 1.0384111 0
4.6160002 -4.0807557 -0.70036829 0
-4.7398415 -3.9184649 0.79939365 0
4.5546112 -4.0691681 1.090765 0
4.6438899 -4.0770488 -0.55897981 0
0.6411407 6.093513 -0.98378968 0
4.6391125 -4.071898 0.64885712 0
-5.0997143 -3.3976605 -0.98699284 0
4.6078463 -4.0664744 -0.9079504 0
4.4798965 -4.075068 1.38469 0
4.5101471 -4.0605774 1.3322439 0
-1.9851856 5.8062077 -0.98779023 0
-4.4929771 -3.9141238 1.7678857 0
4.6996994 -4.0594497 -0.28850299 0
-4.2836566 -3.9211154 2.2262068 0
4.656662 -4.0809894 0.59948194 0
4.3523664 -4.0689487 1.7887533 0
-4.7366428 -3.9170003 -0.95964527 0
4.6449337 -4.0781736 -0.71754575 0
4.6124177 -4.074481 0.93190002 0
-4.7270145 -3.9125917 1.0483036 0
5.492672 -2.7592351 -0.98747182 0
5.4928932 2.759454 -0.98755515 0
-4.6925564 -3.9203839 1.1730666 0
4.6417842 -4.0747786 0.79857838 0
4.717371 -4.0656228 -0.10315174 0
4.7102356 -4.0773029 0.11977232 0
4.6518908 -4.0771766 0.75196362 0
-4.6769629 -3.9059749 1.3064923 0
4.7121964 -4.0806255 -0.08534801 0
4.7183976 -4.0666981 -0.25672126 0
4.470891 -4.0647831 1.5350556 0
4.5568323 -4.0716319 1.2425585 0
-5.0683899 3.4969964 -0.98790753 0
4.7093801 -4.0758538 0.32383633 0
0.71286118 6.1188254 -0.98653924 0
-1.913758 5.8570023 -0.98719382 0
4.7226582 -4.0711617 0.35038471 0
-5.0765595 -3.5000513 -0.98960292 0
-5.0163383 3.5884099 -0.98479819 0
4.6483297 -4.0743313 0.90399635 0
4.7078743 -4.0733023 0.52751184 0
-4.4540653 -3.9188361 1.959408 0
4.3292098 -4.0670953 1.9380722 0
4.6414413 -4.0744085 0.94894838 0
4.7337484 -4.0827804 0.046797872 0
5.5475011 2.7072403 -0.9882623 0
4.7320518 -4.0810027 0.19885743 0
0.78843296 6.1249709 -0.98433924 0
-5.0238719 -3.5913503 -0.98637021 0
4.4210968 -4.0677018 1.7387552 0
4.7221632 -4.0706434 0.50100267 0
4.7128282 -4.0816965 -0.49966878 0
4.7025499 -4.0642805 -0.70604551 0
-4.1960702 -3.9221952 2.4841256 0
-1.837857 5.9015164 -0.98510695 0
4.7305274 -4.0794058 -0.4152292 0
4.6138773 -4.0770373 1.1364799 0
4.6411285 -4.0685759 1.0557084 0
4.6352324 -4.0677147 1.0992117 0
0.86440182 6.1274652 -0.98144674 0
4.3525763 -4.0691271 1.9387124 0
5.5949845 2.648246 -0.98662341 0
-4.7242398 -3.9113214 1.2991085 0
5.5615573 -2.7207539 -0.99348688 0
5.5971251 -2.6502457 -0.98740828 0
-4.6841125 -3.9125817 1.4422555 0
4.5603924 -4.075582 1.3971217 0
4.7314777 -4.0804014 -0.57340109 0
4.7263579 -4.075038 0.65211034 0
4.7124958 -4.0811334 0.73186064 0
4.5194507 -4.0774264 1.5420146 0
-4.9855385 3.687999 -0.9864043 0
-1.7669287 5.9526982 -0.98522937 0
4.7047167 -4.0679517 -0.91947389 0
5.6467643 2.5933676 -0.98686802 0
-4.379138 -3.9274642 2.2328973 0
4.7322588 -4.0812197 -0.73417521 0
-4.9980841 -3.6931038 -0.98903704 0
4.6093426 -4.0690951 1.3411131 0
4.644515 -4.0712819 1.2077875 0
4.7082376 -4.0739179 0.93606639 0
4.730402 -4.0792742 0.804178 0
4.8065376 -4.0684309 -0.11101562 0
4.8048735 -4.0720415 0.11745751 0
5.6542072 -2.6001241 -0.98956156 0
4.8096929 -4.0716429 0.042875767 0
-4.5037165 -3.9192281 2.0225778 0
4.6425261 -4.0755782 1.2543647 0
4.8037066 -4.0655489 -0.42318946 0
-4.9482441 -3.7851167 -0.98694921 0
5.6933527 2.5338545 -0.98553729 0
0.93525052 6.1610594 -0.98728848 0
4.560071 -4.0752254 1.5530183 0
4.8110261 -4.0821347 -0.089909017 0
4.4190512 -4.063868 1.948488 0
4.8140392 -4.0760674 -0.26832509 0
4.3520861 -4.0687118 2.0896635 0
4.8013086 -4.0661941 0.52824438 0
-1.6947925 6.0021639 -0.9851563 0
-4.6925802 -3.9204066 1.5792744 0
4.8099513 -4.0803714 0.32286572 0
4.7280369 -4.0767965 0.95644832 0
-4.9566097 3.7886612 -0.98871529 0
-4.5495162 -3.9176171 1.9721453 0
5.7019577 -2.5414443 -0.98861182 0
4.8061876 -4.0741973 -0.50625646 0
4.8136053 -4.0863652 -0.29853153 0
-4.9298716 -3.9074912 0.62706327 0
4.818162 -4.080265 0.34911084 0
-4.8990316 3.8770933 -0.98526025 0
4.8247414 -4.0869627 0.19525385 0
1.0106628 6.16676 -0.9858458 0
5.7392764 2.4739392 -0.98429084 0
4.8083739 -4.0703006 -0.58407545 0
4.8142729 -4.0763054 0.50219214 0
4.708786 -4.0748467 1.1420982 0
-4.7283068 -3.9131835 1.553051 0
4.6503229 -4.0759239 1.3606157 0
-4.9806213 -3.9130473 0.040611744 0
4.6409492 -4.0738783 1.4093814 0
-4.9078465 -3.8809779 -0.98713279 0
-4.9771399 -3.9115131 0.29750788 0
4.5212994 -4.0807743 1.7524452 0
-4.9806552 -3.9130623 -0.21716315 0
-4.6853371 -3.9137135 1.714572 0
4.8146639 -4.076704 0.65539241 0
-4.9721179 -3.9093001 -0.47537041 0
4.8072014 -4.07586 -0.71843982 0
-4.9354811 -3.9123838 0.76542342 0
4.7304659 -4.0793414 1.1108894 0
4.8077965 -4.0768366 0.73423672 0
4.6123958 -4.0744424 1.5503552 0
5.7549057 -2.4873314 -0.98980582 0
-1.6278322 6.0594907 -0.98754501 0
4.8093057 -4.0712485 0.80847573 0
-4.9770904 -3.9114914 0.55389106 0
1.0842043 6.1862116 -0.98841107 0
4.6461315 -4.0725737 1.5130939 0
-4.9660478 -3.906625 -0.73557401 0
4.6353941 -4.0678892 1.565187 0
4.8039846 -4.0705833 -0.93178403 0
-4.8701735 3.9781394 -0.98819232 0
4.8998117 -4.0648513 -0.09271419 0
5.8029351 -2.4289386 -0.98954284 0
4.7072859 -4.0723052 1.3493414 0
-1.5491676 6.0990963 -0.98531997 0
4.8268805 -4.0891409 -0.75333738 0
4.7287464 -4.0775399 1.2661278 0
1.1601752 6.1864657 -0.98608053 0
5.8058944 2.4314015 -0.99057436 0
4.8073196 -4.076055 0.94068599 0
4.9006596 -4.0735445 -0.11961776 0
-4.9707856 -3.9087129 0.81022489 0
-4.9454393 -3.9210701 0.90398037 0
5.8410692 -2.3625624 -0.9861629 0
4.905302 -4.0781374 0.036568999 0
-4.6858034 -3.9141438 1.8520231 0
4.9050508 -4.077889 0.1926198 0
5.8452477 2.3659403 -0.98760259 0
4.9037881 -4.0766397 -0.27842301 0
4.9055548 -4.073976 -0.30318385 0
4.9092975 -4.0799222 0.11422431 0
4.9078217 -4.0775776 0.32200742 0
-4.9397726 -3.9161272 1.0426693 0
4.8199668 -4.0821023 0.96476853 0
-4.5030713 -3.9189215 2.2788694 0
-4.3717737 -3.9215972 2.520638 0
4.6074123 -4.0657158 1.7591486 0
1.235268 6.1933599 -0.98583388 0
4.8948216 -4.0677691 -0.59774899 0
4.9086223 -4.0814223 0.34798205 0
4.9032702 -4.0703464 0.52924323 0
4.805809 -4.0676889 1.1178648 0
4.5189304 -4.0764842 1.9642279 0
-4.7290339 -3.9135163 1.8094184 0
4.9093943 -4.0821857 -0.43998116 0
4.6470699 -4.0733242 1.6667542 0
5.8911552 -2.3060081 -0.98721766 0
-4.932086 -3.9094229 1.1810338 0
5.891645 2.3063924 -0.98738444 0
-4.8388987 4.0785384 -0.99093449 0
-1.480114 6.1537271 -0.9875021 0
4.8070455 -4.0756044 1.1483841 0
4.9111185 -4.0838919 0.50347924 0
4.9112978 -4.0831008 -0.51622248 0
4.7312441 -4.0801563 1.4247227 0
-4.7796893 4.1656413 -0.98795259 0
4.9582891 -4.0734067 -0.047706544 0
4.9598074 -4.0745502 0.11227512 0
4.7090034 -4.0752153 1.5599134 0
-4.5530391 -3.9203422 2.2634628 0
-4.6851482 -3.9135387 1.9902728 0
5.9345517 2.2441943 -0.98628151 0
4.8037124 -4.0655546 1.274591 0
4.9112906 -4.0840621 0.65924013 0
4.9079723 -4.077817 0.73704517 0
4.9093447 -4.0799966 -0.72957933 0
1.3093344 6.2125664 -0.98918676 0
5.9393711 -2.2478671 -0.98790514 0
4.9552917 -4.0711493 0.43073738 0
-4.9856176 -3.9152489 1.0690374 0
4.7206368 -4.0690441 1.5810649 0
-1.4039721 6.1971021 -0.98690248 0
5.9708128 2.177207 -0.98327351 0
-4.933691 -3.9108231 1.3200862 0
4.9670935 -4.0800381 0.27080274 0
4.9114799 -4.0842495 -0.76840937 0
4.6407127 -4.0682435 1.8199964 0
4.9089284 -4.0817251 0.81527722 0
4.900517 -4.0659719 0.94422996 0
-4.7170839 -3.9010513 1.9960999 0
1.385151 6.211566 -0.98739433 0
-4.7334042 4.2588773 -0.98804104 0
4.9587469 -4.073751 0.58857632 0
5.0036221 -4.0689816 -0.097911596 0
-1.3248963 6.2353106 -0.98522091 0
6.0159264 -2.1169512 -0.98353422 0
4.9060221 -4.0788503 0.97194386 0
4.9991078 -4.0800185 -0.1288268 0
4.9875708 -4.0689263 0.5042522 0
4.9999371 -4.0808153 0.18895257 0
4.9959631 -4.0769949 0.34694457 0
4.8129158 -4.0852342 1.3597038 0
-4.9301252 -3.9077125 1.4590507 0
4.9126368 -4.085228 -0.94786823 0
5.0090652 -4.0773611 0.11152053 0
1.5367476 6.1978707 -0.98155046 0
5.0064926 -4.0734005 -0.30980122 0
1.4604384 6.2171383 -0.98765838 0
5.0061045 -4.0867448 0.029729486 0
4.6120305 -4.0738029 1.9758162 0
5.0018406 -4.0826459 -0.29020554 0
4.9607048 -4.0752263 0.7463181 0
5.9972863 -2.1967907 -0.99209702 0
4.8103237 -4.0722852 1.4361176 0
-4.6801224 4.3484502 -0.98688388 0
6.0262794 2.124383 -0.98694897 0
4.9973435 -4.0783219 -0.45169598 0
-4.9786744 -3.9121892 1.3276501 0
6.0572553 -2.0540071 -0.98283935 0
4.9934015 -4.074532 -0.61513281 0
5.0143118 -4.0854378 0.32089043 0
6.0623436 2.0575502 -0.98450077 0
5.0081019 -4.0758786 -0.5235188 0
4.9946728 -4.0757542 0.66206455 0
4.9059854 -4.0746598 1.1546831 0
-1.2513912 6.2830496 -0.98637724 0
-4.6258588 4.4373159 -0.9857831 0
-4.7363667 -3.9168737 2.0710235 0
4.9106493 -4.0834274 1.1313515 0
5.0138907 -4.0847902 0.53049588 0
4.8050938 -4.0724034 1.5690527 0
4.7174969 -4.0896077 1.7766793 0
4.653388 -4.0783734 1.9778705 0
4.9714146 -4.083292 0.90400374 0
4.9933925 -4.0745234 0.82012773 0
1.6114573 6.2170153 -0.9860332 0
-4.936121 -3.9129424 1.5998836 0
5.0081677 -4.0759797 0.73979294 0
4.9001245 -4.0730152 1.2888465 0
-4.5663099 4.5230274 -0.98377585 0
5.0018444 -4.0826492 -0.78544486 0
6.1112299 1.9996738 -0.98653281 0
4.959301 -4.0741687 1.0616479 0
5.012455 -4.0825801 -0.74080014 0
4.8148351 -4.0768781 1.6001315 0
-1.1751156 6.3260241 -0.98655033 0
6.1156526 -2.0026603 -0.98796272 0
1.686908 6.2131767 -0.9846431 0
4.904767 -4.0727248 1.3656807 0
5.0899448 -4.0764251 -0.13661891 0
5.0054455 -4.0717888 -0.95679748 0
5.0850849 -4.0718851 0.34587669 0
-5.19242 -3.9027054 0.61788082 0
-4.5492668 -3.9174244 2.557358 0
4.9987988 -4.079721 0.98017406 0
6.1548066 -1.9380431 -0.98711193 0
5.0950642 -4.0812082 0.024413466 0
6.1551318 1.938256 -0.98721611 0
-4.9792109 -3.9124258 1.5892522 0
-5.232872 -3.9057078 -0.23716402 0
5.0129652 -4.0833654 0.9508121 0
5.0886436 -4.0752096 -0.46416128 0
-4.9367266 -3.9134707 1.7408512 0
4.7732525 4.3561492 -0.98496163 0
5.0998049 -4.0856366 0.18497992 0
1.7622558 6.2177777 -0.98580384 0
5.0881119 -4.0747132 0.50559545 0
-4.5229273 4.6178827 -0.98566794 0
-1.0996315 6.3705921 -0.9874233 0
-5.2372255 -3.9075522 0.29336786 0
4.9926896 -4.0738478 1.1395948 0
4.6533346 -4.0783305 2.1346459 0
-5.225554 -3.9026074 0.55781078 0
-5.1970491 -3.9065149 0.76087117 0
