# .PCD v0.7 - Point Cloud Data file format
VERSION 0.7
FIELDS x y z intensity
SIZE 4 4 4 4
TYPE F F F F
COUNT 1 1 1 1
WIDTH 1464
HEIGHT 1
VIEWPOINT 0 0 0 1 0 0 0
POINTS 1464
DATA ascii
6.591382 5.3034167 0.69885325 0
6.3713827 5.5460997 0.84370685 0
6.4149218 5.4861031 0.90406096 0
5.3750486 6.5407777 -0.63020921 0
5.3597174 6.5650997 0.49568379 0
6.0329185 5.8651114 1.1302173 0
-3.8033199 7.4453158 1.4751329 0
6.4411607 5.4663992 -0.84100783 0
6.1809688 5.7341895 0.99659514 0
6.0586557 5.8435278 1.1076806 0
5.5015335 6.3881803 1.004034 0
5.8330483 6.0461068 1.2279954 0
5.9864092 5.9377604 0.99860549 0
7.5506735 -3.883662 0.029722691 0
5.1616793 6.7422748 -0.16272193 0
5.8659678 6.0356913 1.1353579 0
6.7743311 5.1231484 0.077141285 0
5.4345942 6.4707265 0.86005855 0
5.230691 6.6705518 0.54264343 0
6.4509373 5.4615698 0.84256077 0
5.2349844 6.6775951 -0.39793068 0
5.532608 6.3818197 0.90405977 0
6.6373587 5.2664671 -0.60784304 0
5.7170544 6.2027583 1.0019393 0
5.576138 6.3298483 1.0036056 0
6.5697246 5.3312058 0.76730967 0
6.5054488 5.3988247 -0.84104264 0
7.9395838 -2.8577042 -0.98795605 0
5.4459562 6.4751935 0.77426708 0
6.8258462 5.0586576 0.083191156 0
5.9531918 5.9557433 1.133285 0
5.9044271 5.9856768 1.2277761 0
5.704813 6.19911 1.1074157 0
6.7680235 5.1308017 -0.26442313 0
6.7766466 5.1247911 -0.13161027 0
-7.7286501 3.4457202 -0.77701271 0
6.6430917 5.2715235 0.53973699 0
6.2362127 5.6650944 1.1080656 0
-7.2837763 3.7480199 2.2627587 0
6.3127651 5.6018476 0.99618149 0
6.6976891 5.2235351 0.28753197 0
5.3086805 6.6144543 0.54252791 0
7.5529861 -3.885587 0.29376221 0
6.5130606 5.4059353 0.76777828 0
6.2804856 5.6153584 1.1239059 0
5.7893271 6.1421442 1.0015838 0
6.7681866 5.1323619 0.31158531 0
-7.0670509 3.9598246 2.5751662 0
5.7832613 6.1249671 1.1384799 0
6.5297189 5.377017 0.84147501 0
5.0885658 6.8083534 -0.16451019 0
7.94455 2.8607562 -0.98908913 0
6.7737665 5.1370063 0.082697153 0
6.6910658 5.215282 0.56368327 0
6.7578297 5.1237411 -0.60762334 0
-7.7174969 3.4427814 0.93844581 0
6.5698342 5.331305 -0.84135807 0
-6.7671385 4.2717686 2.8736348 0
5.1675253 6.7521806 0.072618484 0
-3.7725182 7.5289512 1.1768181 0
6.7633357 5.1251292 -0.54193866 0
6.498981 5.3927822 0.99507403 0
6.7627611 5.1244335 0.56324387 0
5.1715994 6.7321739 0.49549484 0
6.3782239 5.5353308 0.99610138 0
6.702045 5.1989045 -0.60855436 0
6.6294508 5.2594919 -0.84068573 0
5.17029 6.7518449 -0.01608789 0
6.123167 5.7924767 1.1291173 0
6.2040215 5.7064281 1.1267292 0
5.4457583 6.4748979 -0.86706531 0
6.6935534 5.2183819 -0.54540694 0
6.8283892 5.0607133 0.311566 0
-6.5038166 4.5340018 3.0794868 0
6.7704096 5.134212 -0.37737423 0
5.1788263 6.740828 0.28986979 0
6.107101 5.7917266 1.2260075 0
6.4407883 5.4660411 0.9957875 0
5.1692424 6.7494898 0.278602 0
6.6890621 5.1877804 -0.84028494 0
7.5608335 -3.8921182 -0.23649424 0
6.5904827 5.3027396 0.90406168 0
6.0433002 5.8604684 1.2271147 0
6.7742262 5.1383085 0.28784192 0
5.0896311 6.8102198 0.3079083 0
7.3936024 -3.8914783 1.6041965 0
6.1727395 5.725317 1.2254279 0
5.6092286 6.294127 1.1440761 0
6.3601241 5.5174241 1.2230945 0
6.6085205 5.2934165 0.8405149 0
5.6993022 6.2141371 1.1416855 0
5.9791632 5.9292426 1.2283618 0
6.764514 5.1161871 0.69817221 0
5.0936437 6.8172469 0.071613431 0
5.3749018 6.5405512 -0.87013221 0
6.7676196 5.1318898 0.53980172 0
5.4403181 6.4667797 1.0067058 0
-3.9815502 7.0342498 2.6642056 0
6.6820459 5.2040424 0.83923113 0
6.7772999 5.1252542 0.49132919 0
-4.4146256 6.6120481 3.0387964 0
6.7112212 5.2067676 0.53989291 0
5.3007774 6.6018987 -0.8724165 0
6.4136114 5.4850559 1.108592 0
5.0743518 6.8343186 -0.018038392 0
6.7846212 5.130446 -0.34260821 0
5.3815384 6.5507684 0.7757138 0
5.3490152 6.5665832 0.86260378 0
-4.0132179 7.0092139 2.6934724 0
5.7799196 6.1300712 1.2320356 0
5.1692934 6.7551765 -0.40195072 0
2.0808268 8.1986227 -0.98481321 0
5.2543817 6.6462207 0.86426675 0
6.2282467 5.6583447 1.311806 0
5.7116575 6.1956239 1.2333155 0
7.5591116 -3.8906853 -0.50337082 0
6.3686452 5.5422573 1.123101 0
7.9938869 2.7688973 -0.98805594 0
5.1627445 6.7440796 -0.63987708 0
5.3560123 6.5609131 0.90406013 0
5.6423054 6.2602291 1.2345872 0
5.8808794 6.0207305 1.3110421 0
5.0889997 6.8091135 0.54346943 0
6.8366852 5.0674195 -0.37846458 0
6.305685 5.5946398 1.2250924 0
-3.8006244 7.4393306 1.6658497 0
7.1487789 -3.8923862 2.5123968 0
6.6460404 5.2741246 0.76829541 0
-6.9290667 4.1262736 2.7456658 0
-3.8257489 7.4025683 1.775697 0
-7.5916004 -3.8434317 -0.42933726 0
5.3719721 6.5360417 1.0084708 0
5.2352004 6.6779499 0.7772696 0
7.99717 -2.7708507 -0.9887985 0
7.3969045 -3.8894551 1.6642914 0
6.447762 5.4572449 1.1211309 0
6.689774 5.2136726 -0.82601106 0
6.8536463 5.057219 -0.26430285 0
5.7019825 6.196259 1.3108053 0
5.0948706 6.8193955 -0.40418226 0
-7.371542 3.6717825 2.1919885 0
5.0705709 6.8254819 0.5733248 0
6.5235143 5.3688149 1.1188879 0
6.5723729 5.3336096 0.99629033 0
5.1691461 6.7549267 0.5433538 0
7.5619078 -3.8930128 0.55784023 0
5.0770884 6.8407135 0.2777859 0
-7.5492001 3.5088744 1.8297901 0
6.8544364 5.0581484 0.28801465 0
6.8466048 5.075439 -0.14841384 0
5.1755972 6.7658577 0.30782461 0
-7.6060572 -3.8479128 -0.08728081 0
6.0627079 5.8471665 1.3117764 0
6.7080388 5.204041 0.76833773 0
6.8585348 5.0629663 0.01197648 0
6.9234362 4.9655805 0.28845084 0
4.9430017 6.9456925 0.069536567 0
5.2436619 6.6918292 -0.63937271 0
-7.2283049 -3.8489182 2.3724375 0
6.6337967 5.2633257 0.9961946 0
6.9009199 4.9986782 0.31125045 0
2.1839776 8.1839085 -0.9830327 0
5.5271635 6.3914146 1.1482792 0
6.9061089 5.0027514 0.08172667 0
5.4350314 6.4716063 1.150897 0
6.8490338 5.0517974 0.56323981 0
5.1624269 6.7341723 0.86647415 0
6.962131 4.927341 0.081822395 0
6.9275131 4.9702358 -0.26276433 0
6.8353825 5.0663667 -0.61135697 0
6.9071651 5.0035806 -0.14864069 0
5.0244169 6.8919196 -0.16813701 0
5.1733427 6.7587061 0.57297397 0
5.5790677 6.333961 1.2373724 0
5.1588087 6.7374096 -0.8805443 0
6.7662272 5.1286278 0.8389523 0
-7.6099129 -3.8491077 0.25477481 0
6.840436 5.0704522 0.54010427 0
6.9315519 4.9748483 0.012972236 0
5.180892 6.7433019 0.69955111 0
5.5422573 6.3921132 1.1080225 0
5.0260382 6.894856 0.069801807 0
-6.6059666 4.431201 3.0872993 0
-3.8026567 7.4556885 1.6621962 0
7.5960445 -3.8873634 0.082513332 0
6.4390078 5.4643292 1.225477 0
5.5087318 6.3985972 1.2389083 0
6.9582853 4.9404507 0.072657704 0
5.2371182 6.6810956 -0.87898707 0
5.0223985 6.8882642 -0.40719831 0
5.9716215 5.9203777 1.4592404 0
6.9619551 4.927207 0.31117105 0
6.8984017 4.9967012 0.54009354 0
5.1659994 6.7495952 0.77862406 0
6.1169457 5.7828989 1.4114974 0
-7.5973673 -3.8452191 0.59639573 0
-6.8658361 4.1690793 2.8885181 0
-3.7340064 7.6762481 -0.028902948 0
-3.847403 7.2432666 2.3691394 0
8.0455322 -2.678519 -0.98784542 0
5.3529997 6.5575089 1.1079021 0
6.8552437 5.0590968 -0.54297608 0
6.9675484 4.9314699 -0.1489594 0
5.9520931 5.9539409 1.4184897 0
7.5563765 -3.8884084 0.82206607 0
4.9464674 6.9521866 0.30694675 0
6.2567182 5.6782899 1.2282889 0
6.9076967 5.0039978 -0.38043213 0
5.3071446 6.6120143 1.0110152 0
5.3651199 6.5254931 1.2420359 0
-7.1670256 -3.8522477 2.5892005 0
7.0234995 4.8559265 0.081497788 0
5.3451557 6.558537 1.1542792 0
5.1729832 6.7338314 0.90406048 0
6.5970144 5.3076591 1.1094346 0
4.9825497 6.9297199 0.27699161 0
4.9494209 6.9577212 -0.17006606 0
6.9599152 4.9415383 0.28116202 0
4.9987631 6.9193649 0.2881043 0
6.7778473 5.1404028 0.76898098 0
-3.7345366 7.676899 0.27427411 0
-7.5273609 3.53513 1.9500597 0
6.964015 4.9442716 -0.13769722 0
-3.7339158 7.676137 -0.3331939 0
6.7037091 5.2003307 0.99719477 0
6.7744284 5.1385531 -0.8252517 0
6.6098504 5.2951231 1.1183743 0
5.5295696 6.3785791 1.3113415 0
6.9263949 4.9689593 0.56302738 0
4.9945736 6.9140449 0.49410951 0
4.9859352 6.9379563 -0.021254778 0
5.7749743 6.1237254 1.4645486 0
7.5646863 -3.8953254 -0.7738924 0
5.0289912 6.9002037 0.30705702 0
8.0515127 2.681962 -0.98918676 0
6.7765532 5.1247244 0.90406299 0
5.0984926 6.8257384 -0.64595318 0
7.2262378 -3.8858583 2.3846059 0
7.0069995 4.8902059 0.013662457 0
5.8440976 6.059875 1.463407 0
-3.7691059 7.5248809 1.4791927 0
8.0859776 -2.5819142 -0.98543346 0
6.4173288 5.4880266 1.3135669 0
6.3610487 5.5183392 1.4544954 0
5.0048323 6.9270716 0.080828071 0
8.087781 2.5829186 -0.98583472 0
6.5092597 5.4023848 1.226506 0
5.9133739 5.9965043 1.4625528 0
6.9632354 4.9281826 0.54025686 0
7.6019101 -3.8903072 -0.37914711 0
6.238502 5.6592059 1.456811 0
6.7776675 5.1402531 -0.8474828 0
6.2055535 5.708714 1.4098861 0
6.765626 5.1302304 0.9973762 0
7.6054449 -3.8920815 0.31121373 0
6.9057617 5.0024786 -0.6137706 0
5.2536864 6.6447163 1.157691 0
5.2374249 6.6815982 1.0129783 0
5.6980596 6.2118864 1.430223 0
6.8409095 5.0708346 0.76922393 0
7.6103773 -3.8945568 -0.14861304 0
4.981123 6.9262495 0.57434285 0
-7.5358438 3.5022728 2.0150728 0
6.3640375 5.5357895 1.403481 0
5.0266323 6.8959312 0.54425776 0
-7.7210474 3.443717 1.2819905 0
-3.9114175 7.1088886 2.6985776 0
6.966629 4.9460154 -0.34899533 0
6.960968 4.9422402 0.48911238 0
6.0480628 5.8659072 1.4606199 0
6.057394 5.8423953 1.5156887 0
5.0964193 6.8221078 0.78007984 0
-4.322454 6.7205086 3.0460043 0
-7.1790915 3.8561776 2.5921299 0
5.7872314 6.1319203 1.4270225 0
6.9333038 4.9768491 -0.54159343 0
6.8366194 5.0673666 -0.84735703 0
7.008862 4.892272 0.28841722 0
6.6887155 5.2123532 1.1169741 0
6.2876272 5.6256924 1.4071283 0
6.1147776 5.8002443 1.4598627 0
4.9483662 6.9557452 0.54452348 0
-7.0314455 4.0189705 2.7537887 0
-3.9050899 7.1278157 2.6686544 0
6.1795425 5.7326517 1.4588838 0
6.954751 4.9217162 0.76909125 0
5.4478321 6.4779921 1.2427607 0
-7.3987827 3.6408725 2.2781353 0
6.8511653 5.0543032 0.83882737 0
4.8764858 7.0289421 0.067291975 0
5.876122 6.0528984 1.4241111 0
5.3462429 6.5498734 1.3114901 0
-3.7341552 7.6764302 0.57711518 0
7.0309296 4.861423 -0.38185543 0
5.7135296 6.1980987 1.4679651 0
7.0807729 4.8042779 0.014377117 0
6.5754404 5.3363943 1.2269945 0
7.0127802 4.8966193 -0.26290387 0
6.2342272 5.6634121 1.5167813 0
5.6442633 6.2628956 1.4696379 0
6.6350975 5.264473 1.2265646 0
5.0751686 6.8362279 0.86954713 0
4.9471149 6.9534001 -0.65206468 0
4.8889551 7.0247388 -0.023574948 0
6.9031444 5.0004244 0.7694757 0
2.288347 8.1885872 -0.98531842 0
5.1655855 6.7488933 1.0147943 0
-6.7060995 4.3261232 3.0948725 0
7.604598 -3.8916564 0.5401696 0
6.9795556 4.9406209 -0.38265014 0
4.954926 6.9680371 -0.41185397 0
6.3094134 5.5984354 1.4577093 0
5.3021927 6.6041465 1.2460096 0
7.0069618 4.8901639 -0.53964293 0
6.9703517 4.9336061 -0.61518848 0
6.0491633 5.8909211 1.4181881 0
5.8884125 6.027895 1.5158136 0
8.1327801 2.4891109 -0.98474991 0
7.5521193 -3.884865 1.0869021 0
7.0063481 4.889483 0.56291723 0
6.4039803 5.4773588 1.5176806 0
6.9585543 4.9406304 0.69676805 0
6.942378 4.9298429 0.9040637 0
7.5917869 -3.8852267 0.76863694 0
6.4939923 5.3881211 1.4553804 0
6.9006701 4.9984818 -0.84875178 0
6.8575382 5.0617948 -0.8243928 0
-3.8028874 7.444356 1.8585033 0
6.7726641 5.1219664 1.1101859 0
7.0822892 4.8059125 0.28866482 0
5.4306908 6.4628797 1.4422693 0
-3.8542328 7.2752991 2.3596497 0
5.0299911 6.9020143 -0.65117466 0
5.2291327 6.6679959 1.2479503 0
-7.6119242 -3.8497314 -0.77690101 0
5.0983143 6.8254261 -0.88943684 0
5.7090101 6.2033372 1.5154288 0
7.04075 4.8686876 0.31068456 0
-7.5968771 -3.8450675 0.93817711 0
7.3967066 -3.8941386 1.8728271 0
7.6063747 -3.8925481 -0.61329389 0
6.5958652 5.3067942 1.3149633 0
6.4505758 5.4610777 1.4022751 0
5.0004368 6.9214907 0.69897592 0
6.8359871 5.0668554 0.9986192 0
7.0858693 4.8097725 -0.26161116 0
6.7006807 5.1977358 1.2272656 0
4.8911209 7.03023 0.27596033 0
-4.2146769 6.8099556 3.0471592 0
7.0469251 4.8732557 -0.15145463 0
7.1012363 4.79602 0.080054283 0
4.8828812 7.0413508 -0.17384166 0
-3.7407155 7.6844869 -0.6406796 0
5.1650782 6.7401304 1.1620915 0
5.6183882 6.3112912 1.4362824 0
7.0319357 4.8621674 -0.61619437 0
5.5089431 6.3989029 1.4747472 0
5.526309 6.3751006 1.515202 0
6.9318457 4.975184 -0.82169783 0
7.1025667 4.7969751 -0.15145844 0
5.527463 6.3919954 1.4398723 0
8.1423588 -2.4942665 -0.98686433 0
6.9313898 4.9746637 0.83841479 0
4.8871741 7.0202236 0.57525182 0
4.9489193 6.9567809 0.78252196 0
7.0377851 4.8664942 0.54065096 0
6.7731538 5.1370106 1.1165276 0
5.0290575 6.9003243 0.78192544 0
7.1011653 4.795969 0.3105799 0
4.811902 7.0915198 0.28647661 0
4.8832302 7.0420284 0.30607069 0
-6.9687052 4.0661654 2.9049323 0
6.6047177 5.2885365 1.3967974 0
6.4434347 5.4685855 1.4583349 0
7.1389942 4.7522225 0.06802845 0
4.881783 7.0392208 -0.41542286 0
6.5315542 5.3794427 1.4001799 0
6.1656108 5.7176313 1.689712 0
5.096961 6.8230567 1.0173914 0
4.8041906 7.1033721 -0.17557245 0
4.8026352 7.100245 0.30579972 0
-3.7565746 7.6511602 0.96074557 0
5.5846157 6.3417482 1.4742212 0
7.027317 4.8587508 0.77015102 0
7.0839229 4.8076744 -0.53854442 0
7.1402035 4.7529798 -0.14285553 0
4.8795195 7.0348282 0.54518783 0
4.8058176 7.1066422 0.065332174 0
7.5999227 -3.8893099 -0.84802175 0
-7.3775778 3.6749842 2.3813205 0
4.9961805 6.9160862 0.90406132 0
6.846766 5.0491319 1.1147738 0
7.1581364 4.7206192 0.31052721 0
6.6800323 5.2015333 1.3941543 0
-7.8686247 3.4055474 0.33314288 0
5.1605635 6.7403836 1.2512417 0
6.1136136 5.7777691 1.6963484 0
5.1847773 6.7479558 1.1087122 0
7.4073195 -3.8948705 1.8995023 0
5.8399477 6.0547042 1.697957 0
5.3682489 6.5303102 1.4796321 0
7.5879364 -3.8832941 0.99781621 0
5.4421749 6.4695501 1.4780478 0
6.5677414 5.3294053 1.4576731 0
-3.8218694 7.3980732 2.0813553 0
7.1063728 4.7997074 -0.38487899 0
7.0059218 4.88901 0.83765304 0
7.142211 4.7542372 0.27756655 0
7.1666474 4.7265458 0.079357147 0
6.2347021 5.6552248 1.6900809 0
4.9493542 6.9575968 -0.89793181 0
7.0081229 4.8914518 -0.81980693 0
5.0291815 6.900548 -0.89558935 0
4.7930264 7.1179581 0.27514863 0
2.3924665 8.1864767 -0.98657334 0
4.9850149 6.9357185 0.87252784 0
7.1653972 4.7302499 0.014163375 0
7.1607575 4.7224445 -0.38485461 0
4.8134317 7.0935812 0.4925909 0
7.102272 4.7967634 0.54084384 0
6.7682676 5.1188488 1.3162818 0
6.9205189 4.9622488 1.1132355 0
7.143116 4.7548037 -0.35523915 0
5.7065163 6.188828 1.70258 0
6.1096649 5.7945709 1.6934114 0
-3.7344551 7.6767988 -0.94829297 0
4.8234119 7.1070318 0.077767611 0
6.9764547 4.9382577 -0.85324168 0
6.5874701 5.3004708 1.520237 0
4.881474 7.0386209 -0.65918922 0
5.1724653 6.733211 1.31269 0
7.1710539 4.7296147 -0.15294868 0
6.7753587 5.1383314 1.2295647 0
7.0924759 4.816895 0.56299651 0
7.1017237 4.79637 -0.61898994 0
-7.8706884 3.4064946 0.52368104 0
6.0374861 5.8723688 1.702476 0
5.7814016 6.1217108 1.7154818 0
7.1673474 4.7322936 0.28858328 0
-3.7418137 7.6858354 0.88095081 0
5.9815893 5.9320946 1.6971223 0
6.2017913 5.7030993 1.6941683 0
6.9123363 5.0076399 1.0006158 0
5.6397219 6.2567101 1.7054012 0
-7.281992 3.747467 2.6071689 0
4.7909889 7.1125679 0.57615066 0
-7.8612518 3.4021628 0.71420646 0
6.8346086 5.0657411 1.2295365 0
5.3505201 6.5697207 1.4497356 0
-7.028697 -3.8529251 3.1054258 0
5.8855305 6.0251541 1.7203956 0
4.8091788 7.1134 -0.41952133 0
7.0362926 4.8653903 -0.854038 0
5.9171119 6.0010281 1.699338 0
6.3615074 5.5322375 1.686286 0
-7.139327 3.9134977 2.7637022 0
6.2836261 5.6199031 1.690567 0
5.3521414 6.5565395 1.5163815 0
5.0286798 6.8996401 1.0203085 0
6.9708824 4.9340105 1.000726 0
-3.7993259 7.4364481 2.0504718 0
5.2556429 6.6489496 1.4535737 0
6.0510812 5.8693538 1.6967158 0
8.1966944 2.4052939 -0.98811245 0
5.8715558 6.0451603 1.7121654 0
5.6961994 6.208518 1.7208624 0
6.3070431 5.5960221 1.6915956 0
6.0654793 5.8496542 1.7216151 0
4.8078508 7.1107302 0.54580462 0
5.9579244 5.9635067 1.7081113 0
5.7071743 6.2014885 1.72001 0
6.3702359 5.5274277 1.6908207 0
4.8815994 7.0388641 0.784693 0
4.8885417 7.0236912 0.87491584 0
5.0937157 6.8173733 1.2552962 0
2.4956486 8.1733751 -0.985973 0
7.1746278 4.7399201 -0.26248187 0
6.4415064 5.4487247 1.6829939 0
7.1681757 4.7276101 0.5410862 0
5.7850409 6.1366434 1.7038298 0
5.5170393 6.3717709 1.7303154 0
7.2412424 4.6470852 0.014529467 0
-7.542696 3.5056598 2.2045829 0
5.3057566 6.6098094 1.4849081 0
7.2338519 4.6578002 -0.15392625 0
-7.5059633 3.5291634 2.2921815 0
5.0799074 6.847302 1.1677048 0
5.5230103 6.371582 1.7195003 0
4.8163929 7.0975723 0.6983223 0
4.9975252 6.9177928 1.1090376 0
-3.8004742 7.4523802 2.0200753 0
4.979033 6.9211655 1.1702504 0
6.9584684 4.9405732 1.1113582 0
7.1406507 4.7532597 0.69557703 0
6.7677202 5.130435 1.3941836 0
7.2392993 4.6451068 0.28880286 0
6.2415504 5.6696167 1.7229552 0
5.2313108 6.6715689 1.4870143 0
8.2042351 -2.4092143 -0.98976433 0
6.8383932 5.039289 1.3911829 0
6.6452003 5.2733836 1.4608989 0
7.5590377 -3.8906238 1.354759 0
7.1687155 4.7337265 0.56285119 0
7.0899658 4.8141894 -0.81952262 0
7.0330992 4.863028 1.0013499 0
-6.8237629 4.2306662 3.1083422 0
5.5775137 6.331779 1.7101383 0
-7.6883974 -3.83987 0.52234864 0
8.2357769 -2.3084364 -0.98631215 0
4.8737283 7.0235925 1.0234938 0
5.5057793 6.3943243 1.712081 0
6.9015651 4.9991846 1.230875 0
-7.7220345 3.4439769 1.6275725 0
5.1629753 6.735405 1.4585416 0
7.1007533 4.7956734 -0.85618341 0
7.1714883 4.7366314 -0.53955954 0
5.6119566 6.2992382 1.7271247 0
6.7060981 5.2023778 1.4607997 0
7.0912547 4.8155789 0.83783054 0
7.2447977 4.6507044 -0.261145 0
7.1593037 4.7649403 0.48583794 0
7.1618509 4.723206 0.77173638 0
4.8818331 7.0393181 -0.90590322 0
-3.7763991 7.5335798 1.786438 0
-7.0700827 3.9608603 2.921262 0
4.9566021 6.9711781 1.0228004 0
4.8106337 7.1163244 -0.66510022 0
6.4155102 5.4865732 1.7246377 0
-3.7516875 7.6435165 1.3181024 0
7.3864522 -3.8853514 2.141355 0
5.4365377 6.4611387 1.7152457 0
4.8067141 7.1084442 0.78617322 0
5.0223007 6.8880877 1.2585735 0
7.2402911 4.662149 0.30992174 0
7.2379146 4.6605439 -0.38836908 0
7.238852 4.6446519 -0.53719985 0
6.9620285 4.9272628 1.2313442 0
7.0074944 4.8907547 1.1136131 0
7.1604524 4.72507 -0.81689322 0
-7.6044931 -3.8474281 1.281918 0
7.176003 4.7330608 -0.62280726 0
6.5263867 5.372612 1.6813619 0
7.1149702 4.8058786 0.77223158 0
5.1614432 6.7418747 1.4908714 0
7.229671 4.6549768 -0.62282288 0
-3.7363048 7.6790705 1.1849248 0
6.4454088 5.4704833 1.6935532 0
4.8149071 7.0955691 0.90406227 0
-7.7081394 -3.850343 0.32942104 0
5.9681597 5.9163079 1.9310009 0
4.9454536 6.9502869 1.2607834 0
7.3013248 4.5886412 0.077552557 0
8.2485161 2.3148298 -0.98908269 0
6.5667038 5.3284636 1.6919363 0
5.1721182 6.7327952 1.5175219 0
7.2511406 4.669476 0.07739687 0
-4.128067 6.9280581 3.0583963 0
7.2432022 4.6490803 0.56269419 0
7.1406155 4.7532377 0.90406573 0
7.2984314 4.5867472 0.30980539 0
2.5994339 8.1659288 -0.98676777 0
-7.8742266 3.408119 0.9040432 0
7.2396917 4.6617441 0.54146552 0
5.4349527 6.471447 1.7385268 0
4.7937155 7.1197805 0.87782311 0
-7.693181 -3.8424075 0.71317375 0
6.511199 5.4041963 1.6939721 0
7.6041064 -3.8914096 1.2308488 0
5.8389506 6.0534616 1.9364095 0
6.7772598 5.1399136 1.4630272 0
7.324832 4.5634613 -0.149822 0
2.7007265 8.1387157 -0.98397875 0
7.4023628 -3.8922932 2.1347206 0
5.3488398 6.5528083 1.7210598 0
-6.916954 4.119184 3.1145277 0
8.2842426 2.2163923 -0.98685133 0
4.8023739 7.09972 1.0266156 0
6.7776833 5.125526 1.5237586 0
-3.8506918 7.2469683 2.6826124 0
7.1720138 4.7302828 -0.86015558 0
-7.1526117 -3.8475528 2.9326301 0
6.836987 5.0676641 1.4630837 0
7.1714792 4.7366219 0.83769822 0
5.0911598 6.8128963 1.4950109 0
5.3731556 6.5378637 1.7209091 0
8.2876339 -2.2180336 -0.98758352 0
4.8878536 7.021946 1.1754491 0
7.329771 4.5663605 0.061796904 0
7.7107191 -3.8888676 0.060018301 0
5.0739098 6.8332853 1.4651828 0
6.1720533 5.7245774 1.929172 0
7.1084471 4.8011961 1.0034916 0
6.6113768 5.2970819 1.6800711 0
7.0867267 4.8106971 1.1131215 0
7.7110987 -3.8890483 -0.15276742 0
-4.0141201 7.0104613 3.0581245 0
5.2996798 6.6001544 1.7234159 0
6.0442104 5.8615079 1.9328952 0
6.6938334 5.1918688 1.6929064 0
5.0001974 6.9211869 1.3144379 0
7.324697 4.5716972 0.28865838 0
5.9118676 5.9946814 1.9365168 0
6.2375116 5.6581683 1.9283621 0
7.3072977 4.5925517 -0.39084053 0
6.3621025 5.5193815 1.9256597 0
7.3148804 4.5975156 -0.15690905 0
6.9292884 4.9722633 1.3922448 0
6.6872244 5.210495 1.6767657 0
5.886714 6.0262794 1.9263396 0
8.3201723 -2.1183879 -0.9849813 0
6.1944118 5.6920872 1.9798751 0
6.9644098 4.9445353 1.3192103 0
5.7778597 6.1274281 1.9410555 0
4.8128195 7.0927558 1.1096628 0
-7.868557 3.4055159 1.0940669 0
6.1129737 5.7982426 1.9325194 0
4.8135271 7.1221418 -0.91426814 0
-7.2484217 3.8072436 2.7742536 0
7.3325796 4.5794954 0.013659954 0
6.0662117 5.8503122 1.9277906 0
7.7075329 -3.8873491 0.48312283 0
7.137598 4.751348 1.1124706 0
5.7109122 6.1946392 1.9439504 0
7.0392799 4.8676 1.2345307 0
-3.6972852 7.8000865 0.51046801 0
7.3311286 4.5780606 -0.26197416 0
7.3072643 4.5925298 0.54177868 0
7.3334808 4.5685382 -0.36454248 0
5.3492794 6.5671339 1.7461879 0
4.8770885 7.0301123 1.2655644 0
7.3038983 4.5903263 -0.62694287 0
-7.5376043 3.5031433 2.3933959 0
6.2412186 5.6693358 1.9293022 0
6.6039391 5.3128743 1.7285974 0
7.2368259 4.6598091 -0.86279786 0
7.7202787 -3.8934231 0.27109218 0
5.7111712 6.205514 1.9263291 0
-7.6969519 -3.844408 0.90404427 0
6.6456056 5.2737408 1.6962726 0
7.2463937 4.6523294 0.83725572 0
7.2482653 4.6542349 -0.81850839 0
6.0367723 5.8712339 1.9923868 0
7.376555 4.5237741 0.076080084 0
7.33356 4.5685844 0.48364103 0
7.5928278 -3.8857489 1.4622931 0
7.3758702 4.5233397 -0.15787858 0
5.6455059 6.2645879 1.947875 0
7.5592566 -3.890806 1.6241732 0
7.7215738 -3.8940403 -0.36830556 0
5.8681784 6.0394378 2.0032473 0
7.0061836 4.8893003 1.3909001 0
6.7639728 5.1288543 1.6954193 0
-3.6955943 7.8278198 -0.033838391 0
5.7816191 6.1220913 2.0086944 0
6.4349766 5.460454 1.928206 0
5.9544721 5.9578428 1.9982741 0
5.2339945 6.675971 1.7292204 0
8.3344936 2.1250696 -0.98805308 0
7.2499814 4.6686931 0.77392983 0
7.3759131 4.5233669 0.309268 0
5.5292406 6.3782287 1.9260931 0
4.981514 6.9272003 1.4714284 0
-3.6942797 7.8261571 0.27268195 0
7.7060738 -3.8866541 0.69374692 0
6.7692928 5.132338 1.6753747 0
5.5764046 6.3302231 1.950804 0
-3.8041515 7.4471631 2.246654 0
4.7920313 7.115324 1.1800499 0
5.6944456 6.2053413 2.0145073 0
-7.4041834 3.6424623 2.6271627 0
6.9503231 4.9351411 1.5261624 0
-3.7058792 7.8207293 0.31157947 0
7.7356005 -3.8941047 0.021882296 0
7.7328415 -3.8918741 -0.24811602 0
7.3322248 4.579145 -0.53959459 0
6.9130821 5.0082254 1.4666445 0
7.3487329 4.5774903 0.27162755 0
4.8012614 7.0974832 1.2687385 0
5.0255547 6.89398 1.501121 0
6.4409289 5.4479389 1.9685483 0
7.4328351 4.4462948 -0.15853584 0
7.4061384 4.4941239 0.0140239 0
6.3646398 5.5366349 1.9738276 0
7.1833639 4.7381868 1.005661 0
7.3061161 4.5917778 0.77414751 0
5.1726704 6.7334561 1.7231278 0
6.2865362 5.6241136 1.9790268 0
6.3170033 5.6061621 1.9325027 0
7.1067328 4.7999659 1.2363334 0
6.1258535 5.7966123 1.989495 0
4.9956121 6.9153633 1.5196648 0
7.37923 4.5254712 -0.39380252 0
-3.8229499 7.3993254 2.3925266 0
5.6071844 6.2902961 2.0209277 0
7.4054899 4.4935002 -0.26146638 0
7.1713905 4.7365294 1.1134715 0
2.8058496 8.1400862 -0.98708498 0
7.7367058 -3.8949983 0.29117858 0
7.2376585 4.6603708 1.005728 0
2.9056716 8.1058369 -0.98347974 0
5.1622043 6.7431641 1.733243 0
7.3330374 4.5682778 0.69398224 0
-3.8522253 7.2723494 2.7218549 0
8.3701344 -2.0269661 -0.98641336 0
4.7613516 7.241487 -0.18478477 0
7.2912192 4.5820255 1.0058346 0
-3.9098673 7.106679 3.0629139 0
5.5108414 6.40165 1.9556084 0
5.0652256 6.8129911 1.763072 0
6.8312702 5.0630426 1.6974199 0
7.3380551 4.5849128 0.56306946 0
7.0822568 4.8058777 1.3896434 0
-3.7006645 7.8342314 -0.34216076 0
7.7303143 -3.8898313 0.56007779 0
-3.7015486 7.8103275 0.70710826 0
6.4250765 5.4942183 1.9328914 0
7.3785725 4.525054 0.54218686 0
7.165803 4.7259579 1.2370095 0
6.8485961 5.0512829 1.6736069 0
7.3239574 4.5709658 0.83710432 0
7.3070922 4.5924172 -0.86691797 0
6.5232253 5.368433 1.9657164 0
5.5196166 6.3767719 2.0279078 0
7.4020724 4.4902143 -0.53811049 0
6.5075827 5.4008179 1.930902 0
-7.1897726 3.8596566 2.9431021 0
-7.0255594 4.0156374 3.1259031 0
7.7348404 -3.8934901 -0.52027184 0
5.2646761 6.6684933 1.7550032 0
4.952076 6.962697 1.5051336 0
7.4121943 4.4999456 0.28843951 0
6.7808752 5.1277895 1.7317383 0
-7.6041965 -3.8473361 1.6273074 0
4.763443 7.2458472 0.30381632 0
8.3777752 2.0303986 -0.98804164 0
7.7050972 -3.8861885 0.90406787 0
7.1394625 4.7525158 1.3212047 0
7.3283205 4.5752821 -0.81859994 0
5.9003735 5.9807711 2.1743422 0
6.5700574 5.3315077 1.9306719 0
4.8175688 7.0991564 1.3158581 0
6.5924864 5.3042488 1.9347405 0
5.3518648 6.5562263 1.9275138 0
-3.6988354 7.8319182 0.5788461 0
4.8873386 7.0206413 1.4777513 0
-3.7530751 7.6456871 1.6784439 0
6.98316 4.943368 1.4691391 0
5.4437051 6.4718342 1.9602838 0
7.47508 4.4046783 0.28878665 0
7.4452629 4.4539318 0.30888307 0
7.3711824 4.5203657 0.77498627 0
-7.7048664 -3.8486068 1.0952229 0
-3.7447467 7.6894369 1.4928634 0
4.7681255 7.255609 0.059184313 0
6.8958716 4.9947152 1.698966 0
4.8746376 7.0253563 1.5082254 0
7.3824949 4.5275426 -0.63201964 0
6.6322999 5.2620053 1.9306808 0
6.0586262 5.843502 2.1335659 0
6.9243674 4.9666438 1.6712997 0
7.4518313 4.4579687 0.074560404 0
-7.8816891 3.4115446 1.2849705 0
7.0398612 4.8680301 1.4691558 0
7.4083595 4.4962587 0.56286752 0
5.3715086 6.5353284 1.9633398 0
4.7645292 7.2481117 -0.43197715 0
4.7618613 7.2425499 0.54751968 0
-3.7784729 7.5360532 2.0963187 0
7.3940182 4.4824715 0.83649492 0
5.8843842 6.0240641 2.1328025 0
7.483326 4.4123816 0.014034629 0
-3.6999164 7.8332849 -0.65179372 0
3.0084641 8.0912762 -0.98403382 0
5.1723533 6.7564816 1.7616553 0
6.6078167 5.2925129 1.9640248 0
6.2358704 5.6648045 2.1358311 0
5.0963831 6.8220448 1.7400799 0
7.2525797 4.658627 1.1135166 0
-8.0075026 3.3704953 0.25033212 0
-7.3559904 3.6987069 2.7847285 0
-3.797266 7.4475174 2.3812952 0
5.434844 6.4712296 2.0368443 0
7.5134506 4.3719907 0.055845737 0
7.3173761 4.5590854 1.1137302 0
7.5088606 4.3803177 0.074108601 0
7.4458547 4.4542956 0.54252887 0
5.3014669 6.6029935 1.9677896 0
7.3743148 4.5223527 -0.87052333 0
7.4007969 4.4889884 -0.81727529 0
7.5089803 4.3803887 -0.1612528 0
6.2364559 5.6570625 2.1693032 0
6.6992893 5.1965432 1.9324369 0
7.3412418 4.5730934 0.90406799 0
7.4873037 4.4160981 -0.26200354 0
-8.0165281 3.3727355 -0.1013189 0
-3.6957531 7.7964058 1.1006436 0
6.1750607 5.7278194 2.1718376 0
7.2389956 4.661274 1.2399292 0
8.4227066 1.9364195 -0.98866737 0
7.3938985 -3.891732 2.4195433 0
-3.7988386 7.4353652 2.4402409 0
7.7373247 -3.895498 -0.79505062 0
7.5950899 -3.8868845 1.6983705 0
-7.7379694 3.4481757 1.9786506 0
7.1668577 4.7317805 1.390136 0
7.7356305 -3.894129 0.82951963 0
6.4093676 5.4816647 2.1383052 0
6.047709 5.8655033 2.1763971 0
7.459424 4.4626346 -0.39806825 0
5.77845 6.1281857 2.1847024 0
7.4476185 4.4553795 -0.63471508 0
6.9656768 4.9300432 1.7020073 0
7.4818468 4.4109998 -0.53852952 0
5.7092857 6.1924891 2.1870823 0
4.9947577 6.914278 1.7257788 0
5.0233388 6.889967 1.7446399 0
-3.7066641 7.8226161 0.9040519 0
-7.7008886 -3.8464963 1.2863994 0
5.7144823 6.208849 2.1339025 0
8.4280901 -1.9387462 -0.98980749 0
6.9551306 4.9383473 1.735121 0
8.4519386 -1.835798 -0.98626924 0
7.5148644 4.3838897 0.30847609 0
-8.0138683 3.3720756 -0.45385677 0
6.6903157 5.2143469 1.9620543 0
-7.2813663 3.7472732 2.9573712 0
-3.6926484 7.825428 0.96669054 0
7.4843464 4.4133353 0.56283462 0
-3.6990662 7.8322096 0.88553166 0
5.2327323 6.6739011 1.9733496 0
5.5297508 6.3787732 2.1330628 0
6.765223 5.1298952 1.9341388 0
6.1172409 5.8029771 2.1762457 0
7.5256443 4.3786855 -0.15956867 0
7.3738375 4.5220499 1.0090678 0
-7.876667 3.4092391 1.4755647 0
7.0085101 4.8918819 1.6712985 0
5.1740313 6.735086 1.9298177 0
4.7685342 7.2564611 -0.68211675 0
7.5173283 4.3741198 0.48067141 0
8.4572582 1.838007 -0.98738885 0
-3.6964359 7.8288836 -0.96331108 0
4.816453 7.0976534 1.5221844 0
4.8057485 7.106504 1.5147629 0
7.3290854 4.5760388 1.1131225 0
7.5596261 4.3298116 0.014024496 0
7.5569596 4.3273911 -0.26122898 0
-7.5130701 3.5311451 2.6442492 0
7.5270376 4.3794503 0.2676239 0
5.9885845 5.9403176 2.1812217 0
4.980783 6.9254227 1.7743201 0
3.1118302 8.0791597 -0.98536396 0
6.1130104 5.7768407 2.2775979 0
6.7757063 5.1241236 1.9396081 0
4.7662554 7.2517104 0.79198897 0
7.5125947 4.3825393 0.54287767 0
6.8272729 5.0598111 1.9349527 0
-7.1304617 3.9086435 3.1365128 0
7.5201726 4.3870482 -0.39964855 0
7.4497604 4.456696 0.77671218 0
4.9494314 6.9577408 1.7493634 0
7.5086036 4.3801651 -0.63681614 0
5.8558812 6.0745592 2.186301 0
4.7959867 7.1257896 1.485754 0
5.3507299 6.570158 2.0469458 0
7.1441088 4.7554255 1.530724 0
7.1201143 4.8095713 1.4739754 0
6.0329685 5.8651915 2.2848272 0
5.5776644 6.3319907 2.1963408 0
7.5296478 4.3808837 -0.37549496 0
-8.0195227 3.3734789 0.60128403 0
6.8414145 5.0428405 1.9550629 0
6.3792343 5.5363302 2.173034 0
7.5677338 -3.8978622 1.8986931 0
7.3170319 4.5588832 1.3236022 0
4.7639761 7.2469583 -0.93184042 0
7.8077378 -3.8857183 -0.16375875 0
5.1639032 6.7460423 1.9794583 0
6.3185554 5.6077423 2.1751122 0
7.3983831 4.4866676 1.1120038 0
7.1777086 4.7342486 1.4745364 0
7.3111153 4.5950508 1.2428007 0
7.0851188 4.8089633 1.6697936 0
7.4490209 4.4562416 -0.87603438 0
4.8727036 7.0216045 1.7534297 0
5.6520386 6.2734857 2.1953177 0
7.482585 4.4116898 -0.81825602 0
7.7266808 -3.8964739 1.1149213 0
5.2579083 6.653851 2.053977 0
6.3596535 5.5296359 2.2624488 0
6.5904808 5.3027382 2.143002 0
7.8120403 -3.8878012 0.072349787 0
-3.735693 7.678319 1.8000035 0
7.732842 -3.8918746 1.0995159 0
6.891603 4.991364 1.9367228 0
7.5573649 4.3277588 0.56276023 0
3.2128959 8.0548468 -0.9845705 0
4.7370052 7.3259869 0.27208209 0
7.0406337 4.8686018 1.7064877 0
7.5597591 4.3299322 -0.5388236 0
7.5207376 4.3759913 0.69239461 0
7.5836082 4.312561 0.30806947 0
7.4847727 4.4137335 0.8374691 0
7.2341795 4.6580215 1.4750843 0
-8.0117311 3.3715448 -0.80842936 0
6.5065689 5.3998709 2.1722889 0
6.2034535 5.7055802 2.2753654 0
6.2836189 5.6198921 2.269423 0
7.5812373 4.3111959 -0.40141463 0
-7.3227415 -3.8465631 2.7936652 0
8.4978161 1.7421682 -0.98766994 0
7.5703058 4.3395061 0.28833461 0
-7.8652534 3.4039998 1.6658664 0
5.5120201 6.4033556 2.2018909 0
7.5889797 4.3156538 -0.16443229 0
5.8696036 6.041853 2.3000221 0
5.4393167 6.4652858 2.2046494 0
7.2529907 4.6590457 1.391077 0
7.5908008 4.3167024 0.072086692 0
-7.6997242 -3.8458788 1.478004 0
6.779531 5.1447287 1.9625113 0
5.7833672 6.1251531 2.3066583 0
-7.5910521 -3.843262 1.9735193 0
5.9568167 5.9616895 2.294508 0
5.3564739 6.5614347 2.1356442 0
8.5237169 1.6406624 -0.9851861 0
5.8817244 6.021534 2.3403959 0
7.4472427 4.4551487 1.0114152 0
6.4512587 5.4761076 2.1755836 0
6.4435363 5.4514894 2.2591794 0
4.7653151 7.2497501 1.0369864 0
5.1648059 6.7395196 2.0616674 0
4.8872809 7.020494 1.7827554 0
7.8183727 -3.8908668 0.30788946 0
5.6968107 6.2096243 2.3138781 0
6.572464 5.3336921 2.1732645 0
6.2320194 5.6615415 2.3437116 0
7.8162827 -3.8898549 -0.40273207 0
8.5068836 -1.7457829 -0.98956764 0
7.3752775 4.5229635 1.2446277 0
7.5117874 4.3820591 -0.87901318 0
7.1052017 4.7988667 1.7086477 0
6.0626936 5.8471532 2.3427908 0
7.16256 4.7272782 1.6687765 0
-3.7026329 7.8129315 1.2982841 0
5.0959425 6.8212733 1.9866021 0
-3.6991577 7.8323259 1.1933482 0
5.0173597 6.8791385 1.9893672 0
5.6098013 6.2952003 2.3216577 0
-8.0133286 3.3719413 0.95254612 0
-3.7463803 7.6352177 2.0396936 0
7.5882649 4.3152423 0.54342413 0
7.5826354 4.3120008 -0.64148188 0
8.5336113 -1.6444428 -0.98724484 0
-7.4690981 3.5914199 2.7969568 0
3.3148527 8.0349941 -0.98494995 0
6.6377726 5.2668324 2.1743593 0
7.7209191 -3.8822362 1.3694737 0
6.9560623 4.9389687 1.9447155 0
7.5073299 4.3794069 1.0124846 0
7.5227308 4.3770857 0.90406966 0
7.6428256 4.2532883 -0.26250416 0
7.1392059 4.7523556 1.7401307 0
-3.6916533 7.8238211 1.3286552 0
4.8180046 7.0997438 1.7295146 0
7.6481848 4.2580152 0.013074875 0
7.648632 4.2383752 -0.40420955 0
7.81602 -3.8897278 -0.64287949 0
6.5294595 5.3766737 2.2571843 0
6.9323897 4.9758053 1.956753 0
7.5321751 4.3941894 0.77871299 0
-3.8210702 7.3971477 2.7076585 0
7.7271452 -3.8966951 1.3260269 0
7.0002861 4.8827572 1.9519966 0
5.5263691 6.375165 2.3404911 0
7.5626111 4.332521 0.83758664 0
5.1727982 6.7336097 2.137166 0
7.306993 4.5923519 1.4789286 0
7.3326025 4.5795183 1.3910596 0
7.8258414 -3.8944824 0.54365528 0
4.742486 7.3411379 0.57959902 0
7.6037064 -3.8912089 1.9394941 0
4.7335005 7.3162966 0.8863883 0
7.6489367 4.2586784 0.28825247 0
7.6603475 4.2448988 -0.16681528 0
7.5666671 4.3362031 -0.81995308 0
5.380362 6.5489578 2.2146635 0
4.7910662 7.112771 1.7908998 0
4.7614689 7.2417321 1.2825084 0
5.306066 6.6103005 2.2177863 0
8.5684395 -1.5464077 -0.98691225 0
7.443397 4.4527855 1.2471583 0
5.005908 6.9284387 1.9349959 0
5.7192469 6.2136478 2.3433979 0
6.4171133 5.4878545 2.3490644 0
-3.7762151 7.5333605 2.4091058 0
7.1754498 4.732676 1.7123694 0
6.9755001 4.93753 1.9444394 0
5.5267029 6.3905215 2.3322356 0
6.610836 5.2963881 2.2539239 0
7.5896063 4.3160148 0.77924109 0
6.6840315 5.2065163 2.248131 0
7.8166022 -3.8900096 0.77931583 0
6.7662196 5.1307244 2.1767645 0
-7.2429161 3.8043306 3.1497984 0
7.0314455 4.8618045 1.9442706 0
-3.6997857 7.8060932 1.4954174 0
7.7071791 4.1784196 0.048337936 0
4.9485235 6.9560404 1.9973884 0
6.7799263 5.1271172 2.1499357 0
5.343153 6.546382 2.341018 0
7.6649761 4.2474761 0.30739343 0
6.5813684 5.2958746 2.3510516 0
7.655427 4.2421589 0.54381573 0
7.6703486 4.2504683 0.07016933 0
5.0779629 6.8427577 2.0733085 0
-7.4010496 3.6415398 2.9798763 0
7.5190229 4.3750505 1.1156993 0
7.7138906 4.1659236 -0.26218152 0
8.5947533 1.4454246 -0.98511732 0
4.7187424 7.3873324 0.30191445 0
6.7128024 5.2081223 2.1792107 0
7.7105398 -3.888782 1.5362923 0
4.7201672 7.3904142 -0.19503772 0
7.6480718 4.2579155 0.56312728 0
7.6517096 4.2400889 -0.64538968 0
7.7195039 4.1666632 0.070019007 0
4.7163801 7.3971481 0.06162715 0
7.4944854 4.4228072 1.1142633 0
-7.8688526 3.4056518 1.8583426 0
8.5791607 1.550329 -0.98913109 0
3.4181499 8.0204659 -0.98668563 0
7.5886207 4.3154469 -0.88536167 0
7.2485957 4.6545715 1.6699829 0
7.7109995 4.1803765 0.26278424 0
5.2369232 6.6807761 2.2240834 0
7.3732486 4.5216765 1.4816852 0
8.5994473 -1.4470656 -0.98608387 0
4.8138013 7.1226926 1.7657876 0
7.714304 4.1820693 -0.16827917 0
7.0817184 4.8052974 1.9515655 0
4.7241001 7.3989248 0.053372025 0
-7.7104702 -3.8515794 1.6714315 0
7.4103613 4.4981837 1.3909223 0
5.4399562 6.4815063 2.3419282 0
4.7180576 7.399549 0.27283287 0
7.7221732 4.1680999 0.30718303 0
7.7245932 4.1750941 0.012903929 0
8.6212769 1.344768 -0.98367119 0
-8.0033579 3.3694663 1.3043091 0
7.7199368 4.1668963 -0.40767419 0
-3.6549411 7.9809408 0.27097285 0
-3.6576252 7.9844365 -0.039089799 0
-3.6534824 7.9790411 -0.34961712 0
7.6583624 4.2669921 -0.54269278 0
7.6528745 4.2407374 0.78018236 0
7.8241029 -3.8936408 -0.88748014 0
7.3413887 4.5731792 1.5359154 0
-3.8488131 7.2673349 3.0890279 0
4.722209 7.3948317 -0.44606185 0
-3.6956058 7.8278341 1.5023403 0
6.8374243 5.0680175 2.1808596 0
7.5866556 4.3143158 1.0155976 0
7.7133074 4.1815591 0.47681212 0
-7.7385826 3.4483371 2.3317115 0
3.5181308 7.9916449 -0.98585808 0
7.3197803 4.566833 1.668097 0
7.6435246 4.2539048 0.83799934 0
7.5699968 -3.8997457 2.175874 0
6.7706013 5.1339216 2.2477555 0
-3.7313595 7.672998 2.111006 0
5.3489704 6.5664902 2.350337 0
4.9842901 6.9339542 2.0826125 0
7.2480373 4.6673803 1.7168274 0
7.7180033 4.1694474 0.56303525 0
7.7284913 4.1784344 0.28812349 0
6.8417935 5.0432863 2.2422807 0
4.8146906 7.0952773 1.9369149 0
5.6972637 6.1915064 2.5476665 0
7.7205658 4.1716433 -0.5407756 0
7.6485052 4.2582979 -0.82138467 0
4.7203245 7.4027958 0.48344016 0
6.899055 4.9972138 2.1819549 0
4.8799591 7.0356822 2.0063193 0
4.7130136 7.3923283 0.69416475 0
-3.6498194 7.9742699 -0.6616677 0
7.5203843 4.3871741 1.2510786 0
7.7390733 4.1771965 -0.17001212 0
5.1703291 6.7569318 2.2324042 0
4.7337217 7.3169098 1.1948223 0
7.4408388 4.4512134 1.4848547 0
7.1083913 4.801156 1.9503813 0
5.2558718 6.6494451 2.3585067 0
3.6172531 7.9600029 -0.98474729 0
7.8243732 -3.8937716 1.0167756 0
4.7604685 7.239646 1.5305629 0
6.1963367 5.6949601 2.5690246 0
7.7285385 4.1893606 -0.38757455 0
5.0939732 6.8178244 2.2362428 0
-3.656445 7.9828997 0.5804702 0
7.7912059 4.083868 -0.26271743 0
7.5735698 4.3424692 1.1145916 0
5.8861494 6.025743 2.5512555 0
7.7305589 4.1726136 0.54438305 0
7.7251964 -3.8856938 1.6439805 0
7.7145224 4.1821814 0.69052589 0
7.5222225 4.3768067 1.327729 0
8.6431112 -1.3520529 -0.98814523 0
4.8866692 7.0189433 2.090848 0
7.7976241 4.0892105 0.012884021 0
7.5770187 4.3087668 1.2522168 0
4.7240529 7.3988218 -0.69951475 0
7.3125348 4.5959802 1.7195823 0
5.0022659 6.9238133 2.1428347 0
5.8651061 6.0342321 2.598696 0
7.1693163 4.7284045 1.9521694 0
7.1492882 4.7586684 1.9522471 0
-7.7008572 -3.8464794 1.8635745 0
7.4905519 4.4191327 1.3913922 0
6.0673428 5.8513279 2.5540266 0
4.7292547 7.4100757 0.54992282 0
7.6526217 4.2405968 1.0174415 0
6.3602452 5.5304666 2.5577321 0
7.7964883 4.0972128 -0.17117977 0
6.2414284 5.6695132 2.5562277 0
7.9067721 -3.8882773 0.015056014 0
7.5023785 4.376461 1.4870687 0
6.9248524 4.9671979 2.2415113 0
6.9680715 4.9318686 2.1858697 0
7.7921786 4.0949721 -0.41138494 0
7.7336283 4.1742654 -0.65176344 0
7.1705384 4.7356362 1.9535353 0
5.1751299 6.7364016 2.3467002 0
7.6690383 4.2497382 -0.89267039 0
-3.6489935 7.9731946 0.8897469 0
-3.7040071 7.8162327 1.694566 0
5.5265932 6.3754039 2.5502753 0
6.0397549 5.8759732 2.5868456 0
4.7137346 7.3933597 0.90406752 0
7.7086029 4.1791492 0.90407169 0
6.9693565 4.947834 2.1575952 0
5.7817693 6.1223545 2.6079059 0
-3.8058925 7.4605923 2.7520037 0
7.907083 -3.888521 0.28892303 0
4.7247801 7.4003949 0.79811275 0
7.7224493 4.1732574 -0.82138622 0
6.1241279 5.7939558 2.5805099 0
7.7284718 4.1714902 0.78191459 0
7.8048115 4.1015401 0.067663193 0
6.4126825 5.484314 2.55897 0
-7.8700113 3.406184 2.0516772 0
7.6436706 4.2540336 1.1140027 0
7.8146553 -3.8890672 1.2539101 0
7.3366194 4.5703802 1.7470844 0
7.4032588 4.4913554 1.6692162 0
7.8050342 4.0953784 0.28803813 0
-7.3547935 3.6980956 3.1632648 0
6.287859 5.6260281 2.5675521 0
-3.6469283 7.9705043 -0.97618473 0
-3.6946697 7.8286915 1.6936412 0
7.7197886 -3.8931894 1.7490606 0
7.3753552 4.5230131 1.7221627 0
5.025466 6.8938198 2.2450101 0
4.8100238 7.115099 2.0153828 0
5.1676641 6.7459431 2.3703847 0
7.8048677 4.1015692 0.30645025 0
7.5598493 4.3300142 1.3902385 0
7.7265625 4.1767817 0.83863187 0
3.7195685 7.9401779 -0.98630512 0
5.959691 5.9664049 2.5961473 0
8.6779995 -1.2539101 -0.98868537 0
7.6106615 -3.8946996 2.1847181 0
7.7987051 4.0901103 0.563218 0
7.7963428 4.097137 0.54478192 0
7.0319061 4.8621454 2.1883302 0
6.7824621 5.1289148 2.361546 0
7.9151983 -3.8948915 -0.26075935 0
7.9040189 -3.8861158 0.56240892 0
4.7222066 7.3948274 -0.95438564 0
7.2365036 4.6595912 1.9559767 0
5.697999 6.2117772 2.6178076 0
6.4488444 5.4587193 2.5560677 0
-7.5978041 -3.8453548 2.3266647 0
-7.6033316 3.4924619 2.8148961 0
-7.5154524 3.5318093 3.001245 0
8.684782 1.2560654 -0.99006855 0
8.6996803 1.1516716 -0.98682714 0
7.5159197 4.3733468 1.5396309 0
8.6998243 -1.151715 -0.98685634 0
7.7312512 4.172986 -0.8961128 0
5.0714893 6.8276291 2.3787885 0
7.7965684 4.0972543 -0.65487111 0
3.8171291 7.9035325 -0.98475397 0
4.9511137 6.9608932 2.2512999 0
7.8972497 -3.8808019 -0.81341231 0
7.8760228 4.0076222 0.012419224 0
6.5310769 5.3788123 2.5520673 0
4.7131014 7.3924532 1.1139741 0
7.8596153 4.0196462 -0.4145509 0
-3.7458038 7.6343164 2.4062963 0
6.5893364 5.3018761 2.5641954 0
7.8103085 4.0997686 -0.54350007 0
5.3504133 6.5545864 2.5528817 0
4.7232571 7.3971004 1.0470819 0
7.2528362 4.6588883 1.9539461 0
-3.6922336 7.8235698 1.813638 0
7.0108852 4.8945169 2.2421587 0
4.9898729 6.9080753 2.3494377 0
5.6137948 6.3026834 2.6284502 0
7.7953205 4.0872931 -0.82141912 0
7.0975218 4.7933536 2.1916833 0
7.5751452 4.3076882 1.4915128 0
7.9178238 -3.8969529 -0.5381102 0
8.7233095 1.0502539 -0.98566699 0
7.6550012 4.2419219 1.2565045 0
7.7861357 4.0918303 -0.8981657 0
6.946701 4.9327254 2.3655152 0
7.7292795 4.1719251 1.0204389 0
6.6091404 5.2942119 2.5468256 0
7.6996355 -3.8835857 1.9594259 0
6.6829858 5.2052135 2.5403941 0
7.878623 4.0097246 -0.26451653 0
4.7963161 7.1266603 2.1040535 0
7.7986784 4.0900879 0.83858776 0
7.3037939 4.5902576 1.9600501 0
7.8722157 4.02597 0.30600369 0
7.3213401 4.5683765 1.950882 0
7.8807974 4.0114822 0.28794444 0
8.7420464 0.94766432 -0.98381877 0
7.4854312 4.4143486 1.6702728 0
7.8772917 4.0285172 -0.17474103 0
7.9021482 3.9800904 -0.1775018 0
7.8792009 4.0294757 0.065909624 0
7.8042836 4.1012659 0.78370547 0
-3.649579 7.9739571 1.2004561 0
7.9072199 -3.8886282 0.83637381 0
7.7193108 4.1846342 1.1177435 0
3.9174547 7.8763881 -0.98541558 0
7.4504423 4.4571147 1.7277586 0
7.5619097 -3.8930142 2.4541595 0
4.8226337 7.1059823 2.1478438 0
7.8665886 4.0231457 0.5452863 0
-3.7034249 7.8148346 1.8936338 0
-3.7734318 7.5300403 2.7265105 0
4.7640209 7.2470522 1.7832606 0
-8.0174437 3.372963 1.660552 0
4.8797855 7.0353451 2.2600894 0
7.7283754 4.1783352 1.1152503 0
7.3307438 4.5669312 1.9587655 0
7.1489725 4.7584705 2.1643524 0
8.7384892 -1.0546041 -0.98873639 0
5.4357095 6.4729691 2.6471491 0
7.8999376 3.9790368 0.47320044 0
8.7520447 -0.95037574 -0.98583269 0
7.8803701 4.0111365 -0.54324907 0
5.1676502 6.7274451 2.555131 0
-7.323369 -3.846895 3.1741867 0
7.091598 4.8159485 2.2413459 0
7.9135056 3.9855025 0.039050937 0
-7.4557819 3.5848553 3.1738391 0
5.5312405 6.3993254 2.6411085 0
7.5083447 4.3691878 1.7517536 0
7.7281647 -3.8880932 1.9215999 0
5.3426285 6.5532694 2.6555345 0
-7.8680258 3.4052722 2.2457719 0
-3.6394358 8.0239277 0.97412169 0
-7.7134848 -3.8531783 2.0597982 0
7.8843374 4.0143437 0.56353486 0
4.7207232 7.3916183 1.2970271 0
4.9836988 6.9325151 2.3932788 0
7.6509204 4.260428 1.3928742 0
7.3966417 4.4849935 1.9500446 0
6.7701092 5.1333265 2.5401988 0
7.9405341 3.9500046 0.064868093 0
7.173481 4.7313046 2.1987038 0
4.7429914 7.342536 1.5084584 0
4.0172777 7.8473401 -0.98598373 0
7.8286409 -3.8958375 1.4965005 0
7.8766999 4.0282207 -0.66119897 0
7.9156017 3.9865015 -0.39851105 0
7.5159945 4.3845625 1.7313647 0
4.8050199 7.1050391 2.2676997 0
7.9206791 3.9889209 0.25557303 0
5.2502909 6.6373701 2.665381 0
7.8686366 4.0241737 0.78487074 0
7.3763723 4.5236583 1.9658051 0
7.901135 -3.8838518 1.110595 0
4.6766357 7.5369072 0.26896238 0
7.8602133 4.0199461 -0.90463173 0
7.7137995 4.1818109 1.3313584 0
7.8044667 4.1013608 1.0233665 0
7.2301621 4.6553087 2.1997125 0
7.6526585 4.2406173 1.4969616 0
7.5652537 4.3349199 1.6710505 0
6.7772255 5.1252012 2.573133 0
7.9494877 3.9543388 -0.17753696 0
7.170877 4.735991 2.2404444 0
7.7360029 4.1755438 1.2613144 0
7.8801618 4.0109687 0.83925962 0
7.9614677 3.9312136 -0.26590568 0
6.9206452 4.9623933 2.5314476 0
7.9456744 3.952493 -0.42038304 0
4.7235374 7.4073958 1.3249581 0
7.9501505 3.9546597 0.30533385 0
7.9329147 3.946316 -0.66344917 0
8.7899933 0.8528071 -0.98813343 0
4.6806226 7.5513296 -0.20643014 0
7.8852892 4.0151134 -0.82518589 0
-7.7375383 3.4480622 2.6892469 0
7.9684305 3.9366791 0.010947943 0
-3.6427226 7.9650273 1.5116367 0
-3.6997585 7.8060284 2.0925894 0
4.8122358 7.0919695 2.35572 0
7.808322 4.098115 1.1160655 0
-8.243784 3.3104856 0.31183612 0
8.8025875 0.74876732 -0.98563743 0
7.7237935 4.1744089 1.3926973 0
7.9157104 3.9865532 0.68834758 0
7.9446187 3.951982 0.54595876 0
8.7936049 -0.85373122 -0.98885822 0
-3.7436547 7.688096 2.4318566 0
7.5796695 4.3102932 1.7347541 0
4.1174064 7.8188543 -0.98696363 0
4.6838303 7.558538 0.046625614 0
7.2431345 4.6490116 2.2376227 0
6.8570538 5.0612249 2.5403621 0
4.8901629 7.027801 2.4056177 0
7.9706964 3.9384577 0.28751135 0
7.323328 4.5625787 2.1710329 0
4.2121506 7.7749972 -0.98506677 0
7.4463005 4.4545698 1.9710507 0
4.68437 7.5597515 0.29942131 0
4.6815906 7.5535054 -0.46174532 0
-3.5769305 8.0885687 -0.98440945 0
7.9068146 3.9823136 0.90407431 0
-8.2454042 3.3111737 0.509516 0
4.7604318 7.2395697 2.0361776 0
8.0114708 3.8743637 -0.1794312 0
7.9656148 3.9344685 0.56377578 0
4.9926214 6.9115653 2.5613036 0
-3.6128798 8.1368036 -0.044043481 0
7.8012094 4.0996675 1.2640347 0
-7.7057238 -3.8490615 2.2541838 0
6.9490156 4.9342694 2.5794153 0
-3.689292 7.81985 2.1281514 0
7.9684525 3.9366963 -0.54601312 0
7.7244873 4.1693454 1.5015192 0
-3.6981511 7.8343105 2.0623124 0
7.5013447 4.3758459 1.9725204 0
7.3053284 4.5912623 2.2069817 0
-3.6105895 8.1337309 -0.35814655 0
-3.6127539 8.1366348 0.26924968 0
8.0312786 3.8421681 -0.26597029 0
8.0193138 3.8780229 0.062758446 0
-8.2408056 3.3092208 0.70700681 0
7.7131367 4.1814713 1.5455301 0
5.1669588 6.7443576 2.682266 0
8.0166616 3.8767855 0.30486882 0
7.9464865 3.9528859 0.78687835 0
4.7364454 7.324439 1.8193429 0
8.0374613 3.8468807 0.010965705 0
7.8950911 3.9767275 1.1192694 0
8.0345936 3.8446944 0.28763044 0
7.8818312 4.0307956 1.0265853 0
8.8248758 -0.75413078 -0.99009335 0
7.3194466 4.566503 2.2365649 0
8.8340664 0.64934152 -0.98720932 0
4.6852846 7.5618081 0.55201793 0
7.7966514 4.0884008 1.3927183 0
7.0076809 4.8909616 2.5326273 0
4.7205448 7.4031105 1.535609 0
4.7237511 7.3981681 1.5508006 0
7.7184401 -3.8925471 2.1759648 0
7.649951 4.259573 1.67309 0
7.8277555 -3.8954089 1.7396688 0
7.1524429 4.760644 2.3785672 0
7.4936447 4.4220219 1.9553103 0
8.840147 -0.65071315 -0.98842108 0
8.0308819 3.8418658 -0.54495233 0
7.962008 3.9316375 0.84002411 0
4.6869168 7.5666533 0.58298683 0
4.3121614 7.7458019 -0.98648739 0
4.6833153 7.5573821 -0.7197212 0
7.8862648 4.015902 1.116776 0
7.9635949 3.932883 -0.82677138 0
8.0154543 3.8762224 0.54650784 0
4.6787329 7.5429745 0.89663148 0
-8.0109043 3.3713396 2.0175149 0
7.6546841 4.241745 1.7408767 0
-7.8765039 3.4091644 2.4434257 0
-3.7980204 7.4486618 3.1218138 0
-8.2397184 3.3087587 0.90405166 0
-3.6111774 8.1345196 -0.67449749 0
-3.6151862 8.1398993 0.58222127 0
5.0733376 6.8319483 2.6937435 0
-8.2965345 3.2902215 -0.11457473 0
7.5265236 4.379168 1.9678326 0
4.4064903 7.7015734 -0.98507309 0
7.0841417 4.80791 2.5300286 0
8.8564978 0.54775256 -0.98726249 0
-3.4749856 8.1650429 -0.98461688 0
7.9138279 -3.8938158 1.3888865 0
8.0067368 3.8721554 0.78791404 0
-3.6479964 8.0381994 1.3426819 0
4.7978601 7.1307449 2.4201117 0
4.6840363 7.5590014 0.80480087 0
8.0163479 3.8766391 -0.67064703 0
7.9430647 3.9512296 1.0283127 0
7.7187233 4.1700644 1.672009 0
8.8595285 -0.54839069 -0.98786461 0
7.7928939 4.0953441 1.505615 0
7.3764329 4.5236964 2.2131886 0
8.0317955 3.8838463 -0.42631543 0
7.5716081 4.3056521 1.978334 0
7.7321434 -3.89131 2.2035823 0
7.9553823 3.9571924 -0.91583109 0
7.8728871 4.0263071 1.2677741 0
8.0953608 3.7752964 0.25070453 0
8.0444832 3.8522327 0.56398654 0
-3.6064749 8.1282101 0.89488173 0
-3.6996145 7.8056812 2.2939124 0
7.9531865 3.9247124 1.1163845 0
4.5015869 7.6597047 -0.98442936 0
8.0902319 3.8012242 0.061054707 0
-7.5870514 3.4847238 3.1938076 0
4.6810532 7.5522976 -0.97895825 0
8.8740215 -0.44517356 -0.98663187 0
8.0492172 -3.8919744 0.061029196 0
8.1032333 3.7787747 0.03100574 0
7.8965778 3.9774358 1.3347754 0
7.8072948 -3.8855038 1.9810708 0
7.5709267 4.3400698 1.9555695 0
4.5935049 7.6105947 -0.98253763 0
8.0433416 -3.8892329 -0.42787981 0
7.8747034 4.006556 1.3937542 0
-8.3127098 3.2939916 0.2454648 0
-7.6143503 -3.8504834 2.6875014 0
4.7173777 7.3843794 1.8035483 0
8.0877476 3.8001082 -0.42828166 0
7.9306474 3.9452183 1.269733 0
4.7185535 7.4002595 1.7468669 0
8.0519333 -3.8932412 0.30418944 0
8.1094637 3.7815273 -0.18984163 0
7.4079452 4.4958606 2.2398052 0
8.8846855 0.4472602 -0.98874426 0
-3.7484374 7.6384344 2.7792103 0
-8.2432547 3.310261 1.1011589 0
-7.7018471 -3.8470051 2.4504807 0
4.6823025 7.5551047 1.0581915 0
4.814785 7.0954046 2.5684719 0
-3.5890865 8.1952038 0.29029655 0
8.0571461 -3.8956735 -0.18384081 0
7.7265849 4.1704745 1.7464824 0
-3.3689885 8.2358532 -0.98400998 0
8.101347 3.8062174 -0.18409866 0
8.0179386 3.8773813 -0.92015386 0
7.7180109 4.1839681 1.7609465 0
-8.3128948 3.2940347 -0.47769511 0
7.1679721 4.7329478 2.5307932 0
8.8939085 -0.34309489 -0.98676026 0
8.1245584 3.7704294 0.0097212791 0
-8.3080807 3.2929127 0.60585213 0
7.328269 4.5654788 2.3866484 0
-3.7284656 7.6694436 2.7476308 0
