# .PCD v0.7 - Point Cloud Data file format
VERSION 0.7
FIELDS x y z intensity
SIZE 4 4 4 4
TYPE F F F F
COUNT 1 1 1 1
WIDTH 1376
HEIGHT 1
VIEWPOINT 0 0 0 1 0 0 0
POINTS 1376
DATA ascii
-0.25367713 -4.0731378 0.36099303 0
0.1519922 -4.092762 0.11750269 0
0.26485753 -4.0897431 -0.00041800737 0
0.15985823 -4.0772276 -0.38356209 0
-0.44340825 -4.0610766 0.3302654 0
0.2086271 -4.0916905 0.11979342 0
0.042837739 -4.0825043 0.36348426 0
-0.51095557 -4.0669165 -0.046617746 0
0.32412815 -4.0793104 -0.24221301 0
-0.4486239 -4.0739336 0.091819882 0
0.2036624 -4.081275 0.33385837 0
-0.57409573 -4.0595064 -0.050472617 0
-0.11882591 -4.0853219 0.33199 0
0.32080698 -4.0866332 0.12437546 0
0.12936997 -4.0663142 0.51768076 0
-0.38786769 -4.081737 0.094280243 0
-0.1119647 -4.0667696 0.51906455 0
0.099608898 -4.0840912 0.36392641 0
0.32046473 -4.0873876 -0.11993182 0
-0.0069942474 -4.0670586 -0.5321911 0
-0.44845653 -4.0736957 -0.17869115 0
-0.19358253 -4.0656161 0.51954949 0
-0.069453716 -4.0693145 0.52232158 0
-0.12500882 -4.0648942 -0.54756731 0
-0.37460995 -4.0622559 -0.44342178 0
-0.18716812 -4.065815 0.52351332 0
-0.4440639 -4.0674353 -0.31456387 0
0.04801631 -4.0715065 0.51821136 0
-0.50646186 -4.0607033 -0.3205359 0
0.28201485 -4.0814943 0.33424556 0
-0.38103199 -4.0716925 0.35978973 0
-0.38379216 -4.075748 -0.30923259 0
-0.43697429 -4.0573316 -0.45067215 0
0.26472211 -4.0900307 0.24380457 0
0.42894697 -4.0836682 0.0084558725 0
0.16769648 -4.0698156 0.51958156 0
-0.19086933 -4.0724964 0.48981333 0
-0.12134457 -4.0587859 0.61568654 0
0.26844037 -4.0821347 0.36526978 0
0.37385297 -4.0883198 0.12612724 0
-3.4061928 2.0728705 -0.9865489 0
0.43502545 -4.0691772 -0.35520387 0
0.4397465 -4.0707064 0.33515728 0
0.16028714 -4.0763807 0.48686862 0
0.37557018 -4.0843849 -0.2390492 0
0.43070078 -4.0794873 -0.23395807 0
-0.57737207 -4.0639029 -0.18940145 0
0.32367539 -4.0803084 0.36570323 0
0.10402524 -4.0756712 -0.52002525 0
0.096290708 -4.0904179 -0.39299256 0
-0.57240891 -4.0572433 -0.32758051 0
-0.27750564 -4.0680165 0.52012599 0
0.28733909 -4.067791 0.51793385 0
0.21739542 -4.0737414 -0.50583941 0
0.21054041 -4.0877743 -0.38053089 0
0.35979688 -4.0814514 0.33461571 0
-0.070416212 -4.074399 -0.54232585 0
-0.25811434 -4.0800772 -0.43204302 0
0.31847203 -4.0917816 0.24490321 0
0.16001868 -4.076911 -0.51344693 0
-0.51608396 -4.074007 0.2236433 0
-0.51736546 -4.075779 -0.18529278 0
-0.075402975 -4.0829887 0.48893356 0
0.051345706 -4.0668325 0.61156404 0
0.426615 -4.0892282 -0.11347383 0
0.32205653 -4.083878 -0.36874747 0
-0.58252048 -4.0708108 0.085175514 0
0.050023079 -4.0803847 0.52009654 0
0.20528555 -4.0759711 0.51744473 0
-0.25009179 -4.0675311 -0.5658195 0
-0.25618482 -4.0770593 0.49048805 0
0.15032375 -4.0960569 0.36414635 0
0.37678528 -4.0816007 -0.36313051 0
0.37271333 -4.0909314 0.24609947 0
0.27061582 -4.0775156 0.48604095 0
-0.31750345 -4.0735369 0.49101961 0
0.4803679 -4.0861759 -0.10978973 0
-0.30391788 -4.0714555 0.52353442 0
-0.44994712 -4.07582 0.35904658 0
0.098535657 -4.0861378 0.48751378 0
-0.30439472 -4.0581641 0.61992359 0
-3.4150915 -2.074811 -0.98898935 0
0.58729959 -4.0760102 0.016466618 0
0.42690611 -4.0885339 0.24733233 0
0.3252691 -4.0767946 0.48562932 0
-0.323138 -4.0820765 -0.44060785 0
-0.53358555 -4.0704589 0.32947588 0
-0.51374936 -4.0707793 0.35847199 0
-0.38093019 -4.0715427 0.49160707 0
0.47929478 -4.0888405 0.12965393 0
0.47810388 -4.0917974 0.0098274946 0
-0.1935792 -4.0768704 -0.5598712 0
-0.13898039 -4.0881867 0.48957574 0
-0.50532842 -4.0591364 0.49267709 0
-0.069833279 -4.0733948 0.61497378 0
-0.31375289 -4.067852 -0.57518399 0
0.53220248 -4.0862708 0.01289618 0
-0.61667633 -4.0617156 0.32900584 0
-0.43590307 -4.0558052 -0.5909313 0
0.21063948 -4.0875711 0.48665202 0
0.037306905 -4.0926924 0.48811793 0
-0.65159512 -4.0693045 0.081634521 0
-0.58533883 -4.0745921 0.22147059 0
0.47967088 -4.0879064 -0.23185259 0
-0.64962935 -4.0667443 -0.19666499 0
-0.19062185 -4.0720968 0.61817205 0
-0.71621728 -4.0602818 -0.061176419 0
0.58569467 -4.0803499 -0.10291839 0
-0.44578052 -4.0698814 0.49222672 0
-0.068670988 -4.0776849 0.61749768 0
-0.18663883 -4.0740013 0.61840439 0
-0.31246686 -4.0659032 0.62133896 0
-0.36479592 -4.0759597 0.52083349 0
-0.58082438 -4.0685349 0.35781062 0
-0.53729367 -4.0564499 0.52509189 0
-3.3836918 2.1450806 -0.98492479 0
0.26619875 -4.086895 -0.5033614 0
-0.77836275 -4.0467215 0.21640372 0
0.51369393 -4.0808415 0.33530116 0
-0.64604807 -4.0620799 -0.33696616 0
0.42660844 -4.0892434 0.36627901 0
-0.57504439 -4.0607796 -0.46999985 0
-0.71941185 -4.064321 0.07833147 0
-0.37927198 -4.0691061 -0.58523631 0
0.036687374 -4.0938334 -0.53281385 0
-0.031166315 -4.067903 0.70463705 0
-0.65279412 -4.0708661 0.21949339 0
0.48072958 -4.085278 -0.35463005 0
0.15821934 -4.0804644 0.60959506 0
0.63704777 -4.0784082 -0.099862456 0
0.37632143 -4.0826635 -0.49013954 0
-0.2545743 -4.0745411 0.62006581 0
0.37013471 -4.0968404 0.36576927 0
-0.65734172 -4.0767889 -0.058331728 0
0.58502972 -4.0821481 -0.22342956 0
0.28014719 -4.0879245 0.51727116 0
-0.51432228 -4.0715714 -0.46371126 0
0.53096449 -4.0894761 -0.22847795 0
-0.70255351 -4.0568838 0.32843363 0
0.53135681 -4.0884604 0.24938107 0
0.52884698 -4.0949597 -0.10826647 0
0.27103996 -4.0766144 0.6068182 0
-0.11263537 -4.0685835 0.70612299 0
-0.017116308 -4.0850835 0.61413586 0
0.099450231 -4.084394 0.61118913 0
-0.44879317 -4.0734162 0.52136946 0
0.5340184 -4.0815687 -0.34931916 0
0.58759701 -4.0752063 -0.34357142 0
-0.71175551 -4.0546398 0.35661113 0
0.31944084 -4.0896454 -0.49804479 0
0.050684452 -4.0857825 0.61603868 0
0.4382261 -4.0765619 0.51634824 0
0.47582114 -4.0974655 0.24787402 0
0.63603687 -4.0812664 0.13512361 0
-0.57678556 -4.0631156 0.49347126 0
-0.65004468 -4.0672851 0.35709906 0
0.32526016 -4.0768147 0.6056354 0
-3.3924565 -2.1471233 -0.98733616 0
-0.65344167 -4.0486722 0.52542877 0
0.59023011 -4.0786996 0.33564544 0
-0.78466988 -4.0544667 -0.20840782 0
-0.19503498 -4.0693774 0.70768881 0
-0.72074914 -4.0660124 0.21750498 0
0.47836435 -4.0911508 0.36659169 0
0.58350849 -4.0862613 0.25045526 0
-0.53242302 -4.0678954 0.5218749 0
-0.27630615 -4.0650387 0.70904016 0
-0.0083577633 -4.0694871 0.73870659 0
0.37288082 -4.0905476 0.48551083 0
0.21131527 -4.0861878 0.60862422 0
0.58071327 -4.0938191 0.13244438 0
-0.42071462 -4.0821519 0.52277076 0
-0.56853962 -4.0520515 -0.61094642 0
0.046265125 -4.0766931 0.70374691 0
0.52617669 -4.1018739 0.13009822 0
-0.44320583 -4.0662122 0.62520766 0
0.41227293 -4.0854611 0.51407075 0
0.51543176 -4.0737319 0.51597095 0
-0.068811655 -4.0761814 0.71321678 0
0.1630367 -4.070951 0.73175836 0
0.29016376 -4.0833745 0.61369181 0
0.16839349 -4.0744081 0.71195507 0
0.63879609 -4.0734644 0.36787081 0
-0.72496104 -4.0713387 -0.20457292 0
0.4810859 -4.084393 -0.47970748 0
0.04734695 -4.0741982 0.73671174 0
-0.18653893 -4.0755472 0.71367836 0
0.17112279 -4.0923905 0.61443686 0
0.42588711 -4.0909629 -0.48695928 0
0.63145733 -4.0942159 0.016208768 0
-0.3850944 -4.0776615 0.62396979 0
-0.18760967 -4.0589838 0.80923986 0
0.050121307 -4.0811868 0.71239054 0
0.7371341 -4.0774174 0.02231431 0
0.21770561 -4.0731068 0.72979701 0
-0.30395627 -4.0703859 0.71419263 0
-0.44216752 -4.0582328 0.71207392 0
0.35564303 -4.0965567 0.51705766 0
0.42462993 -4.0939603 0.48521018 0
0.68612123 -4.0815225 -0.2167626 0
0.6335808 -4.0882115 0.25125182 0
0.68428993 -4.086946 -0.098696411 0
-3.3612771 -2.217149 -0.9836036 0
0.58307052 -4.0874453 0.36731052 0
-0.72164202 -4.0671415 -0.34677422 0
-0.71110964 -4.053823 0.49477065 0
-0.86021399 -4.0553851 0.071158409 0
0.6833545 -4.0897169 0.018812418 0
-0.64923739 -4.0662336 0.49427772 0
0.4300288 -4.0810895 0.60364449 0
-0.53749871 -4.0659719 0.61949444 0
-0.36254096 -4.0705838 0.71102726 0
0.52758086 -4.098238 0.36679184 0
-0.51422906 -4.0714426 -0.60652184 0
-0.31389332 -4.0680652 0.75252306 0
0.68316901 -4.0902662 0.13572645 0
-0.42083406 -4.0655107 0.71453667 0
-0.79834867 -4.0712643 -0.068539977 0
0.4774791 -4.093349 0.48484957 0
0.16730571 -4.0672407 0.80816185 0
0.12216175 -4.088717 0.70309997 0
0.58542252 -4.0810857 0.483971 0
0.73515499 -4.0835681 0.137707 0
0.63032556 -4.0974159 -0.22322553 0
0.37287736 -4.0905557 0.60527897 0
0.53061247 -4.0903878 -0.47633243 0
-0.79035544 -4.0614486 0.35565972 0
0.3608048 -4.077786 0.6989758 0
0.28115714 -4.0844469 0.70044732 0
0.63267183 -4.0907817 -0.34341323 0
-0.65490699 -4.0736179 -0.48348755 0
-0.64193153 -4.0567183 -0.62380815 0
0.7337656 -4.0878863 -0.096384287 0
0.20106792 -4.0897527 0.70191336 0
-0.62255812 -4.0742059 0.52263498 0
-0.25684929 -4.0780988 0.75054049 0
-0.51635766 -4.0743856 0.62778103 0
-0.57888722 -4.0659356 0.62936354 0
0.26860893 -4.0817771 0.72855484 0
0.41303086 -4.0890532 0.61164904 0
-0.19728875 -4.082859 0.74811721 0
-0.70535088 -4.0626101 0.52307749 0
0.096610308 -4.0898085 0.73588741 0
-0.80392575 -4.0781126 0.072762489 0
0.68215036 -4.0932837 0.25183201 0
-0.42066002 -4.0897613 0.61788976 0
-0.12404943 -4.0632949 0.87145925 0
-0.93313241 -4.0511041 0.067309976 0
-0.794173 -4.0661364 -0.35544622 0
0.48038948 -4.0861225 0.60288501 0
0.68402398 -4.0877337 -0.33887535 0
0.73382342 -4.087707 -0.21500117 0
-0.52994967 -4.0624418 0.71414566 0
0.32293415 -4.081943 0.72657394 0
0.43831956 -4.0762019 0.69784653 0
0.74085271 -4.0784302 0.33620107 0
0.049914122 -4.0794964 0.80825043 0
-0.72122598 -4.0666151 -0.49162346 0
-0.080521584 -4.0918059 0.74353313 0
-0.86651921 -4.0629053 0.21280682 0
0.68770242 -4.076839 -0.45859671 0
-0.3821063 -4.0732713 0.75622368 0
-0.068367004 -4.0809355 0.80851245 0
0.66242433 -4.0941973 0.33565426 0
0.68370938 -4.088666 0.36787617 0
-0.87177801 -4.0691776 -0.074085593 0
-3.3782797 2.2213697 -0.98829758 0
-0.30391574 -4.0715122 0.80908465 0
0.73529899 -4.0831208 -0.33415741 0
-0.53748322 -4.0652561 0.71450961 0
0.83493209 -4.0778208 0.025781274 0
-0.14183879 -4.0929523 0.746346 0
0.78361142 -4.0862226 0.13875508 0
0.73301339 -4.0902243 0.25281894 0
-0.86150098 -4.0569201 -0.3624016 0
0.29171419 -4.0919275 0.71020746 0
0.10546899 -4.0729184 0.85868573 0
0.73845434 -4.0733142 -0.45344186 0
0.57951307 -4.0970645 -0.47337294 0
0.53544402 -4.0852814 0.61001885 0
-0.61447453 -4.0570402 0.71574724 0
0.21832323 -4.0718427 0.85230732 0
-0.87085795 -4.0680804 -0.21876556 0
0.3750751 -4.0855193 0.72500539 0
0.665277 -4.0808859 0.51550806 0
0.16106963 -4.0748353 0.85576725 0
0.78136313 -4.0935693 0.022048473 0
-0.79037166 -4.0614686 -0.50068831 0
0.045598507 -4.0774188 0.8626343 0
-0.65449309 -4.0695958 0.61894798 0
-0.18974137 -4.0706754 0.87643158 0
0.52403724 -4.1074138 0.48477983 0
-0.25026751 -4.0678058 0.88009214 0
0.78245914 -4.0899878 -0.21259296 0
-0.71518397 -4.0589747 0.63342464 0
-0.71522903 -4.059032 -0.63636935 0
-0.19469833 -4.0685058 0.89636564 0
-0.79287887 -4.0645471 0.49580991 0
0.12712121 -4.0733032 0.88737035 0
0.83255327 -4.0860109 -0.091521025 0
0.42798412 -4.0859637 0.72321999 0
-0.77147627 -4.0661707 0.52308798 0
-0.42079329 -4.0711632 0.80915117 0
0.83698905 -4.0707388 0.36897624 0
0.68412888 -4.0874233 0.48350084 0
0.63077796 -4.096137 0.48394883 0
-0.94400358 -4.0636997 -0.079319596 0
0.58547664 -4.0994287 0.51612568 0
-0.94041252 -4.0595388 -0.2248733 0
0.83214915 -4.0874023 0.13986981 0
0.049292803 -4.0744262 0.90392721 0
0.48174655 -4.0827527 0.72117174 0
0.52823496 -4.0965443 0.60247302 0
0.77946556 -4.0997696 -0.096012414 0
-0.034749746 -4.0780354 0.89229321 0
-0.1868093 -4.0713625 0.90392649 0
0.73190749 -4.0936613 0.36805677 0
-0.65555596 -4.0744629 0.63214409 0
-0.87096858 -4.068212 0.35467231 0
0.29075944 -4.0866609 0.80724502 0
-0.79648209 -4.0658388 0.52383649 0
-0.53740978 -4.0618377 0.80934858 0
0.58143139 -4.0918775 0.6012584 0
0.78363991 -4.0861297 0.36845267 0
0.3251313 -4.0770984 0.84730351 0
-0.068703651 -4.0773354 0.90392697 0
-0.4545722 -4.0824108 0.76048601 0
-1.0093586 -4.0486326 0.20848155 0
0.41456604 -4.0963264 0.7089057 0
-0.51729727 -4.0756845 0.76319098 0
0.51187825 -4.0882697 0.69751763 0
-0.11693358 -4.0802054 0.89491749 0
-0.018734455 -4.0879655 0.86758637 0
0.83134961 -4.0901551 -0.20990813 0
0.88117242 -4.0854769 0.026421309 0
0.83186972 -4.0883641 0.25442839 0
0.62739396 -4.1057057 -0.47118628 0
-0.31713748 -4.0729818 0.88509786 0
0.63359094 -4.0881829 0.60014653 0
0.68668687 -4.0798469 0.59882462 0
-3.3537173 2.2930017 -0.98667884 0
0.78501809 -4.0816259 -0.45183039 0
0.58990097 -4.0801353 0.69616032 0
0.81359339 -4.0886269 0.33626556 0
-0.079387903 -4.0898528 0.87148046 0
-0.86433816 -4.0603042 -0.51135874 0
0.11003983 -4.0642033 0.98266602 0
-1.0168366 -4.0570502 -0.084596813 0
-0.94876766 -4.0692191 0.20976186 0
0.77849507 -4.102941 0.2528969 0
-0.77142859 -4.0655665 0.6187017 0
0.53637934 -4.089159 0.70798051 0
-0.94106865 -4.0602989 -0.37292355 0
-3.3575664 -2.2940159 -0.9877454 0
0.041983604 -4.0893745 0.89103794 0
0.43154836 -4.0774665 0.84211826 0
0.26484573 -4.0897684 0.8518213 0
0.83150017 -4.0896368 -0.32909596 0
0.28909695 -4.0774889 0.90392828 0
-0.58484936 -4.073935 0.76656532 0
-0.28193283 -4.0790095 0.90002108 0
-1.0154397 -4.0554776 -0.23221797 0
-0.88831091 -4.0582681 0.52280688 0
-0.70615697 -4.0642605 0.71816659 0
-0.86921573 -4.0661216 0.4966799 0
0.77909863 -4.1009688 -0.33506066 0
0.93009853 -4.0822339 -0.086847305 0
0.17011583 -4.0857558 0.90392804 0
-0.42081857 -4.0676427 0.90392613 0
-0.64922595 -4.0662189 0.76942503 0
0.73097301 -4.0965657 0.48339641 0
-0.88486505 -4.0611134 0.52446997 0
0.7382443 -4.0915127 0.51543176 0
0.28087795 -4.0854082 0.88444614 0
-0.30361867 -4.0797925 0.90392661 0
0.43921053 -4.0727711 0.87970674 0
0.92922223 -4.085609 0.027929187 0
-0.94634414 -4.0664115 0.35384381 0
-0.5372858 -4.0560832 0.9039259 0
0.41343713 -4.0909772 0.80659747 0
0.52906919 -4.0943842 0.72059929 0
0.87785649 -4.0975356 -0.091325521 0
-1.088748 -4.0475516 0.058499336 0
0.87975156 -4.0906439 0.25499606 0
0.78225625 -4.090651 0.48302984 0
-0.24643397 -4.0618105 1.0107105 0
0.35919929 -4.0836244 0.88243186 0
-0.0691998 -4.072031 0.99913335 0
0.81494129 -4.0813222 0.51500463 0
-0.36616254 -4.0792179 0.90283966 0
0.83370566 -4.0820432 0.48262918 0
-0.18690491 -4.0698862 0.99886715 0
-1.0130684 -4.0528088 -0.38104832 0
-1.0909805 -4.0499935 -0.090048134 0
-0.7952621 -4.0674739 -0.65155578 0
-1.0881107 -4.0468545 0.20578754 0
-0.7170186 -4.061295 0.77273083 0
-0.65516162 -4.0829034 0.71349204 0
0.97943008 -4.0754719 -0.19971526 0
0.87767518 -4.0981946 -0.2089622 0
0.1989336 -4.0967269 0.88744402 0
0.37163496 -4.0934024 0.84681129 0
0.58079386 -4.0936012 0.71893513 0
-0.79788876 -4.0706997 0.63661683 0
-0.4500289 -4.0759363 0.89457893 0
0.21617889 -4.076232 0.97677064 0
0.48119724 -4.0841165 0.84055567 0
0.73324835 -4.0894942 0.59854078 0
0.83147657 -4.0897183 -0.45035058 0
-0.38918424 -4.0836716 0.89111292 0
0.15913224 -4.0786614 0.9811393 0
-0.87494898 -4.0422072 0.72113204 0
-1.0283182 -4.0699744 0.060581684 0
-0.13098049 -4.0748496 1.0028358 0
0.92748058 -4.0923166 0.14166689 0
-0.30408478 -4.0667992 0.99865818 0
-0.9423008 -4.0617266 0.49744809 0
0.87592745 -4.1045504 0.13946807 0
0.27118146 -4.0763144 0.97301459 0
-0.7701838 -4.0498242 0.80935597 0
0.53611898 -4.0880799 0.80603421 0
0.66336381 -4.0898128 0.69582176 0
-0.79462743 -4.0621767 0.72013378 0
0.168859 -4.0774746 0.99993443 0
-0.074023247 -4.0806122 0.99903679 0
-0.77163649 -4.0681968 0.71382546 0
0.53323853 -4.0835881 0.83815062 0
0.87802422 -4.0969253 -0.32779318 0
-0.10937476 -4.0597668 1.0815401 0
0.9270072 -4.0941396 -0.20572436 0
0.8811934 -4.0854006 -0.44561321 0
0.78692245 -4.0841613 0.60548139 0
0.63189721 -4.0929718 0.71736252 0
0.66594756 -4.1057997 0.60636258 0
-0.8886981 -4.061852 0.61819685 0
-1.0215652 -4.0623727 0.35303187 0
0.92988062 -4.0830731 0.36919856 0
0.66204953 -4.0914578 0.70642328 0
0.97620511 -4.0886655 -0.086050391 0
0.050417662 -4.0836053 0.9997009 0
0.88664818 -4.0964298 0.3363539 0
-0.017252684 -4.0853267 0.99522662 0
-0.65471721 -4.074059 0.80896688 0
0.040235162 -4.0872984 0.99109864 0
0.58570468 -4.0803227 0.83549786 0
0.8345027 -4.079299 0.59647679 0
0.87793601 -4.0972462 0.36872542 0
-0.45287418 -4.0827675 0.90610981 0
0.92793286 -4.0905743 -0.32340103 0
-0.19526768 -4.0795965 1.0087776 0
-0.58032203 -4.0678611 0.90315187 0
0.28890347 -4.0764217 1.0003698 0
-0.4365592 -4.0567398 1.0268104 0
-0.53521228 -4.0740452 0.90834093 0
0.43306768 -4.0738449 0.96223164 0
0.9755435 -4.091372 0.1427747 0
-0.5193398 -4.0785089 0.89977419 0
0.20857251 -4.0652304 1.0696831 0
-0.86790872 -4.0645628 -0.66335392 0
-0.37673068 -4.065372 1.0225477 0
0.97480404 -4.0943971 0.028250694 0
-0.18753719 -4.0601025 1.0934541 0
-0.61717153 -4.0627675 0.9104538 0
0.92597568 -4.0981121 0.25524354 0
-1.0887687 -4.047574 -0.39014393 0
-1.0975008 -4.0571246 -0.24111336 0
0.78134453 -4.0936303 0.59799266 0
-3.3387504 2.3671458 -0.98800743 0
0.73925734 -4.086432 0.6948427 0
0.37716651 -4.0807266 0.966717 0
-0.42080903 -4.0689907 0.99865079 0
0.97619784 -4.088695 0.25636542 0
-0.87261415 -4.0701747 0.63909018 0
-3.3403492 -2.3675916 -0.9884522 0
-0.94924283 -4.0697699 -0.52572459 0
0.88851023 -4.0854626 0.51485181 0
0.962134 -4.0877118 0.33671534 0
-0.93816876 -4.0569391 0.64078796 0
0.41414404 -4.094327 0.90392947 0
0.32040679 -4.0875154 0.97135401 0
0.51162088 -4.0893226 0.87956262 0
-0.53734922 -4.0590267 0.998438 0
0.87891293 -4.0936933 0.48261023 0
0.6354568 -4.0829067 0.8337183 0
-0.64854193 -4.0653276 0.90795743 0
0.58968365 -4.0810828 0.87728703 0
-0.98003936 -4.0666862 0.52533793 0
-0.7950027 -4.0671554 0.77740109 0
-0.19506264 -4.0694494 1.0863724 0
0.6800065 -4.0996332 0.71653843 0
0.73275387 -4.0910311 0.71437871 0
0.049018741 -4.0721898 1.0950422 0
1.0230401 -4.0913181 0.02998364 0
0.68734455 -4.077899 0.83105588 0
-1.0632751 -4.0480576 0.52575552 0
-1.0216537 -4.0624723 0.49837041 0
-0.65445423 -4.0688243 0.90392637 0
0.66144729 -4.089242 0.80528402 0
1.0229436 -4.0917392 0.14369929 0
-1.0075836 -4.0661654 0.52072096 0
-0.035712719 -4.0807586 1.0808876 0
0.78792 -4.0874548 0.70498443 0
-0.068699837 -4.0773759 1.0946934 0
1.0218995 -4.0962925 -0.085557759 0
0.044270277 -4.0826011 1.0778933 0
0.96335244 -4.079855 0.5145458 0
0.92636991 -4.0965939 -0.44538462 0
0.5368464 -4.091095 0.90393019 0
0.91450703 -4.0796881 0.60307157 0
0.12390852 -4.0832882 1.0749116 0
-0.86485553 -4.0609212 0.78087354 0
-0.32613158 -4.0866137 1.0208812 0
-1.0230844 -4.0640826 -0.53596777 0
0.66560745 -4.0793433 0.87570012 0
0.97778904 -4.0821853 0.48198199 0
0.10429919 -4.0751486 1.1116495 0
-0.27937126 -4.0726495 1.0905364 0
-0.77068806 -4.056201 0.90392613 0
1.0713524 -4.0860009 0.14510643 0
0.16903985 -4.0786667 1.0961015 0
-3.3098068 2.4373403 -0.98573363 0
-0.88771272 -4.0527296 0.80903423 0
-1.177891 -4.0546322 0.20228887 0
-1.1047356 -4.0650373 0.35202539 0
0.47949076 -4.0883541 0.96156156 0
0.92648149 -4.0961642 0.48243737 0
1.0216812 -4.0972438 -0.20194054 0
-3.3105192 -2.4375498 -0.98593247 0
-0.070353746 -4.0742912 1.1279178 0
-1.0068111 -4.0605311 0.61728406 0
0.8130455 -4.0915952 0.69437945 0
0.4128412 -4.0881538 1.0011942 0
-0.30751514 -4.0583978 1.1495767 0
-0.72103238 -4.0663705 0.91352952 0
-0.94636369 -4.0664339 -0.67735732 0
0.53291035 -4.0747781 1.0015073 0
-1.1834207 -4.0605087 0.052035332 0
0.97251737 -4.1037521 -0.32383567 0
-0.89000392 -4.0739436 0.71304595 0
1.1193696 -4.0799203 0.033830881 0
-0.70888186 -4.069838 0.91448188 0
1.0225717 -4.0933604 -0.31883752 0
-0.51363182 -4.0706167 1.0356836 0
-1.1844325 -4.0615845 -0.098894954 0
-0.19007969 -4.0712214 1.1393783 0
-1.0823755 -4.0405822 0.64516687 0
0.2139492 -4.0807962 1.1029994 0
0.97269571 -4.1030226 0.36904347 0
-0.79148912 -4.0559788 0.91661501 0
0.042919874 -4.0823531 1.1185024 0
-0.65407634 -4.0613027 0.99858856 0
0.97449195 -4.095674 -0.44199437 0
1.070292 -4.0909491 -0.19869983 0
-0.13202548 -4.076592 1.1343956 0
1.0691632 -4.0962162 0.03062284 0
0.77954435 -4.0995121 0.71386075 0
0.35972488 -4.0817132 1.0664496 0
-1.0987256 -4.0584641 0.49921906 0
0.87743545 -4.0990663 0.5968616 0
1.0691649 -4.0962086 -0.083923757 0
0.74126947 -4.0763392 0.87410188 0
1.0206685 -4.1016603 0.25624144 0
0.26905131 -4.0808377 1.0983741 0
-1.2531655 -4.0446644 0.048824787 0
0.58434355 -4.0840034 0.95493519 0
-0.53728342 -4.0559726 1.0929103 0
0.43422139 -4.071094 1.0835888 0
-1.0194185 -4.0599566 0.64371216 0
-0.016695261 -4.0843339 1.1244409 0
-0.7891674 -4.0599899 0.9181546 0
-0.97571278 -4.0587163 0.72438157 0
-0.36506653 -4.0766048 1.0949862 0
-0.42078853 -4.0718279 1.0936105 0
-1.1781235 -4.0548792 0.35128415 0
-0.30352163 -4.0825 1.0942254 0
-1.1845067 -4.0616632 -0.25101191 0
0.2791028 -4.0915203 1.0703015 0
0.92732728 -4.092907 0.59587443 0
-1.0061941 -4.0560317 0.71321583 0
-0.52902842 -4.060411 1.1012166 0
1.0212603 -4.0990796 0.36930585 0
1.0692528 -4.095798 0.25709271 0
0.37667608 -4.0818505 1.0899117 0
1.0225919 -4.0932727 -0.43839753 0
-0.44862127 -4.0730219 1.0986178 0
-0.87777424 -4.0475941 0.91942143 0
-0.25593376 -4.0766668 1.1470928 0
-1.1008375 -4.0607738 -0.5474183 0
-0.64509511 -4.0608382 1.0468855 0
0.78334749 -4.0870852 0.82851887 0
-1.020134 -4.0607615 -0.68923616 0
0.2911036 -4.0885596 1.097491 0
0.88747191 -4.0915785 0.69369817 0
-1.1797218 -4.0565777 -0.40345025 0
-0.77039146 -4.0524492 0.99855757 0
-0.58382797 -4.0725646 1.0425124 0
1.0704172 -4.0903649 0.36964023 0
-0.9436636 -4.0633054 0.78550005 0
0.78947878 -4.0926018 0.80438697 0
1.1163312 -4.0951595 -0.082247913 0
0.82776225 -4.1025062 0.71290612 0
-0.43828082 -4.0591936 1.1640067 0
0.15097022 -4.0947804 1.1108854 0
1.0228387 -4.0921965 0.48197079 0
0.52618408 -4.1018548 0.96083713 0
0.6630013 -4.0949597 0.90393114 0
0.73013604 -4.0991669 0.83189094 0
0.87916017 -4.0927944 0.71086514 0
1.0333695 -4.1050987 0.33659685 0
-1.2592907 -4.0509901 0.19948137 0
0.43520463 -4.0881982 1.0648255 0
-0.7107296 -4.0533423 1.0523391 0
-1.1263266 -4.0624847 0.51939738 0
1.0258421 -4.0790992 0.59394538 0
0.63249958 -4.091269 0.95342302 0
0.11066377 -4.063014 1.2372484 0
-0.38009644 -4.0703177 1.1593556 0
-0.86176252 -4.0572319 0.92357147 0
1.0682002 -4.1007094 -0.31821293 0
-0.18655086 -4.0753622 1.1895452 0
-1.2539082 -4.0454316 0.35049009 0
-1.1764524 -4.0531034 0.50007319 0
-1.1245527 -4.0518303 0.61665034 0
1.1186782 -4.0833879 0.36993003 0
-0.88820052 -4.0572467 0.90392649 0
-1.0126951 -4.0523882 0.78876019 0
0.97471452 -4.0947633 0.59536183 0
0.92862046 -4.0879264 0.70933628 0
0.48085451 -4.0849676 1.0826366 0
1.1152742 -4.1004615 -0.19873959 0
0.31564367 -4.0980177 1.0976057 0
-3.2902541 -2.5102072 -0.9863652 0
1.115768 -4.0979848 0.25747418 0
0.050566196 -4.0848174 1.1917496 0
-0.4208405 -4.0646014 1.1882045 0
0.91388834 -4.0778384 0.80383587 0
0.91969144 -4.0951886 0.70277894 0
-0.3037858 -4.0751328 1.1891174 0
-0.65406775 -4.0611315 1.0933459 0
-1.2697771 -4.0618196 -0.10615146 0
1.1140149 -4.1067772 0.14408243 0
1.0685765 -4.0989542 -0.43721575 0
1.069706 -4.0936832 0.48181891 0
1.1157296 -4.0981774 -0.31541789 0
-0.0093038082 -4.0711713 1.2521191 0
1.0341139 -4.0998001 0.51470959 0
-0.61897874 -4.0666051 1.1065407 0
0.049340963 -4.0675826 1.2644782 0
0.047800303 -4.0733633 1.2461894 0
-1.2676156 -4.0595875 -0.25986314 0
-1.0698686 -4.0597992 0.72681665 0
0.78826034 -4.0885787 0.90393198 0
0.68067813 -4.0976439 0.95188451 0
0.96121883 -4.0936127 0.69318378 0
-0.068478584 -4.0710616 1.2588716 0
-1.1804047 -4.0573034 -0.55932331 0
-0.067318201 -4.0921512 1.1913741 0
-0.12722874 -4.0685949 1.2652748 0
0.15995383 -4.0770388 1.2349131 0
1.1072794 -4.1029186 0.33680487 0
1.161832 -4.1015196 -0.081878722 0
0.5096041 -4.0975738 1.0637093 0
0.29021204 -4.0836406 1.1941853 0
1.1630709 -4.0948057 0.25810516 0
0.58794427 -4.0886674 1.0604281 0
-0.51173663 -4.0679965 1.1736853 0
0.41542828 -4.1004119 1.0991485 0
1.161206 -4.1049118 0.031785607 0
-1.1247814 -4.0532031 0.7125175 0
-0.70351982 -4.0588622 1.1101732 0
0.8122344 -4.0959911 0.87462008 0
-0.53741908 -4.0622702 1.1880999 0
-1.0893669 -4.0482287 0.79298079 0
0.97521007 -4.0927362 0.7087481 0
-1.0076571 -4.0666995 0.80837262 0
-0.88768172 -4.0524416 0.99881196 0
0.21395242 -4.0807896 1.2301362 0
-3.3031988 2.5142195 -0.98999655 0
0.73110557 -4.0961537 0.94915962 0
0.82705319 -4.1049476 0.82908702 0
0.20580912 -4.0742602 1.2578936 0
1.1088721 -4.0902677 0.51437247 0
-1.2444046 -4.050683 0.51851547 0
0.28504014 -4.0710778 1.2538242 0
-0.18705678 -4.0675354 1.2845025 0
-1.3459663 -4.0504527 -0.11171132 0
0.17166352 -4.095953 1.1936727 0
-0.03429842 -4.0767593 1.2701793 0
-0.11472511 -4.074234 1.2741361 0
0.37884092 -4.07689 1.2133439 0
0.66381872 -4.0979671 1.0027888 0
0.58146274 -4.0917926 1.0768282 0
0.5276866 -4.0979643 1.0816464 0
1.1153704 -4.0999789 -0.43494505 0
-0.94165635 -4.0609798 0.9302783 0
1.2095821 -4.0942883 0.14667439 0
1.2091186 -4.0970187 0.033766031 0
-0.19586539 -4.0715275 1.2782791 0
0.12511933 -4.079525 1.2625165 0
0.92859876 -4.0880103 0.82377529 0
1.2104598 -4.089118 0.25883198 0
0.26733637 -4.0844793 1.2255738 0
0.3223803 -4.0831642 1.2199664 0
-1.3503549 -4.0548568 0.04223001 0
0.41168833 -4.0826917 1.195756 0
1.0235159 -4.0892434 0.70747662 0
-1.0060182 -4.0547485 0.90392685 0
-1.2685688 -4.0605717 -0.41593665 0
1.0692397 -4.0958591 0.59431052 0
-1.1073928 -4.0679436 -0.70631921 0
-0.97541451 -4.058167 0.92425942 0
0.78083575 -4.0952926 0.94667077 0
-0.58021998 -4.0677238 1.1815212 0
1.0534683 -4.100204 0.5985043 0
-1.1808133 -4.0577378 0.64933443 0
-1.3455718 -4.0500569 -0.26743859 0
1.1594301 -4.1145349 0.1441648 0
1.1621695 -4.0996909 0.36979377 0
1.1644 -4.0876036 0.48139167 0
1.1597717 -4.1126842 -0.19944245 0
1.035138 -4.0925083 0.69256032 0
-0.79525161 -4.067461 1.0624619 0
0.83132923 -4.0902252 0.94361603 0
0.63157248 -4.0938902 1.0738986 0
-0.25472641 -4.0747786 1.281991 0
0.68438804 -4.0866556 1.0692158 0
0.53916407 -4.1007037 1.1004338 0
0.4397732 -4.0706034 1.2472529 0
-0.068306208 -4.0815873 1.286685 0
-1.1618373 -4.0544329 0.72896242 0
0.87518692 -4.1072431 0.82775044 0
-1.176146 -4.0527778 -0.71586812 0
1.2114784 -4.0831189 -0.42582822 0
0.91542172 -4.0824232 0.90393293 0
1.2574517 -4.0834622 0.25951934 0
1.207611 -4.1058984 -0.081296921 0
1.1144041 -4.1048255 0.48185134 0
0.65999258 -4.08389 1.1010737 0
-3.2688355 -2.5825539 -0.98676729 0
-1.013314 -4.0530849 0.93534541 0
1.2566561 -4.0885921 -0.19167256 0
1.2559159 -4.0933652 0.035130024 0
1.1663185 -4.0772071 0.5923568 0
-0.28053665 -4.0755429 1.2837915 0
0.88164783 -4.0837479 0.94046068 0
-1.353693 -4.058207 0.19574451 0
-0.36166 -4.0684834 1.2876425 0
1.2078155 -4.1046939 -0.196284 0
-0.19791818 -4.0838752 1.276782 0
0.05060339 -4.0851207 1.2882061 0
0.66164052 -4.0978546 1.0595698 0
-0.64823127 -4.0649233 1.1890628 0
-0.77182364 -4.0705652 1.0941389 0
0.42706192 -4.0881624 1.2113566 0
-0.86355019 -4.0593638 1.0683639 0
-1.2705038 -4.0625701 0.5013262 0
1.0517633 -4.0955544 0.70072889 0
1.2552731 -4.0975099 -0.078775167 0
1.1594825 -4.1142516 -0.31715822 0
1.2555662 -4.0956197 0.14720452 0
-0.65430784 -4.0659118 1.1886477 0
0.73888803 -4.088284 1.0564981 0
1.1801093 -4.1074891 0.33687544 0
-1.3497488 -4.0542488 0.349208 0
-1.2650435 -4.0569315 -0.57275355 0
0.17014694 -4.0859604 1.2898006 0
-3.2758451 2.5848367 -0.98874247 0
0.78989089 -4.0939627 1.0035105 0
0.28943968 -4.0793796 1.2910242 0
-3.2276769 2.6482184 -0.98187435 0
1.1156501 -4.0985761 0.5939573 0
-1.0647409 -4.0506682 0.92746282 0
-0.42078853 -4.0718484 1.284122 0
-1.2460814 -4.0592337 0.61462557 0
1.1606284 -4.1080418 -0.43478084 0
-0.30349255 -4.0833054 1.2854278 0
-1.1263006 -4.0623293 0.8080591 0
-1.2435935 -4.0465479 0.71183574 0
1.3500006 -4.0749025 0.038982153 0
1.2081279 -4.1028543 0.36987925 0
0.35735285 -4.0903387 1.253644 0
-1.1232376 -4.0439301 0.90392709 0
1.2071764 -4.108458 -0.31392044 0
0.63804781 -4.0755801 1.1910906 0
1.1089061 -4.0899973 0.69191945 0
0.78365266 -4.0860882 1.0632 0
-0.32347655 -4.0825891 1.2921495 0
0.97321188 -4.1009107 0.82397258 0
-0.88819242 -4.0571709 1.0940223 0
1.3020639 -4.0921154 -0.0768466 0
1.0684907 -4.0993543 0.70748818 0
-1.2519345 -4.0436349 0.7308749 0
-1.2621963 -4.0539908 0.6521374 0
0.53070605 -4.0901456 1.2028418 0
0.049781203 -4.0697141 1.3768601 0
-0.93524861 -4.053556 1.0750215 0
-0.38527298 -4.0779243 1.2991972 0
-0.71963215 -4.0646 1.1975443 0
1.2092125 -4.0964651 0.48140752 0
-1.4351397 -4.0499201 -0.11944914 0
-0.53049135 -4.0636363 1.2976353 0
0.47577333 -4.0975842 1.2090929 0
0.81380689 -4.0874691 1.0546656 0
0.10513437 -4.0735564 1.3707852 0
1.2565027 -4.089581 -0.42560321 0
0.91446352 -4.0795584 1.004072 0
0.92757297 -4.0919604 0.93983889 0
-0.77095985 -4.0596399 1.1887364 0
0.96033263 -4.0993266 0.87273884 0
0.78598297 -4.0810595 1.1025686 0
-1.4376476 -4.0523663 0.036954045 0
0.72955787 -4.1009636 1.069108 0
1.1848453 -4.0913639 0.59579587 0
1.2545358 -4.1022644 -0.31075609 0
1.0509659 -4.0933795 0.80244064 0
-0.88351154 -4.0585327 1.120122 0
-0.53760099 -4.0707269 1.2840955 0
-0.44884944 -4.074255 1.3068449 0
0.68748498 -4.0774827 1.1877773 0
0.88281369 -4.1190162 0.87552655 0
1.3011265 -4.0987892 0.14751279 0
-0.45108533 -4.0786686 1.2946978 0
-1.0071223 -4.0628004 0.99939024 0
1.1801995 -4.106678 0.51451027 0
-1.1831019 -4.0601702 0.7993238 0
1.2536658 -4.1035156 0.33707738 0
1.210656 -4.0879626 0.59250653 0
-1.4343374 -4.0491376 -0.27733094 0
-1.4382095 -4.0529141 0.19279075 0
1.0208932 -4.1006804 0.8225956 0
0.83170748 -4.088923 1.0610588 0
0.5806458 -4.0940018 1.1995978 0
-1.3586822 -4.0632138 -0.4285779 0
-0.80359435 -4.0798845 1.1179569 0
-1.3528733 -4.0573845 0.50226915 0
0.26938093 -4.0801377 1.3527598 0
1.0702934 -4.0909419 0.82011485 0
1.3000472 -4.1064734 0.034329891 0
-1.2432029 -4.0445561 0.8079809 0
1.3482605 -4.0887246 0.14893007 0
1.3005918 -4.1025958 -0.19311696 0
-1.0982246 -4.0579162 0.94276619 0
0.51098442 -4.0919266 1.2477715 0
-0.51359534 -4.0705662 1.3148248 0
0.15696025 -4.0829511 1.3666608 0
1.2558953 -4.0934978 0.48122573 0
0.58918834 -4.0832424 1.2435782 0
-0.12963462 -4.0726061 1.4013767 0
0.43270624 -4.0747066 1.3336356 0
0.16875279 -4.0767751 1.3859715 0
0.88883793 -4.0835319 1.0525827 0
1.119211 -4.0807157 0.81766868 0
-0.3039155 -4.0715179 1.3802037 0
-1.3473232 -4.0518146 -0.58522236 0
-1.2632029 -4.0550303 -0.73241162 0
-0.014642715 -4.0806789 1.3877766 0
-0.88712668 -4.0473032 1.1886337 0
0.9751544 -4.0929642 0.93815112 0
0.32281649 -4.0822024 1.3472548 0
1.3475773 -4.0941515 -0.076214731 0
1.3006775 -4.1019855 0.25889015 0
1.1145648 -4.1040192 0.70707142 0
-0.068185091 -4.0828824 1.3833094 0
-0.1894927 -4.0702739 1.4091918 0
1.182227 -4.0884748 0.69138753 0
0.05035305 -4.0830779 1.3848207 0
0.41374135 -4.0924191 1.2944541 0
-0.073465109 -4.0796509 1.3953531 0
1.25333 -4.1100397 0.36988199 0
0.88068402 -4.0872531 1.0581565 0
-1.3645654 -4.0451956 0.61387515 0
-1.0052533 -4.0491719 1.0943158 0
0.21068203 -4.0874839 1.3613374 0
1.3015701 -4.0956311 0.3702538 0
-0.79301095 -4.0647092 1.2064884 0
-0.76990533 -4.0463009 1.2829056 0
0.6618911 -4.0908751 1.2004194 0
1.2543296 -4.0966668 0.51420236 0
-3.2533469 -2.6569877 -0.98914278 0
-0.64093733 -4.0554233 1.3295918 0
1.301978 -4.0927267 -0.42465591 0
1.1847203 -4.0910511 0.69871044 0
0.37513113 -4.085391 1.3423369 0
0.74278736 -4.0687261 1.2362316 0
0.54169297 -4.1111875 1.199707 0
-1.3458822 -4.0503683 0.65507543 0
0.73415816 -4.0866666 1.1864171 0
-0.58121681 -4.0690613 1.3237844 0
-0.65456247 -4.0709782 1.2845106 0
0.28947139 -4.079555 1.3886106 0
1.1661862 -4.0779238 0.81624472 0
-0.25313187 -4.0722852 1.4187315 0
1.3484552 -4.0871787 0.37050819 0
1.1618736 -4.1012945 0.70605707 0
-1.4432526 -4.0578327 0.34800375 0
0.66430354 -4.0854282 1.2413399 0
-0.62172723 -4.0724416 1.3049641 0
1.2995415 -4.1100736 -0.31102079 0
1.1093642 -4.086359 0.86980152 0
-1.1748383 -4.0513878 0.94857574 0
-0.18546343 -4.0921841 1.3833127 0
-1.439198 -4.0538783 -0.43842781 0
-0.42075706 -4.0762334 1.380461 0
0.53405726 -4.0814681 1.32517 0
1.3466842 -4.1012464 0.25924683 0
1.3015003 -4.096127 0.4811548 0
1.021835 -4.0965734 0.93700337 0
0.5369724 -4.0916176 1.2969193 0
0.12717402 -4.0731392 1.451395 0
1.2097751 -4.0931511 0.70462453 0
1.3265414 -4.103951 0.33718348 0
1.0327456 -4.1095414 0.87269688 0
-1.524718 -4.0472689 -0.12715256 0
0.92753553 -4.0921049 1.0567157 0
0.20617259 -4.0730724 1.446784 0
-1.3510544 -4.0453863 0.73365724 0
1.0534589 -4.1001782 0.90393472 0
-1.0229006 -4.0638762 1.0853972 0
1.3926967 -4.0987787 0.036688447 0
-0.19407821 -4.0668998 1.4710798 0
-0.35549593 -4.0537882 1.4804378 0
-1.1259379 -4.0601506 0.99974477 0
-1.3439126 -4.0483918 -0.74629748 0
1.3462833 -4.1044302 -0.30830491 0
-1.5259192 -4.0484071 0.18964076 0
-0.27514362 -4.0621519 1.4760032 0
-0.11442041 -4.0734096 1.4667885 0
-1.2697473 -4.061789 0.80466056 0
0.6586777 -4.0790524 1.2986064 0
0.96178186 -4.089982 1.0519285 0
-0.71336579 -4.0566759 1.3400979 0
-1.1681461 -4.0653 0.93306053 0
-0.97985864 -4.0663528 1.1265388 0
1.257134 -4.0855107 0.70330048 0
0.78765345 -4.086575 1.2025599 0
-0.18698931 -4.0685811 1.4770176 0
-0.93283391 -4.0507579 1.2218738 0
-0.30424428 -4.0623574 1.475316 0
1.392714 -4.0986228 -0.19011378 0
0.41186059 -4.083508 1.3918185 0
-3.2216134 -2.7258971 -0.98721015 0
-0.87061286 -4.0677881 1.2165582 0
1.2538598 -4.1066232 0.59310889 0
-0.06901741 -4.0739822 1.4790821 0
-0.70922279 -4.0705361 1.3106856 0
0.78062963 -4.0959663 1.1852527 0
0.044304729 -4.0824995 1.4581666 0
0.83199251 -4.0879416 1.1800883 0
0.97572839 -4.0906157 1.0541456 0
1.3928149 -4.0977182 0.2597152 0
0.47567844 -4.0978198 1.334986 0
-1.4431865 -4.0577679 0.5033946 0
-0.38202524 -4.0731521 1.4379475 0
1.3445106 -4.1185117 -0.19505686 0
0.16803825 -4.0720673 1.4828701 0
1.3930049 -4.0960112 -0.30510396 0
1.1859909 -4.0942311 0.80129898 0
1.3467263 -4.1009121 -0.42524719 0
-0.6540432 -4.0606422 1.3792248 0
1.3935128 -4.0914507 0.37052679 0
-1.5354958 -4.0574832 0.030472398 0
-0.42088461 -4.058435 1.474412 0
0.28206766 -4.0813127 1.4441028 0
1.3915815 -4.1087918 -0.077696323 0
-0.76953077 -4.0415626 1.3778694 0
1.4388487 -4.0926313 -0.074375033 0
-0.3238039 -4.0830855 1.4314742 0
-1.3670919 -4.0563698 0.71020091 0
0.53282595 -4.0744286 1.3939025 0
-1.2457173 -4.0573773 0.90392804 0
0.049820662 -4.078733 1.4815404 0
-1.5290127 -4.0513387 -0.28838253 0
0.6866343 -4.0800023 1.3108912 0
0.36059856 -4.0785356 1.4394307 0
0.58119404 -4.0925193 1.3234744 0
-0.88740802 -4.0499072 1.2842627 0
1.0680176 -4.101562 0.93619084 0
1.3267789 -4.1010718 0.514166 0
1.3915298 -4.1092563 0.14759219 0
1.3998805 -4.0952358 0.33743131 0
-0.038125992 -4.0875826 1.4643345 0
0.63340855 -4.0886984 1.3177524 0
-3.2298527 2.7288442 -0.98955488 0
1.3467722 -4.1005468 0.4811269 0
-0.53784561 -4.0820956 1.3812447 0
1.2540054 -4.1000104 0.69159925 0
-1.4850736 -4.0361781 0.61251235 0
1.4384469 -4.0967789 0.14910316 0
-0.44732499 -4.0720825 1.4476595 0
0.92125547 -4.099865 1.1053181 0
-1.3468254 -4.0513148 0.80873239 0
1.3004427 -4.1036577 0.59259832 0
-1.4412534 -4.0558829 -0.60129941 0
1.1163095 -4.0952687 0.93366551 0
0.81355464 -4.0888362 1.2372468 0
1.2091439 -4.0968695 0.81761527 0
-0.78788161 -4.0584106 1.3511777 0
-1.5258157 -4.0483088 -0.44981515 0
0.87880814 -4.0940747 1.1785107 0
-1.2605627 -4.0523038 0.95592499 0
0.73521888 -4.0833697 1.3076723 0
1.3476236 -4.0937843 0.59175897 0
-1.5344508 -4.0564928 0.34687233 0
1.0533799 -4.0999632 1.0055919 0
1.437479 -4.1067662 0.036282539 0
0.92908573 -4.0861344 1.1737418 0
-3.1885858 -2.7941189 -0.98517847 0
-0.79902101 -4.0708532 1.317065 0
-1.0722382 -4.0640187 1.1317711 0
1.1811134 -4.0984735 0.87011456 0
1.2568709 -4.0872068 0.81550455 0
-0.57394934 -4.0593104 1.464772 0
1.4383444 -4.097837 -0.30443895 0
1.1637664 -4.0910368 0.93159032 0
1.034546 -4.0967231 1.0514412 0
1.0211316 -4.0996408 1.0538185 0
-1.6160176 -4.0437436 0.026145101 0
-1.4419563 -4.0565686 0.65888333 0
-0.51507664 -4.0726147 1.4583092 0
1.3918511 -4.1063714 -0.42527544 0
0.78642821 -4.0825291 1.3022132 0
1.3925425 -4.1001635 0.48102617 0
-1.2635028 -4.062921 0.93712139 0
-0.88269138 -4.0569692 1.3211815 0
1.4841892 -4.0926452 -0.18724191 0
0.91664469 -4.0860796 1.2052667 0
-1.1565747 -4.0453677 1.134917 0
1.3297144 -4.1078153 0.59084105 0
-1.0042763 -4.0420456 1.2848616 0
0.41020727 -4.0756745 1.4894445 0
-1.0080981 -4.0699158 1.1912339 0
-1.1096768 -4.0704417 1.0953712 0
0.29082632 -4.0870299 1.4877808 0
-1.1748602 -4.0514112 1.1001823 0
0.59074986 -4.0764332 1.4280984 0
-3.1953855 2.7966614 -0.98712361 0
1.438231 -4.0990076 0.37047637 0
1.300721 -4.101676 0.70414209 0
1.4372538 -4.1090899 0.25936365 0
1.436848 -4.113277 -0.1920585 0
-0.53755689 -4.0686741 1.4759691 0
-1.6139395 -4.0418296 -0.29718369 0
1.4835767 -4.100071 0.14916897 0
1.4383862 -4.097405 -0.42159426 0
-0.6412015 -4.0557675 1.4748869 0
1.4724333 -4.0938606 0.33753216 0
0.048539639 -4.0682793 1.5776792 0
-1.1277301 -4.0709162 1.0961747 0
-1.5215685 -4.0442839 -0.61281061 0
0.51125991 -4.0907993 1.4343772 0
-1.453486 -4.0494647 0.73669767 0
0.78212559 -4.0910778 1.3058786 0
0.83333242 -4.0833282 1.2999675 0
-1.3383493 -4.0428085 0.96178627 0
-0.70441985 -4.0453634 1.4830999 0
1.4831026 -4.1058183 -0.075829208 0
-0.45098686 -4.0784426 1.492146 0
-1.246948 -4.0636525 1.0003281 0
-1.5349591 -4.0569744 0.50453985 0
-0.069161415 -4.0724421 1.5762815 0
-1.3697076 -4.0679398 0.80684149 0
1.3265887 -4.1033764 0.6914351 0
-0.53278017 -4.0686827 1.4968762 0
1.4384757 -4.0964813 0.48087919 0
0.66035628 -4.085228 1.3988307 0
1.1171421 -4.0910926 1.0482826 0
1.4834635 -4.1014428 0.25997925 0
1.3472538 -4.0967221 0.70317507 0
-1.6268353 -4.0537057 -0.13685453 0
0.9745276 -4.0955281 1.173281 0
1.0671875 -4.1054354 1.0529795 0
-1.0242195 -4.0653605 1.2357118 0
1.1912699 -4.1074424 0.90393627 0
1.3989198 -4.1093464 0.51421547 0
-1.4409416 -4.0555787 -0.76613462 0
1.1080513 -4.0967875 1.0502577 0
1.4729488 -4.0842667 0.51370001 0
1.3018962 -4.0933089 0.81543779 0
1.2542827 -4.0971503 0.86933637 0
0.88622534 -4.0989208 1.2368119 0
1.3292809 -4.1068144 0.69544601 0
0.43070626 -4.1055226 1.4409792 0
1.1653231 -4.0826011 1.0448961 0
-0.86670804 -4.0631304 1.3636103 0
1.482453 -4.1136947 0.035928488 0
-1.1251416 -4.0553679 1.1914563 0
-0.88792849 -4.054728 1.3806915 0
-1.6293526 -4.0560236 0.18540716 0
-1.3671856 -4.0567851 0.90392876 0
-1.5258656 -4.0483565 0.66175532 0
1.3239988 -4.0946226 0.80005729 0
1.4830101 -4.1069407 -0.30561113 0
-1.4387012 -4.0533934 0.8145746 0
-0.30383992 -4.0736294 1.5739863 0
-0.42084336 -4.0641851 1.5720198 0
1.0543267 -4.1025448 1.1074877 0
-1.6240957 -4.0511827 0.34579217 0
1.5287485 -4.1025639 -0.074772477 0
0.88028562 -4.0887017 1.2979305 0
-3.1627989 2.8649502 -0.98549807 0
1.2076017 -4.1059532 0.93270564 0
0.53483069 -4.0827389 1.4942775 0
-1.2451167 -4.0543151 1.0963893 0
1.0219334 -4.0961437 1.1708968 0
0.16950929 -4.0817595 1.5825775 0
-1.3586307 -4.0576167 0.94105732 0
-3.1660028 -2.8662009 -0.98641968 0
-1.6153972 -4.0431719 0.50540137 0
-0.62054491 -4.0699306 1.5042539 0
-0.18584776 -4.0862393 1.5770309 0
-0.97746706 -4.0619478 1.3289447 0
0.96088171 -4.0957861 1.234426 0
0.91592813 -4.0839372 1.3060105 0
-0.6548059 -4.0758224 1.4775646 0
-1.4917245 -4.0621123 0.70858026 0
1.4381077 -4.1002779 0.59157228 0
1.5285099 -4.10607 -0.18919742 0
1.5281358 -4.1115651 0.036610365 0
1.4825898 -4.1120353 0.37031913 0
0.66233325 -4.0946221 1.4285374 0
1.4830048 -4.1070037 -0.42308789 0
1.390493 -4.1185641 0.59278393 0
-1.2538395 -4.0468106 1.1411395 0
1.3924391 -4.1010919 0.703089 0
1.0699828 -4.092392 1.1676488 0
-0.11001563 -4.0614996 1.6592836 0
1.5285193 -4.1059318 0.25992191 0
1.5280912 -4.1122184 0.1484015 0
1.3274434 -4.0930161 0.86840427 0
-1.6245649 -4.0516148 -0.46428043 0
1.049197 -4.0885553 1.2084982 0
-1.1030273 -4.063169 1.2456512 0
1.4662784 -4.0966692 0.58763063 0
1.5742486 -4.0986381 0.038538933 0
1.2542738 -4.1039538 0.9312079 0
0.73894119 -4.0880175 1.424264 0
1.5285153 -4.1059885 -0.30460328 0
1.3468158 -4.1002011 0.81554854 0
1.5745943 -4.0922046 0.26078677 0
0.29059315 -4.085743 1.5864933 0
1.191146 -4.1071324 1.0068967 0
1.5295804 -4.0903487 0.48064172 0
-0.77139044 -4.0650859 1.4771156 0
0.78810191 -4.0880556 1.4032731 0
-0.94465137 -4.0644498 1.3755021 0
1.574297 -4.0977383 -0.18703973 0
1.5740645 -4.102067 -0.074257553 0
1.4388645 -4.0924702 0.70191813 0
1.5741384 -4.1006894 0.1496532 0
1.1806921 -4.1022563 1.0498738 0
1.4839208 -4.0958982 0.59112906 0
-1.2681301 -4.0601187 1.1113801 0
1.5285553 -4.1054025 0.37049472 0
0.97608256 -4.0891666 1.2915993 0
-1.3675501 -4.0583973 1.0007889 0
1.4825461 -4.112565 0.48109007 0
-3.1283507 2.9323108 -0.98360646 0
1.0348938 -4.0942469 1.2324712 0
-1.0058744 -4.0537004 1.3822498 0
1.3250628 -4.0970788 0.90393746 0
0.12513089 -4.0794892 1.6454723 0
-1.7181849 -4.0474548 0.18226182 0
-1.5295825 -4.0518789 -0.78256977 0
-1.7195706 -4.0486946 -0.14487201 0
-1.5241168 -4.046699 0.81955588 0
-1.4322357 -4.0470881 0.97035098 0
-0.7693572 -4.0393672 1.5699947 0
-0.53769946 -4.0753007 1.5739853 0
-0.71010303 -4.0723376 1.5122051 0
1.2084346 -4.1010475 1.0469651 0
1.5284729 -4.1066117 -0.42206866 0
1.1162633 -4.0955 1.1661875 0
-0.79131436 -4.0626259 1.5012803 0
-1.7231379 -4.0518866 0.018726945 0
0.048915625 -4.0713482 1.6766315 0
1.1856357 -4.0933423 1.1092768 0
-0.88768697 -4.0524912 1.4768748 0
0.92411149 -4.1052914 1.2991924 0
1.5743557 -4.0966449 0.37069595 0
-1.0162268 -4.0563636 1.3849838 0
-0.30414653 -4.0650778 1.6702046 0
1.0241266 -4.0865803 1.2879577 0
-3.1344585 -2.9347963 -0.98537338 0
-1.6163752 -4.0440726 0.66506827 0
0.36091053 -4.0774012 1.6294503 0
-0.068970919 -4.0744786 1.6748323 0
0.28192163 -4.0818152 1.635392 0
-0.036263943 -4.0823174 1.6580114 0
-1.7147217 -4.0443559 0.34470093 0
-0.1965754 -4.0733666 1.6689124 0
1.4723438 -4.0955272 0.69050574 0
-1.488204 -4.0483847 0.90392935 0
0.4130621 -4.0892005 1.5909266 0
1.3980682 -4.1218538 0.6921196 0
1.6194249 -4.0983067 -0.073328495 0
-1.2454493 -4.0560112 1.193002 0
-0.18665743 -4.0737128 1.6729407 0
0.66212261 -4.0917268 1.4999478 0
1.5738382 -4.1062784 -0.30403394 0
0.043051839 -4.0862103 1.6528792 0
-1.6151981 -4.0562315 0.60877323 0
0.20215786 -4.0861912 1.641623 0
-1.0712202 -4.0622063 1.3361583 0
-1.4934335 -4.0687771 0.80614793 0
1.2545331 -4.0945663 1.0479956 0
1.3473772 -4.0957413 0.92786837 0
1.6192713 -4.1022086 0.038357973 0
1.2994822 -4.1104956 0.9311862 0
1.4840291 -4.0945854 0.70174932 0
1.3918953 -4.1059742 0.8156004 0
1.5437915 -4.1189919 0.33715189 0
-0.65448523 -4.0694408 1.5737109 0
-1.6257386 -4.0526958 -0.63171041 0
-1.3655279 -4.0494528 1.0973265 0
-1.7217412 -4.0506368 -0.31076366 0
-1.1270351 -4.0667419 1.2888629 0
0.53413892 -4.0798717 1.5938206 0
0.91525912 -4.0819368 1.4071052 0
0.16886699 -4.0775275 1.6808555 0
1.3998938 -4.0950408 0.86810517 0
1.5740032 -4.1032052 -0.42041594 0
-1.4589875 -4.0580678 0.94576788 0
-0.79769397 -4.0682321 1.5190735 0
0.51508689 -4.0751429 1.6199989 0
1.5288723 -4.1007466 0.5912056 0
-0.42082429 -4.0668612 1.6700673 0
1.4385244 -4.0959792 0.81378663 0
1.1622812 -4.0990858 1.1649976 0
1.2542093 -4.1043696 1.046176 0
0.59222591 -4.0699964 1.614738 0
-0.28171349 -4.078465 1.6772196 0
1.5298461 -4.0864449 0.70073819 0
0.43571794 -4.0862212 1.6269574 0
0.81061888 -4.1047454 1.4248309 0
1.6190021 -4.1090426 -0.18883073 0
-0.36299229 -4.07166 1.6829009 0
-0.86589861 -4.0621653 1.5139155 0
-1.5138614 -4.0369797 0.97671592 0
1.1077032 -4.0995522 1.231782 0
1.473287 -4.1116524 0.69248724 0
1.6190851 -4.1069384 0.26012385 0
-1.4867923 -4.0428801 1.0010889 0
1.1827677 -4.086165 1.2116852 0
1.6646273 -4.094521 -0.18572384 0
1.0693377 -4.0954018 1.2876422 0
-1.6156306 -4.0577369 0.70726383 0
1.0510385 -4.0935774 1.3110347 0
1.4668173 -4.0978212 0.79862571 0
1.618706 -4.1165619 0.14844739 0
0.28997993 -4.0823603 1.6855016 0
1.6645241 -4.0986452 0.15014315 0
-1.7188377 -4.048039 0.50679541 0
-1.7215295 -4.0504475 -0.47808373 0
1.3926655 -4.0990586 0.92754507 0
-1.8117077 -4.040669 0.013564587 0
-1.6119585 -4.0449538 0.80595958 0
-1.1958103 -4.0736761 1.2594137 0
1.3275613 -4.1028457 1.0080266 0
1.6189212 -4.1110988 -0.30466169 0
-1.260968 -4.0527225 1.2652125 0
0.88601577 -4.1001554 1.4213958 0
1.3004782 -4.1034045 1.0446756 0
1.664371 -4.1047525 -0.074119747 0
1.5437157 -4.1209159 0.51428163 0
0.65872836 -4.0792389 1.5988088 0
1.4393512 -4.0874476 0.92495012 0
0.41032255 -4.0762205 1.6887305 0
-0.88665318 -4.0645227 1.5263548 0
-3.1052532 3.0042779 -0.98528624 0
-1.3611448 -4.0656857 1.122333 0
0.96205735 -4.0882058 1.4167333 0
1.5732785 -4.1166949 0.48105443 0
1.5446289 -4.0977287 0.69044483 0
-1.1256969 -4.0587029 1.3849308 0
-1.6173458 -4.0449667 0.82541275 0
1.3269452 -4.0990553 1.0477502 0
1.6189119 -4.1113353 0.37047601 0
-1.3606052 -4.0608044 1.1494303 0
1.6642222 -4.1106963 0.037494063 0
-1.2455854 -4.056704 1.2899153 0
1.6193035 -4.1013927 0.48075032 0
1.7097092 -4.0888577 -0.18446642 0
1.6198614 -4.0872216 0.59024191 0
-0.53768444 -4.0746002 1.6716835 0
1.3472159 -4.0970225 1.0422466 0
-1.1675172 -4.0642166 1.343998 0
-0.65395093 -4.0588083 1.6694953 0
1.1158065 -4.0977917 1.2857473 0
1.6189582 -4.110157 -0.42171657 0
1.5738074 -4.1068525 0.59138191 0
0.79131949 -4.0986795 1.505903 0
-1.6243544 -4.0514207 -0.80104268 0
-1.8177865 -4.0459538 -0.15369374 0
1.6645458 -4.0977812 0.37073803 0
-1.1050613 -4.0653934 1.4002633 0
1.2067982 -4.1106858 1.1658421 0
-1.7122886 -4.0421786 0.66872334 0
-1.812856 -4.041667 -0.32064706 0
-0.4522965 -4.0814438 1.693089 0
1.4721093 -4.0998917 0.86814463 0
1.3029222 -4.0860043 1.1568093 0
1.7096784 -4.0917292 0.26103961 0
1.6642951 -4.1077867 -0.3035602 0
1.3231994 -4.0927777 1.1117172 0
1.6642017 -4.1115103 0.25996053 0
1.482867 -4.108675 0.81485295 0
-1.0076632 -4.0667453 1.480916 0
-1.4366276 -4.0513716 1.1292377 0
-0.97441006 -4.0563169 1.5329785 0
1.709567 -4.1021147 -0.073574007 0
-0.94535327 -4.0652633 1.5283427 0
-0.88854456 -4.0604324 1.575268 0
-1.8149524 -4.0434895 0.34339881 0
-0.53475237 -4.0730314 1.6990533 0
1.4003818 -4.0878739 1.0457044 0
-1.8233962 -4.0508304 0.17800951 0
1.4670931 -4.0984106 0.90393925 0
1.1802645 -4.1060953 1.2314572 0
1.5742205 -4.0991602 0.70161271 0
-1.4871712 -4.0443578 1.0984254 0
1.1625643 -4.0975518 1.2833223 0
1.6151476 -4.1038795 0.5826323 0
-0.61708212 -4.0625777 1.7048371 0
0.53390801 -4.0789142 1.6943607 0
-3.1219473 -3.0113511 -0.99014437 0
-1.7228632 -4.0516405 -0.64814961 0
1.6644973 -4.0997143 0.48069561 0
-1.1780565 -4.0548081 1.4099321 0
-1.6137946 -4.0513453 0.90393031 0
0.73933625 -4.0860362 1.6112418 0
-1.5630562 -4.0613155 0.95096588 0
-1.8110502 -4.0400972 -0.48980349 0
-3.0719557 -3.0719633 -0.98429072 0
1.2528741 -4.1129785 1.164659 0
1.7095631 -4.102469 -0.30214566 0
1.3922813 -4.102509 1.0422738 0
-1.7423148 -4.0564098 0.6061852 0
-0.77089834 -4.0588613 1.6709268 0
1.7096016 -4.0988798 0.37073302 0
-1.2440443 -4.0488462 1.386265 0
-1.3700206 -4.0693245 1.1957138 0
1.2543139 -4.096827 1.2287822 0
1.2577276 -4.0816822 1.2748613 0
1.6641498 -4.1135855 -0.42224491 0
1.7546672 -4.097723 0.039206266 0
-1.3481274 -4.0526214 1.2770712 0
1.7094072 -4.1169939 0.036820173 0
1.4835182 -4.1007795 0.92642832 0
-1.4554985 -4.0526118 1.1547856 0
0.91886055 -4.0927048 1.5105462 0
0.66088784 -4.1013665 1.6183763 0
1.664644 -4.0938582 0.59051406 0
1.0519131 -4.095963 1.413939 0
-1.2607014 -4.0582504 1.3506854 0
1.3479874 -4.0908937 1.1565549 0
1.6169024 -4.0996571 0.69042385 0
1.6194718 -4.0971184 0.70125008 0
-1.8150702 -4.043592 0.50800383 0
1.528131 -4.1116333 0.814798 0
1.754669 -4.0982056 -0.18625218 0
1.7095864 -4.1003094 -0.4184702 0
1.6143909 -4.1023755 0.69000709 0
1.0336502 -4.1031013 1.4175634 0
1.4386717 -4.0944591 1.0397835 0
1.7546483 -4.0924501 -0.29979545 0
0.78825903 -4.0885744 1.6061645 0
1.2084942 -4.1006961 1.2820053 0
-1.125433 -4.057117 1.4820623 0
1.7546821 -4.1019039 0.14994276 0
1.5446258 -4.0978055 0.86766732 0
-1.0657148 -4.0524025 1.5408916 0
-1.0226939 -4.0636435 1.5416689 0
1.7093501 -4.1223125 0.14814305 0
-3.0820632 3.0764172 -0.98725021 0
-1.6165254 -4.0442109 0.98653352 0
-1.611279 -4.0425887 1.0018435 0
