# .PCD v0.7 - Point Cloud Data file format
VERSION 0.7
FIELDS x y z intensity
SIZE 4 4 4 4
TYPE F F F F
COUNT 1 1 1 1
WIDTH 1407
HEIGHT 1
VIEWPOINT 0 0 0 1 0 0 0
POINTS 1407
DATA ascii
5.8869743 -3.7195063 0.045033932 0
6.8956151 -0.058079779 -0.98100674 0
5.8317952 -3.7109666 -0.89618433 0
5.8371305 -3.7145696 0.85787439 0
5.8747272 -3.7123182 0.56239104 0
5.8239536 -3.7099755 0.96760857 0
5.7022581 -3.7068005 1.539443 0
6.9024005 -0.13629276 -0.98695993 0
6.9031663 0.13645393 -0.9871695 0
3.6746635 5.8462181 -0.98460519 0
5.474308 -3.7097974 2.2207956 0
5.968802 -3.47666 -0.98711586 0
3.742137 5.8122292 -0.98291123 0
-5.5871968 -3.6274464 2.1056051 0
6.9169426 0.014418781 -0.98302925 0
6.0211167 3.4049346 -0.98362136 0
0.37619257 6.9120665 -0.98647714 0
-5.738163 -3.6372633 1.6543074 0
5.8799143 -3.7153625 0.73315787 0
6.9248686 0.063803494 -0.98899376 0
-5.7405133 -3.626863 1.684576 0
6.0288544 -3.412812 -0.98617065 0
6.9296484 -0.012121081 -0.98648906 0
-3.4471455 6.0121603 -0.98361862 0
5.7102747 -3.7131579 1.6157303 0
-5.7143698 -3.6208982 1.802115 0
-3.5415225 5.9586396 -0.9896332 0
5.8444271 -3.719497 1.0333095 0
5.8715477 -3.7104516 0.90401924 0
6.9350653 0.087684274 -0.98445857 0
-5.4481397 -3.638989 2.4829621 0
5.9431868 -3.7098563 0.096938372 0
6.9368238 -0.087392211 -0.98493624 0
5.9438038 -3.710541 -0.12320983 0
6.9375405 0.1634891 -0.98192906 0
3.8806949 5.7535138 -0.98305273 0
5.8258166 -3.706929 1.2059216 0
5.940886 -3.7073038 0.31626177 0
3.8173056 5.7966447 -0.98685145 0
0.46221614 6.9284358 -0.98586631 0
5.8312597 -3.7183192 1.1875947 0
5.5946684 -3.7108066 2.0457463 0
6.0886741 -3.3488729 -0.98546195 0
5.9471126 -3.7142122 -0.34526545 0
6.0899668 3.3501518 -0.98588169 0
5.9532995 -3.7061212 0.33786893 0
5.9413896 -3.7078621 0.53515124 0
5.9620233 -3.7118325 0.16144609 0
6.9545093 -0.16091967 -0.98652756 0
5.9653296 -3.7139974 -0.015786767 0
5.8722601 -3.7108696 1.0746746 0
5.9650669 -3.7138252 -0.19385886 0
-5.3775697 -3.6394942 2.6957128 0
5.9603004 -3.7107048 -0.37259007 0
6.9560132 0.31270665 -0.98141336 0
6.9608507 0.23618627 -0.98533273 0
5.9482546 -3.7154791 -0.5690676 0
-3.3804255 6.0922122 -0.98534274 0
0.54786634 6.946382 -0.98591864 0
5.7202597 -3.7193363 1.724205 0
4.0185833 5.6930466 -0.9838469 0
6.9643764 -0.23570389 -0.98628628 0
6.148283 3.2848289 -0.98499072 0
6.1490526 -3.2855685 -0.98523724 0
4.0828676 5.653234 -0.98182249 0
6.9674311 -0.31131071 -0.9844954 0
5.9615316 -3.7115107 -0.55430257 0
5.8305883 -3.7101517 1.384361 0
3.9609566 5.747817 -0.99054575 0
5.9693751 -3.7166457 0.51386642 0
5.9467511 -3.7138112 0.7547406 0
5.7093229 -3.7120392 1.8387761 0
0.63485134 6.9572296 -0.98459256 0
5.9613276 -3.7113771 0.68991017 0
6.9764304 0.38610005 -0.9846015 0
5.9468603 -3.7139323 -0.79474247 0
5.871356 -3.7103393 1.2454662 0
5.8305945 -3.7175596 1.4083366 0
6.9778996 -0.38594168 -0.98499751 0
6.9746203 -0.46192473 -0.98208678 0
6.2052398 3.2183621 -0.98397946 0
6.9776726 0.46163997 -0.98290813 0
4.154983 5.6290531 -0.98477161 0
-5.7348604 -3.6349916 1.9583807 0
5.9541368 -3.7066693 0.86601615 0
5.9670806 -3.7151434 -0.7397939 0
-3.3099809 6.1688137 -0.98636985 0
6.2163172 -3.2287104 -0.98747921 0
0.72132623 6.9702072 -0.98406029 0
5.9483151 -3.7155464 0.97519922 0
-5.7509999 -3.630614 1.9728441 0
5.8663321 -3.7073905 1.4162459 0
4.2245355 5.5993676 -0.98638391 0
6.9905052 0.61158597 -0.98317659 0
5.8326588 -3.7115495 1.5648916 0
6.2701607 -3.15927 -0.98576307 0
5.9684644 -3.7160492 -0.92743325 0
-5.7195482 -3.62446 2.1088226 0
7.003108 -0.53510547 -0.98801017 0
-6.0658007 -3.6298044 0.59251046 0
4.2904177 5.5626473 -0.98615921 0
-6.0966549 -3.6283183 -0.0084935427 0
5.8239193 -3.7099364 1.6296899 0
4.3517523 5.5179796 -0.98377025 0
6.2763066 3.164849 -0.98767936 0
7.0097566 0.53458107 -0.98979712 0
-3.2359934 6.2419014 -0.98671639 0
6.99826 -0.6865443 -0.98410177 0
-6.0970688 -3.6284597 0.28107882 0
7.0064869 -0.61055523 -0.98746777 0
0.8067956 6.9893546 -0.98526025 0
7.0057402 0.68616927 -0.98610866 0
5.9684849 -3.7160628 1.0457604 0
-5.6042104 -3.6380703 2.4255774 0
6.9988852 0.76187211 -0.98340273 0
6.0648284 -3.7089775 -0.13025379 0
-6.1065578 -3.6317012 -0.30005085 0
4.4190416 5.4838743 -0.98491931 0
7.0016689 -0.76177245 -0.98414922 0
6.3278513 3.0934818 -0.98556054 0
6.066926 -3.7112391 0.092508793 0
5.8649807 -3.7065973 1.587709 0
5.9527688 -3.7204878 1.1977026 0
-6.0771923 -3.6371675 0.74802458 0
6.3363128 -3.1009452 -0.98816538 0
-6.1022768 -3.6302388 0.57041717 0
5.8267179 -3.7075377 1.7459426 0
0.89370251 6.999465 -0.98463643 0
6.9981074 0.91239542 -0.98232853 0
-6.1029482 -3.6304681 -0.59237492 0
5.7157135 -3.7195513 2.0683808 0
6.3786263 -3.0217779 -0.98354626 0
7.0081997 0.83695412 -0.98532188 0
7.0006247 -0.91237736 -0.98300302 0
6.0882831 -3.7064714 0.15603626 0
6.0900288 -3.7075791 -0.024652958 0
6.0748296 -3.7197597 -0.35635018 0
-3.162817 6.3159838 -0.98760116 0
7.0164742 -0.83677644 -0.98753941 0
5.9675431 -3.7154462 1.2253611 0
6.0673728 -3.7117207 -0.58135939 0
6.0800004 -3.7253344 0.3143909 0
-6.0758619 -3.6363077 0.90400124 0
7.0032058 0.9876411 -0.98369455 0
6.3912621 3.0326049 -0.98738778 0
6.0945334 -3.7104368 0.33575583 0
4.6123276 5.3665986 -0.98547947 0
4.5541353 5.4156466 -0.98815167 0
4.4958091 5.4650517 -0.99117529 0
6.0966601 -3.7117858 -0.39083678 0
0.98019087 7.0124249 -0.98496652 0
-6.0665979 -3.6303201 1.0596843 0
6.1035066 -3.7161298 -0.20830041 0
7.0017586 -1.0629076 -0.98359549 0
6.4359035 2.9557872 -0.98381889 0
6.0803342 -3.7256944 0.53701758 0
7.0140352 -0.98771858 -0.98659647 0
-3.0804877 6.3799915 -0.9861294 0
4.6750107 5.3247385 -0.9853673 0
5.9474902 -3.7146308 1.4202867 0
6.0952582 -3.7108965 0.51565897 0
5.9576731 -3.7089846 1.4048061 0
6.9973803 1.138074 -0.98299921 0
-6.1074066 -3.6319911 0.86048889 0
6.9862151 1.2128519 -0.98087037 0
6.0680118 -3.7124097 -0.81041527 0
5.8317337 -3.7188604 1.8584342 0
6.4460487 -2.9642317 -0.98686635 0
-6.1100588 -3.6328971 -0.8887434 0
6.0993166 -3.7134714 -0.57702184 0
4.7950559 5.2334771 -0.98353696 0
-6.0606203 -3.6264563 1.2152047 0
-5.7508712 -3.6305678 2.2632332 0
4.7396612 5.2857194 -0.9864701 0
6.9852757 -1.2880768 -0.98177242 0
6.0800166 -3.725352 0.75989985 0
7.0110092 -1.1385618 -0.98665345 0
6.4907441 -2.8877609 -0.98364723 0
6.0971575 -3.7121017 0.69591451 0
7.0239801 1.0633848 -0.98955107 0
6.4917722 2.8885918 -0.9839524 0
6.0628057 -3.7067969 0.98139346 0
6.9894514 1.2883461 -0.98289359 0
5.8800106 -3.7154193 1.7620673 0
-3.0005593 6.4464812 -0.98561752 0
4.9142284 5.1415052 -0.98257089 0
4.86059 5.1955485 -0.98559308 0
7.010437 -1.2140663 -0.9873687 0
6.1003814 -3.7141469 -0.76553762 0
1.0656304 7.0353327 -0.98789477 0
5.9381099 -3.7042234 1.6436019 0
6.0967312 -3.7118311 0.87674725 0
6.979413 -1.4385225 -0.98337662 0
-6.106513 -3.631686 1.1514466 0
6.5485654 2.8220782 -0.98463964 0
5.0358696 5.052743 -0.98384452 0
7.0022798 1.3648291 -0.98778749 0
7.0034528 -1.3649217 -0.98810291 0
6.9890733 1.4394237 -0.98597622 0
6.0991797 -3.7133846 -0.95648754 0
6.9603505 1.5878236 -0.98258412 0
6.9766169 1.5139201 -0.9846518 0
5.9678817 -3.715668 1.5914149 0
5.8701191 -3.7096133 1.934128 0
4.9860001 5.1112337 -0.98784912 0
6.9797697 -1.5142598 -0.98550153 0
-2.9236512 6.5164895 -0.9862963 0
6.5580854 -2.8295515 -0.98743391 0
5.0964918 5.0079131 -0.98478723 0
-6.0766439 -3.6368132 1.3725643 0
1.1520541 7.0520358 -0.98966372 0
5.8244085 -3.7104952 2.0855737 0
6.5977645 -2.7496474 -0.98339307 0
6.9519491 1.6625959 -0.9829253 0
6.0969882 -3.7119944 1.0587525 0
5.1527033 4.9577188 -0.9841578 0
6.6023602 2.7531497 -0.98472714 0
6.072751 -3.7175186 1.2073748 0
6.9760146 -1.5897386 -0.98681259 0
6.1945653 -3.7131765 -0.13829982 0
-5.6067123 -3.6396325 2.7475789 0
6.9645443 -1.664319 -0.98633158 0
-6.0645533 -3.6289985 1.5282006 0
-2.8397579 6.5781121 -0.98514259 0
6.6466618 -2.6771629 -0.98237216 0
6.1971579 -3.7158926 0.31310952 0
6.2022371 -3.7212141 0.087268472 0
6.9340205 1.8121421 -0.98417485 0
5.2165527 4.9163265 -0.98694003 0
6.954453 1.7390718 -0.9865123 0
6.9554129 -1.7392172 -0.98677242 0
1.2392647 7.0620832 -0.99017537 0
1.3282404 7.0474062 -0.98525429 0
-6.0973053 -3.6285403 1.4430428 0
5.2720032 4.8651476 -0.98655593 0
5.9599643 -3.7104845 1.7761109 0
6.8821387 2.0320263 -0.98141181 0
6.9237309 -1.8868088 -0.98487759 0
6.9064312 -1.960196 -0.98395979 0
6.2057486 -3.7248929 -0.36782515 0
6.1984944 -3.717293 0.53832412 0
6.9477882 -1.814429 -0.98791444 0
6.65979 2.6868744 -0.98614228 0
6.2280707 -3.7059381 0.1498369 0
6.099966 -3.7138834 1.242857 0
6.9298825 1.8879213 -0.98655272 0
5.9428515 -3.7094843 1.8738542 0
6.6964855 -2.6054776 -0.98192143 0
6.2006474 -3.7195485 -0.59672785 0
5.8699112 -3.7094913 2.1086292 0
5.3336792 4.8207178 -0.9889214 0
5.3844395 4.7644644 -0.98726463 0
-6.0574903 -3.624433 1.6845431 0
6.2338529 -3.7094915 -0.22144431 0
5.5336103 4.5938859 -0.98309922 0
6.854548 -2.1799786 -0.98292279 0
5.4362173 4.7094769 -0.98633075 0
5.4864602 4.65309 -0.98513043 0
6.8997741 -2.0357397 -0.98624063 0
6.9210424 1.9630547 -0.98794913 0
6.2404146 -3.7135241 -0.036088705 0
6.0829949 -3.7031167 1.4246645 0
6.7063832 2.6125824 -0.9847343 0
5.6329098 4.4807906 -0.9818542 0
6.2281041 -3.7059588 0.51758027 0
6.8833575 2.1093476 -0.98614478 0
6.2381525 -3.7121339 0.33361375 0
6.8839374 -2.1094785 -0.98630404 0
6.8623843 2.1818645 -0.98508251 0
6.0765491 -3.7216136 1.4348965 0
5.5890684 4.5427194 -0.98445404 0
6.2016191 -3.7205665 0.76408458 0
6.24123 -3.714025 -0.4104473 0
6.7970018 2.398226 -0.98291194 0
-2.7693863 6.6565938 -0.98847926 0
1.4146115 7.0701761 -0.9892894 0
5.8700547 4.1894441 -0.98002982 0
6.8488574 2.2561853 -0.98636258 0
5.8261337 4.2504883 -0.98101676 0
6.2013702 -3.7203057 -0.82929742 0
6.8500724 -2.256496 -0.98669863 0
6.2364607 -3.7110941 -0.59938943 0
6.8297949 2.3291626 -0.98640537 0
1.5028552 7.0585566 -0.98566234 0
6.2309999 -3.7077384 0.70174313 0
6.1921287 -3.710624 0.98939097 0
5.6965971 4.4367166 -0.98669672 0
6.758595 2.5438972 -0.98434949 0
5.7436671 4.3777013 -0.9858402 0
6.7324338 2.6145654 -0.98354852 0
-5.7746449 -3.6390712 2.5651345 0
6.8134985 -2.4029536 -0.98751009 0
5.7917137 4.3195982 -0.98563063 0
6.6212201 2.8941967 -0.98129976 0
6.8386197 -2.3315554 -0.98885536 0
6.680006 2.7556717 -0.98276603 0
6.7946334 -2.4611883 -0.98148 0
6.7634969 -2.545455 -0.98572767 0
6.7915568 -2.4751782 -0.98733425 0
6.7121325 2.6872077 -0.98469317 0
1.5904739 7.0546536 -0.98411047 0
6.4686484 3.2374711 -0.98097992 0
5.930428 4.1410513 -0.98489225 0
6.7955627 2.4763885 -0.98845565 0
-2.6840649 6.7164459 -0.98746216 0
6.7691932 2.5497737 -0.98820317 0
-5.8335743 -3.6318872 2.4699461 0
6.1404123 3.8286197 -0.98250198 0
6.771142 -2.551131 -0.98875153 0
6.7458677 -2.6190474 -0.98734307 0
6.718915 -2.6895792 -0.98661852 0
6.0609803 3.9566011 -0.98405564 0
6.2403398 -3.7134781 -0.79286408 0
6.5711651 -3.0362878 -0.98351479 0
-6.0991411 -3.6291676 1.7383161 0
6.1048617 3.8953731 -0.98447382 0
5.9388142 -3.7050045 2.1048341 0
6.6678286 2.8315539 -0.98683083 0
6.2265539 3.7050061 -0.98424864 0
6.608707 2.9703751 -0.98588741 0
6.3755541 3.4432766 -0.98385525 0
5.9836459 4.0867 -0.98755062 0
-6.0725813 -3.6341875 1.8450556 0
6.5140505 -3.1757433 -0.98486745 0
6.6992497 -2.7627106 -0.98825645 0
-7.1841135 0.95002365 -0.98827696 0
6.5473056 -3.1080863 -0.98542237 0
6.4473557 3.3108518 -0.98455644 0
6.0274429 4.025218 -0.9873327 0
6.0748491 -3.7197807 1.6637695 0
6.1901073 3.7710707 -0.98534095 0
-2.5933008 6.7687807 -0.98493099 0
6.6721392 -2.8332009 -0.98806739 0
6.2682528 -3.6421843 -0.98509932 0
6.6427379 -2.9027731 -0.98750651 0
6.2984238 -3.7049327 0.36560845 0
6.2303495 -3.7073386 -0.98544228 0
6.2689075 3.6425741 -0.98530352 0
6.3066244 3.5773244 -0.98519349 0
6.3796306 -3.4454708 -0.98509574 0
6.3063297 -3.7092729 -0.17937124 0
6.3446956 3.5122678 -0.98548055 0
6.0978937 -3.7125685 1.6162574 0
6.5523853 3.1103685 -0.98691452 0
6.8172045 2.4764309 -0.98776782 0
6.3092809 -3.5788538 -0.98601484 0
6.6166553 -2.9736757 -0.98819339 0
6.3106174 -3.711627 0.0024287701 0
6.5865097 3.0429189 -0.98799384 0
6.2460451 -3.7169838 0.88806677 0
6.5230122 3.1799245 -0.98751724 0
6.4555616 -3.3149705 -0.98701668 0
6.4911461 -3.2483623 -0.98767745 0
5.8836575 -3.7175596 2.2875085 0
6.4257193 -3.3845019 -0.98837197 0
6.3552361 -3.5181375 -0.98871326 0
6.3186693 -3.7160478 0.18306851 0
-7.1861238 -1.077836 -0.98874044 0
-7.1863518 1.0778394 -0.98877645 0
6.4298506 3.3866498 -0.98961961 0
1.7652433 7.0523939 -0.98315561 0
1.677678 7.073102 -0.98800886 0
6.86342 -2.4019556 -0.98713219 0
6.2048044 -3.7239039 1.2190571 0
-7.1726322 1.2053145 -0.98703754 0
-2.5080104 6.8280835 -0.98441088 0
6.3280029 -3.7173603 -0.14668393 0
6.8660889 2.4037027 -0.98786867 0
6.3319459 -3.7213743 0.082533598 0
6.3283019 -3.717665 0.31149483 0
6.3158636 -3.7145076 0.5444802 0
-6.067132 -3.6306653 2.0034401 0
6.9044743 2.3242779 -0.98538387 0
6.2497635 -3.7192688 1.0751371 0
6.9056187 -2.3250036 -0.98569679 0
-7.1646442 -1.3327476 -0.98649526 0
6.324656 -3.7139528 0.53981423 0
6.3321738 -3.721607 -0.37833387 0
-7.1913357 -1.2058501 -0.99000096 0
6.3126736 -3.7127562 0.72443724 0
6.1964326 -3.715133 1.447161 0
-7.1793175 1.3333781 -0.98882127 0
6.0732708 -3.7180793 1.8956366 0
6.1019568 -3.7151465 1.8087687 0
6.950079 2.2496295 -0.98518658 0
1.8528602 7.0671992 -0.98679078 0
6.9514298 -2.2504597 -0.98555255 0
6.3245988 -3.7138951 0.76831686 0
6.243835 -3.7156255 1.2623315 0
6.3354464 -3.7249382 -0.61219323 0
-7.1622591 -1.4604299 -0.98713064 0
-7.1633158 1.4604905 -0.98729825 0
-2.4288969 6.8960938 -0.98625505 0
6.3258862 -3.7152054 -0.84542227 0
6.3229551 -3.7184007 0.90403056 0
1.9403838 7.0645542 -0.98668635 0
6.9961591 2.1752722 -0.98540699 0
-6.1082611 -3.632283 2.038506 0
-7.1533461 1.5877854 -0.98702013 0
-6.0668049 -3.6304541 2.1638875 0
6.3923707 -3.7160318 -0.047578752 0
6.3876495 -3.7132227 0.33137095 0
-6.4242105 -3.6228151 0.57853997 0
-7.1579781 -1.5881174 -0.98775566 0
-6.4353514 -3.6295714 0.41445291 0
7.0029874 -2.1793346 -0.98724127 0
6.3981175 -3.7194512 0.14184439 0
2.0273871 7.0506287 -0.98426425 0
6.2379646 -3.7120183 1.4511323 0
6.3155746 -3.7143486 1.0837007 0
6.3809958 -3.7092638 -0.62324691 0
6.3930049 -3.716409 -0.43121338 0
-2.3446059 6.957016 -0.98668242 0
-7.1402731 1.7147892 -0.98653793 0
6.4038911 -3.7228863 -0.24016142 0
6.3921781 -3.7159171 0.52012098 0
7.0420661 -2.1007626 -0.98586416 0
6.3354769 -3.7249691 0.999017 0
7.0442753 2.1020346 -0.9864527 0
-6.4283028 -3.6252971 0.74125147 0
6.1966462 -3.7153566 1.6793675 0
-5.8342977 -3.6323245 2.7985101 0
-6.4750814 -3.6268718 -0.027282953 0
7.0741277 2.0184577 -0.98294199 0
2.1147089 7.0465722 -0.98441064 0
6.0668302 -3.7111356 2.1291933 0
-7.1549883 -1.7160559 -0.98887718 0
-6.4750929 -3.6268756 0.2748282 0
-7.1326399 -1.8422782 -0.98721004 0
-2.2568612 7.012857 -0.98620462 0
6.314291 -3.7136438 1.2634978 0
-7.1355047 1.8425663 -0.98766613 0
6.3990874 -3.7200282 0.70961475 0
7.0895443 -2.0270426 -0.98701584 0
-6.4875011 -3.6309171 -0.33164477 0
6.4524546 -3.7087691 0.078543663 0
6.2390842 -3.7127063 1.6439238 0
6.3970098 -3.718792 -0.82445085 0
-6.4775524 -3.6276767 0.57661688 0
-6.4381943 -3.6312954 0.90400994 0
2.2024376 7.0474453 -0.98598766 0
6.3935475 -3.716732 0.8990984 0
6.4582529 -3.7145054 -0.15455055 0
6.3357105 -3.7252071 1.2303534 0
-7.119627 1.9692974 -0.98731625 0
7.1262531 1.9473436 -0.98561287 0
-6.4827089 -3.6293564 -0.63656461 0
-7.0889606 2.0940754 -0.98489332 0
7.13098 -1.9498878 -0.98685217 0
2.2888327 7.0310574 -0.98385656 0
-2.1695652 7.0693078 -0.98616314 0
6.3815341 -3.7095842 1.088367 0
6.4616103 -3.7178271 0.30985045 0
-6.4336996 -3.6285694 1.066915 0
7.1621456 -1.8673959 -0.98430586 0
-7.1340952 -1.9709613 -0.98962283 0
6.193121 -3.711664 1.9135196 0
2.3752239 7.0170112 -0.98255277 0
6.4576468 -3.7139056 -0.6246171 0
6.4698687 -3.7259967 -0.3906495 0
7.1708493 1.8719211 -0.9865706 0
-7.1095552 -2.0967431 -0.98818254 0
-2.0767031 7.1168022 -0.98436117 0
6.3255911 -3.7198474 1.4446218 0
7.1976218 -1.7874005 -0.98319733 0
-6.4750862 -3.6268733 -0.94328535 0
6.3268366 -3.7161734 1.4616473 0
-7.0774431 2.2211974 -0.98581529 0
-7.0778046 -2.2212493 -0.98587322 0
-6.4302654 -3.626487 1.22981 0
-6.4861317 -3.630471 0.87929189 0
6.4698792 -3.7260077 0.54175258 0
-6.1143141 -3.6343508 2.3427291 0
7.2046795 1.7909424 -0.9850204 0
6.4581604 -3.7144139 0.77327693 0
6.2453852 -3.7165785 1.8415709 0
6.3131914 -3.7130404 1.6244128 0
7.2395453 1.710659 -0.98404491 0
6.4614124 -3.7176311 -0.86435115 0
-6.4660835 -3.6239409 1.1810739 0
-1.9879684 7.1707044 -0.98432946 0
-6.0730848 -3.6252396 2.5166826 0
6.3994756 -3.720259 1.2838058 0
7.2507253 -1.7160711 -0.98691249 0
2.4654274 7.0363202 -0.98928869 0
6.5374265 -3.710211 -0.25352579 0
6.5404711 -3.7119639 0.1356039 0
-7.0774574 2.3503449 -0.98888016 0
7.2776046 1.6319788 -0.98418319 0
2.5503945 7.0098472 -0.98567486 0
-6.4412823 -3.6331677 1.3940539 0
-7.0804272 -2.3508165 -0.9893564 0
6.5496817 -3.717267 -0.059511423 0
7.3054552 1.5486743 -0.98202288 0
2.6355557 6.9876308 -0.98333037 0
6.3296127 -3.7189996 1.6978559 0
6.3888783 -3.713954 1.4764299 0
7.3119664 -1.5515995 -0.98367083 0
6.5452094 -3.7146921 -0.45188135 0
6.5423594 -3.7130511 0.52235806 0
-1.9037366 7.2323947 -0.98633528 0
6.4770813 -3.7331326 1.0082676 0
6.3134928 -3.7132056 1.8060212 0
-7.057106 2.4765484 -0.98897564 0
6.2003431 -3.7192299 2.1552892 0
6.555686 -3.7207241 0.32877338 0
-6.4343586 -3.6289694 1.5574753 0
7.3046498 -1.6445966 -0.99107313 0
6.4597239 -3.7159607 1.2402973 0
6.5465965 -3.7154908 -0.65163958 0
7.3456769 1.470988 -0.98328793 0
-7.070343 -2.4788446 -0.99110341 0
-7.031764 2.6018569 -0.98855782 0
7.3541145 -1.4746344 -0.98540998 0
-7.0343475 -2.6023433 -0.98897409 0
7.3736329 -1.3880191 -0.98175824 0
2.7246745 6.9914794 -0.98736155 0
6.5903316 -3.7098114 0.30833948 0
-6.0953655 -3.6278775 2.645268 0
-1.8140624 7.2850409 -0.9865787 0
-6.4802065 -3.6285412 1.4876413 0
-6.4255333 -3.6236176 1.7209706 0
6.5585732 -3.7223864 0.71689069 0
6.5410995 -3.7123258 0.91004491 0
6.3892207 -3.7141573 1.673758 0
-7.002162 -2.7262497 -0.98773968 0
6.596067 -3.7153256 -0.40082806 0
6.6042132 -3.7231572 -0.16422129 0
6.5537453 -3.7196066 -0.85577548 0
2.8109517 6.9763212 -0.98724544 0
2.8937912 6.9432335 -0.98320401 0
-7.009943 2.7278299 -0.9889971 0
6.5893884 -3.7089045 -0.63900232 0
6.312768 -3.7128077 1.9884727 0
6.609714 -3.7284458 0.071923256 0
6.3296928 -3.7190807 1.9366837 0
-6.9722805 2.850457 -0.98716176 0
7.4059491 1.401439 -0.98983669 0
7.4234352 1.3139429 -0.98596275 0
-1.7250142 7.3389597 -0.9873867 0
2.9805455 6.9314599 -0.98445463 0
6.4700933 -3.7262194 1.47879 0
-6.9870739 -2.8536828 -0.98955989 0
6.3796282 -3.7084501 1.8712249 0
7.4329925 -1.3177521 -0.98833799 0
7.4490438 -1.2300451 -0.98442769 0
3.0636647 6.9024968 -0.98193741 0
-6.9410124 2.9742608 -0.98664534 0
-6.426712 -3.6243322 1.8865218 0
5.3370266 5.3434811 -0.9830128 0
6.5534306 -3.7194254 1.1071932 0
6.6163511 -3.7348263 0.54369044 0
6.5959759 -3.7152379 -0.88275242 0
-6.9539871 -2.9772851 -0.98875535 0
7.4652357 1.2362318 -0.98842943 0
-6.0772123 -3.6276562 2.8538084 0
6.5402527 -3.7118382 1.3023753 0
6.6138144 -3.7323878 0.77977479 0
-1.6373672 7.3958516 -0.98912215 0
-6.4798822 -3.6284356 1.7954841 0
7.4892254 1.1516614 -0.98677897 0
6.5993881 -3.7185185 1.0150356 0
6.3162575 -3.7147236 2.1728742 0
7.4910326 -1.1523223 -0.98722327 0
6.3212404 -3.7104757 2.1761389 0
3.1520143 6.896893 -0.98523569 0
-6.9202185 3.1005955 -0.98812497 0
-6.9238396 -3.1014943 -0.98871577 0
6.4624839 -3.7186911 1.7160439 0
-1.5385792 7.431355 -0.98645926 0
7.5168872 1.0685725 -0.9863317 0
7.5188789 -1.0692687 -0.98681879 0
5.437274 5.3092699 -0.98704505 0
7.5367665 0.98292679 -0.98428273 0
-6.4327698 -3.628006 2.0541627 0
-6.8862772 -3.2237697 -0.98775244 0
-1.4411426 7.4687805 -0.9845376 0
-6.8901405 3.2247875 -0.98838508 0
6.6986914 -3.7093933 -0.47262144 0
6.7111588 -3.7163355 0.12770677 0
3.2397232 6.8870006 -0.98782527 0
7.5472112 -0.98641139 -0.98682463 0
5.5191059 5.2436681 -0.98429191 0
6.5991831 -3.7183211 1.2527587 0
6.7145782 -3.71824 -0.27293956 0
-6.8435411 3.3444486 -0.98622155 0
6.713655 -3.7177258 0.32639968 0
6.7208786 -3.7217484 -0.072738171 0
3.3225627 6.8575788 -0.98605728 0
-6.8466225 -3.3453078 -0.98672831 0
6.5560799 -3.7209508 1.5051665 0
7.5715342 -0.90226036 -0.98614728 0
6.7372499 -3.715379 0.067542911 0
6.7153935 -3.718694 0.5250349 0
7.5777726 0.90424293 -0.9876585 0
3.4069934 6.8345256 -0.98609388 0
6.3182821 -3.7158349 2.3585639 0
6.7119246 -3.7167623 -0.67972624 0
6.7442822 -3.7219489 0.3062433 0
6.7485023 -3.7258914 -0.17354864 0
-6.4714832 -3.6256998 2.1050763 0
6.7417908 -3.7196209 -0.41417807 0
6.7364883 -3.7146676 0.54497039 0
5.6128302 5.1976829 -0.98628712 0
-6.8178568 3.4698851 -0.98778415 0
-6.8178806 -3.4698923 -0.9877882 0
7.6063771 -0.82135636 -0.98830104 0
6.7194614 -3.7209589 0.72419119 0
7.6072249 0.82161266 -0.9885056 0
6.5444331 -3.7142451 1.7046947 0
3.4909735 6.8098836 -0.98603845 0
-1.355927 7.5315437 -0.98837352 0
6.5964832 -3.7157257 1.491961 0
7.619019 0.73379403 -0.98539293 0
-1.2511277 7.5525455 -0.98353255 0
6.735559 -3.7137992 -0.65633976 0
-6.4393778 -3.6320128 2.2235439 0
7.6228776 -0.73489982 -0.98631966 0
6.7108107 -3.7161419 -0.88693559 0
6.4724393 -3.7285402 1.9614925 0
6.7326808 -3.7111104 0.78352928 0
6.7130303 -3.7173779 0.92335212 0
-6.7740164 3.5900173 -0.98664021 0
7.6393266 -0.64866501 -0.98462999 0
3.5742617 6.7829986 -0.98573041 0
7.6412234 0.6491794 -0.98508382 0
-6.783742 -3.5930321 -0.988253 0
3.6559176 6.7512283 -0.98452222 0
-6.338954 -3.6268299 2.570061 0
5.7773957 5.0697894 -0.98286438 0
7.6664605 -0.56536168 -0.98578775 0
-6.8384647 -3.6275558 0.39021766 0
5.7065711 5.1511436 -0.98848212 0
6.740591 -3.7184999 -0.90359235 0
-6.829484 -3.6224561 0.56227517 0
6.7123575 -3.7170031 1.1240273 0
7.6713543 0.56661361 -0.98695385 0
6.8042336 -3.7158966 -0.24162769 0
-6.7386532 3.7127209 -0.9871887 0
3.7392454 6.7246995 -0.98487329 0
7.6797156 -0.47855228 -0.98392928 0
-1.1615102 7.6066084 -0.98605227 0
6.8075924 -3.7176173 0.14268064 0
6.8111973 -3.7194636 -0.049688458 0
6.5444798 -3.7142723 1.9101353 0
-6.8709965 -3.6200769 -0.046949923 0
7.6890597 0.48080081 -0.98614812 0
6.8011799 -3.7143326 0.52452278 0
7.6970758 -0.3928867 -0.98334301 0
6.8139257 -3.7208612 0.33324707 0
3.8233113 6.7000294 -0.98597467 0
6.4638152 -3.7200086 2.2049141 0
-6.8410072 -3.6289995 0.73293173 0
-6.6968431 3.8333542 -0.98695421 0
6.6055079 -3.7244022 1.7367225 0
6.7509079 -3.7281387 1.0252366 0
7.7075748 0.39525479 -0.9858278 0
6.708499 -3.7148547 1.3257995 0
-6.8303633 -3.6229556 0.90401947 0
7.7175999 -0.30794328 -0.98379469 0
3.9035263 6.6647358 -0.98475611 0
7.7201433 0.30847889 -0.98439479 0
-6.8893528 -3.6257665 0.26794255 0
-6.8859644 -3.6247163 -0.36470479 0
6.8090887 -3.7183836 0.7141788 0
5.8736196 5.0266056 -0.98644817 0
-1.0708826 7.6592765 -0.98853421 0
-6.6500025 3.9521711 -0.98616195 0
-6.8824272 -3.6236198 0.58333075 0
7.7354054 -0.22239262 -0.98389196 0
7.7424941 -0.13487357 -0.98176253 0
5.9505568 4.9554043 -0.98370874 0
6.7456985 -3.7232716 1.2662346 0
3.9879189 6.6403952 -0.98653316 0
-0.96939063 7.6860037 -0.98583865 0
6.8087053 -3.7181871 0.90404284 0
-6.479826 -3.6284173 2.4223444 0
7.7469621 0.22465378 -0.98661065 0
-6.8370266 -3.6267388 1.0750015 0
6.8792853 -3.7144122 0.12002647 0
7.7555399 0.13723272 -0.98482323 0
-6.8967133 -3.6280479 -0.68496251 0
4.0698347 6.6094031 -0.98696113 0
6.5964141 -3.7156594 1.9799075 0
6.8806186 -3.7151299 0.32386518 0
6.8867121 -3.7184095 -0.085324049 0
7.7659264 -0.050318539 -0.98375642 0
-6.6112986 4.073905 -0.98702812 0
6.7167463 -3.7194474 1.5321989 0
6.8885584 -3.7206342 0.06152308 0
-6.8294144 -3.6224167 1.2457609 0
6.8860826 -3.7180707 -0.29140073 0
7.7693515 0.050887525 -0.98455799 0
6.8061361 -3.716871 1.0938299 0
-6.8869457 -3.6250203 0.89922488 0
4.1492448 6.5723753 -0.98616958 0
6.0363741 4.8969426 -0.98427701 0
6.8846464 -3.7170832 -0.42687005 0
6.8907566 -3.7226298 0.30435443 0
-0.87378073 7.7269197 -0.98641801 0
6.8820062 -3.7158766 0.52756226 0
6.8815646 -3.7142856 0.54682875 0
6.8841429 -3.7170267 -0.4989664 0
6.7396579 -3.7176282 1.5086281 0
6.8986182 -3.7297661 -0.18343943 0
7.7824607 -0.12377959 -0.98151278 0
4.302413 6.4865785 -0.98244715 0
7.7834249 0.035403013 -0.98464346 0
6.8784981 -3.7139883 0.73132658 0
6.7982244 -3.7128181 1.2834086 0
-6.3292322 -3.6213248 2.9114847 0
-6.5650234 4.1928802 -0.98690748 0
4.2321053 6.5432997 -0.98766863 0
7.7933536 -0.033899605 -0.98696172 0
6.8807721 -3.7135661 0.78932571 0
4.3835754 6.4539413 -0.98361337 0
6.1221867 4.8383017 -0.9851054 0
6.8924732 -3.7215104 -0.71095324 0
-6.8363781 -3.6263709 1.4176559 0
6.8958192 -3.7272255 -0.67645228 0
6.7129707 -3.7173448 1.7389064 0
-0.77827621 7.7684274 -0.98740137 0
6.8769608 -3.713161 0.93575513 0
6.8793111 -3.71224 -0.92260349 0
7.8091683 0.12012565 -0.98773611 0
7.8085842 0.20847148 -0.98498225 0
-0.67344737 7.7840662 -0.98332882 0
-6.5174427 4.3113294 -0.98685324 0
6.887085 -3.7186103 -0.92290616 0
7.8187008 -0.20723456 -0.98733532 0
6.8034439 -3.715492 1.4740171 0
-6.8285627 -3.6219332 1.5888982 0
4.4690723 6.4296546 -0.98723972 0
6.5963402 -3.7155883 2.2295096 0
7.8249974 -0.29466027 -0.98647344 0
7.8216133 0.38289988 -0.98365843 0
-6.4627056 4.4267635 -0.98585832 0
-6.9058542 -3.6308813 1.2179265 0
7.8323126 0.293872 -0.98817205 0
7.8291883 -0.38219315 -0.98541498 0
6.7440357 -3.7217181 1.7559085 0
4.5456133 6.3869705 -0.98643112 0
6.2109742 4.7832446 -0.9871273 0
6.8932905 -3.72493 1.0342097 0
6.8821325 -3.7159445 1.1422498 0
7.829319 0.46993262 -0.98370755 0
7.8302221 -0.46986136 -0.98391676 0
4.6212969 6.3428531 -0.98552692 0
6.2832146 4.7070589 -0.9842217 0
-6.475688 -3.6270695 2.7418704 0
6.7120643 -3.71684 1.9495497 0
7.8305321 -0.64481777 -0.98138809 0
-0.58126402 7.8353529 -0.98689783 0
4.6985903 6.3018484 -0.98572099 0
7.841167 -0.55672222 -0.98500323 0
6.8020582 -3.7147825 1.6648283 0
-6.4223804 4.5483813 -0.98763669 0
-0.47933125 7.8581233 -0.98489773 0
7.8475995 0.64396209 -0.98533344 0
4.7757034 6.2604408 -0.98610258 0
6.3637714 4.6415763 -0.98423946 0
6.8933353 -3.7249711 1.2797108 0
-6.893919 -3.627182 1.5360034 0
7.8452229 0.7315762 -0.983917 0
-6.8421583 -3.6296532 1.7633462 0
7.8492093 -0.73143351 -0.98483789 0
4.851337 6.2163992 -0.986076 0
6.8909149 -3.7206717 1.3515844 0
7.8445859 0.81899518 -0.98319232 0
-6.3623829 4.6613731 -0.98630202 0
7.8675599 0.55501997 -0.99110913 0
7.0296364 -3.712456 0.056298971 0
4.9226446 6.1652336 -0.98441422 0
6.7399864 -3.7179358 2.0043278 0
-0.37940311 7.8865104 -0.98434556 0
7.8569651 -0.8187294 -0.98605084 0
6.4425979 4.5740223 -0.98402131 0
7.8531556 0.90627635 -0.98488224 0
5.0678282 6.0678239 -0.98323607 0
7.03859 -3.7203529 0.30245793 0
6.88205 -3.7147262 1.5249069 0
7.8563643 -0.9062534 -0.985623 0
5.0026779 6.1282825 -0.98689246 0
-6.3085051 4.7770357 -0.9863143 0
7.0394545 -3.7211154 -0.4413656 0
7.0471392 -3.7278931 -0.19301373 0
5.1399617 6.0185685 -0.98291588 0
6.8826032 -3.716198 1.5601745 0
7.8533726 0.99372518 -0.9849323 0
-6.837409 -3.626956 1.9365106 0
6.8101311 -3.7189174 1.8576407 0
7.0630426 -3.7158687 0.11147821 0
7.040463 -3.7220047 0.5489856 0
7.8593554 -0.99376798 -0.98631358 0
-0.28068209 7.9188385 -0.98488331 0
-6.6151075 -3.6264756 2.6257236 0
7.0654454 -3.717118 0.32099724 0
-6.2466421 4.8887944 -0.98520792 0
7.8462558 -1.1684607 -0.98415554 0
7.0405002 -3.7220376 -0.69298148 0
5.2178512 5.9776802 -0.9852289 0
6.5266919 4.5124998 -0.98564863 0
7.8487887 1.1685514 -0.98474073 0
7.8622756 1.0813847 -0.98727715 0
7.07866 -3.7239888 -0.10039657 0
7.076086 -3.7226505 -0.31228554 0
-6.8894491 -3.6257963 1.8571808 0
7.0691371 -3.7190373 0.53047538 0
7.0420446 -3.7233999 0.79596806 0
7.8723254 -1.0816004 -0.98959792 0
7.0332084 -3.7156065 -0.94533324 0
7.8522029 1.2562687 -0.9863975 0
5.2948294 5.934988 -0.98736882 0
7.8541121 -1.2563643 -0.98683882 0
7.0779166 -3.7236023 -0.52658218 0
7.8131742 -1.5163127 -0.98170173 0
7.8444905 1.3434922 -0.98577201 0
-0.18354487 7.957305 -0.98694193 0
7.0326295 -3.7150958 1.042721 0
6.8839278 -3.7169111 1.7734783 0
7.8324246 -1.4303124 -0.98442674 0
5.5576067 5.702879 -0.98123121 0
7.0704765 -3.719734 0.74036086 0
5.3656716 5.8834596 -0.98731446 0
5.4954147 5.7649655 -0.98356819 0
5.431478 5.8252559 -0.98561919 0
7.8353677 1.4305445 -0.98510838 0
7.8508844 -1.3439045 -0.98725128 0
-0.078258991 7.9656796 -0.9832294 0
6.7439775 -3.7216642 2.2593434 0
-6.8415117 -3.6292858 2.1122305 0
6.8893905 -3.7213895 1.7766495 0
-6.1986542 5.0074458 -0.98684466 0
6.6105113 4.450284 -0.98742855 0
6.8144588 -3.7211344 2.0513375 0
7.8270493 1.5176072 -0.98491883 0
7.0665474 -3.7176909 -0.95943034 0
7.088151 -3.7289236 -0.74524856 0
6.6802678 4.3724895 -0.98541808 0
5.6337132 5.6580591 -0.98430276 0
7.8233867 -1.6051661 -0.98609936 0
7.8058581 -1.6911952 -0.9843483 0
7.0720959 -3.7205758 0.95114923 0
7.8065748 1.6912829 -0.98451495 0
7.82794 1.6056569 -0.98715675 0
5.7006798 5.6018786 -0.9842968 0
-6.1373549 5.1194181 -0.98641169 0
-5.7574887 5.6337814 -0.037748754 0
7.7761269 1.8634919 -0.98293936 0
0.020013332 8.0005341 -0.98513067 0
7.8015413 -1.7788308 -0.98595893 0
7.7633748 1.9498948 -0.9831593 0
-5.6703792 5.7282109 0.27174354 0
6.7532868 4.2985106 -0.98467171 0
7.8048487 1.7792833 -0.9867295 0
-6.833456 -3.6247118 2.2868872 0
5.7710171 5.5495219 -0.98575628 0
7.0654602 -3.7171257 1.1622148 0
7.0410342 -3.7225087 1.2930243 0
6.8024902 -3.7150037 2.2435231 0
7.7889524 -1.8654339 -0.98593402 0
-5.8571119 5.5461206 0.27066219 0
-5.5882392 5.8251867 -0.035727143 0
6.8839335 -3.7169142 1.989954 0
-5.4955125 5.9143915 -0.034316182 0
-5.5860639 5.82374 0.27206147 0
5.8366199 5.4916153 -0.98582077 0
-5.6663833 5.7256355 0.57957339 0
6.0153689 5.2990828 -0.9817276 0
-5.6785355 5.7334676 -0.34681284 0
7.7546043 -2.0370636 -0.98460376 0
0.12180889 8.0213728 -0.98451161 0
7.7810612 -1.9528325 -0.98729837 0
6.8849607 -3.7173684 2.0288601 0
-5.679162 5.741003 0.36092722 0
-6.8877563 -3.6252718 2.1821675 0
-5.9573684 5.4575076 0.26994908 0
7.7379713 -2.1228945 -0.98449564 0
-5.4105105 6.0081463 -0.033468366 0
-5.5932951 5.8285484 -0.34512979 0
-6.0827408 5.2349925 -0.98747098 0
7.7164402 2.2076991 -0.9835211 0
-5.6927452 5.7426262 -0.037939429 0
7.7402272 2.1233361 -0.98502636 0
-5.5029297 5.9194784 0.27232885 0
-5.8750291 5.5569553 -0.040889025 0
-5.2190681 6.1779814 -0.030601621 0
-5.8312941 5.5778503 0.54298675 0
-5.4066176 6.005394 -0.34041077 0
7.7642331 2.0388048 -0.98686278 0
5.9056692 5.437386 -0.98733795 0
7.6941767 2.2922328 -0.98265696 0
-5.7797761 5.6476984 -0.3502723 0
-5.3182125 6.0960426 -0.032225013 0
5.9661808 5.3739138 -0.98623931 0
-5.5035324 5.9198914 -0.34309405 0
-5.7839351 5.6502953 0.27079833 0
-5.4116416 6.0089459 0.27274406 0
-6.0561218 5.3666697 -0.044042408 0
6.0839486 5.2441978 -0.98392725 0
7.7223854 -2.2089508 -0.98492372 0
-5.9693727 5.4645338 -0.042661548 0
-5.5249043 5.9032826 0.35957789 0
7.6753449 2.3775003 -0.98289144 0
-5.2203822 6.178968 -0.33618587 0
7.7018423 -2.2939618 -0.98447108 0
-5.5209875 5.8987265 0.5416702 0
-5.6818409 5.7439446 0.54210389 0
-6.0582209 5.3678579 0.26920426 0
-5.8677764 5.5525699 0.58095527 0
-5.4050322 6.0042725 0.57851458 0
-5.8795762 5.5597053 -0.35368073 0
-5.2255902 6.1828785 0.27358067 0
-6.1500521 5.2718468 -0.045925498 0
-5.496213 5.9148717 -0.65216196 0
-5.5011945 5.9182882 0.57903433 0
-6.0575209 5.3674617 -0.35862064 0
6.8358212 4.2343459 -0.98687172 0
-5.3646727 6.0602465 0.35833454 0
-5.3246689 6.1007481 0.27304292 0
6.1479416 5.1845002 -0.9848814 0
6.2596893 5.0497637 -0.98249793 0
-5.5966272 5.8307643 0.5795598 0
7.0675106 -3.7181919 1.3761244 0
-6.6092796 -3.6232846 2.9773009 0
7.6306648 2.5463164 -0.98255813 0
-5.196557 6.208879 0.35744214 0
6.2060657 5.119133 -0.98424029 0
-5.9952765 5.4272418 0.54258358 0
-5.6774654 5.7391405 0.72331691 0
-5.3606873 6.0553317 0.5408572 0
7.1970077 -3.7230227 -0.20262957 0
-5.3254409 6.1013103 -0.33953476 0
-6.1492796 5.2714238 -0.36154664 0
-5.7852092 5.6510911 0.5806278 0
-5.9644775 5.4616685 0.58159459 0
-5.976099 5.4684711 -0.35685676 0
-5.6891127 5.7402849 -0.66001582 0
-5.5969539 5.8309817 -0.65664828 0
-5.3172665 6.0953536 0.57819712 0
-5.836668 5.5834203 0.72342682 0
-5.4098577 6.0076847 -0.64997303 0
-6.1559963 5.2751012 0.26850092 0
7.6377325 -2.5482328 -0.98424876 0
7.2051716 -3.7300184 0.048752189 0
-5.7846532 5.650744 -0.66403186 0
7.0418863 -3.7232602 1.5446742 0
0.22156739 8.051384 -0.98600793 0
7.6940126 -2.3819928 -0.98732424 0
6.9016323 4.1531506 -0.98472095 0
6.3235717 4.989707 -0.98424315 0
7.6696701 -2.4661827 -0.9865526 0
7.6147509 2.6325707 -0.98436785 0
-6.1514883 5.2685275 0.54240572 0
-6.251009 5.1795487 -0.048291862 0
-5.3599272 6.0543942 0.72257125 0
-5.1459346 6.2789512 -0.030760765 0
-5.3204656 6.0976849 -0.64750051 0
-5.1408 6.2749791 -0.33573991 0
-5.8603263 5.5480642 0.89138842 0
-5.2282224 6.184855 0.57787669 0
-5.6792493 5.7339277 0.88849795 0
7.6725798 2.4669271 -0.98724592 0
-5.0440812 6.3571849 0.27422523 0
-6.0566778 5.3669844 -0.67492318 0
6.5387778 4.714395 -0.98176694 0
-6.2493658 5.1786795 0.26786351 0
7.200901 -3.7263587 -0.4567486 0
-5.2010098 6.2147036 0.53962696 0
7.2081103 -3.7325361 0.30008531 0
-6.0307474 5.3523006 -0.98931575 0
-5.1472034 6.2799325 0.27364206 0
-5.7750874 5.6447706 0.89023602 0
6.8017111 -3.7146046 2.4389257 0
7.6222916 -2.6347318 -0.98617887 0
-5.6790819 5.7409158 0.90403175 0
7.5943017 -2.7177081 -0.98538888 0
-5.584816 5.8229103 -0.968153 0
-5.530611 5.9099212 0.72260594 0
-5.9745121 5.4675422 -0.67234087 0
6.4394484 4.8587379 -0.98488379 0
-6.1553755 5.2747617 0.5828867 0
7.5657277 2.8004148 -0.98474061 0
-5.5193224 5.8967905 0.90403199 0
-6.3390532 5.0791726 0.26727581 0
-5.8867373 5.5640354 -0.66913688 0
-5.2315965 6.1873889 -0.64527845 0
-5.4062157 6.0051093 0.88459253 0
-5.0492625 6.3613129 -0.33410448 0
-4.9543991 6.4442587 -0.028307438 0
-6.2533808 5.1808033 -0.36580873 0
6.9670277 4.0719647 -0.98280311 0
-6.3449459 5.0821829 -0.050305843 0
7.1873832 -3.7147758 0.80141997 0
-6.0032043 5.4350009 0.72314739 0
-5.0561557 6.3668041 -0.029902756 0
7.5989766 2.7191205 -0.98651624 0
6.3896008 4.9311814 -0.98688281 0
-5.1402431 6.2745485 0.57760429 0
-6.1532326 5.2735882 -0.67970192 0
7.4425035 -3.1275463 -0.98281121 0
-6.34027 5.0797944 -0.36847681 0
-5.0391502 6.3739533 0.35473132 0
-5.6828856 5.7362714 -0.97363245 0
-5.4979243 5.9160457 -0.96500349 0
-5.1997795 6.2130938 0.7219758 0
6.6500106 4.5796399 -0.98333383 0
7.5418386 -2.884619 -0.98551714 0
7.5419927 2.8846705 -0.9855547 0
6.4981356 4.793736 -0.98584151 0
6.6007724 4.6519399 -0.98426616 0
7.207736 -3.7322156 0.55130601 0
-5.6016684 5.8341165 0.88797224 0
-5.3176918 6.0956631 0.88359118 0
7.3049245 3.4484358 -0.98188841 0
-5.5086465 5.9233985 0.88655078 0
-6.2497902 5.1789041 0.58354473 0
-6.078413 5.379292 0.58260059 0
7.5757437 -2.8035982 -0.98716712 0
-5.045917 6.3586473 0.57721567 0
-6.2430449 5.1753354 -0.6836946 0
7.5137119 -2.9674623 -0.98555517 0
7.2003756 -3.7259085 -0.71249413 0
6.702867 4.5100584 -0.98373497 0
7.5140214 2.9675708 -0.98563087 0
-5.8450108 5.5920682 0.90403187 0
0.32319105 8.0732756 -0.98617423 0
-7.2805948 -3.6235361 0.36325574 0
-5.6743937 5.7357683 1.0846403 0
7.4159193 3.2109473 -0.98409474 0
-5.1438365 6.277328 -0.64340198 0
-7.2726965 -3.6193461 0.54425597 0
7.4515204 3.1309915 -0.98503971 0
-5.8716331 5.5549016 -0.98377573 0
-5.9602351 5.4591851 -0.9880842 0
-5.4109602 6.0084639 -0.96206498 0
7.382688 3.2917795 -0.98402178 0
-4.9604287 6.4492049 -0.33289468 0
7.4856825 3.0503654 -0.98590803 0
7.3831687 -3.2919791 -0.98414195 0
6.8033123 4.3670492 -0.98389781 0
-4.96384 6.452003 0.27427399 0
7.4204574 -3.2127559 -0.98522258 0
-6.1627607 5.278944 0.72295964 0
-5.2288165 6.1853013 0.88264036 0
-5.5181675 5.8954473 1.0850143 0
7.4900088 -3.0519478 -0.9869715 0
-5.7868519 5.6521168 -0.98039675 0
6.9454966 4.1468134 -0.98394477 0
7.2398033 3.6107841 -0.98411107 0
7.3160853 -3.45345 -0.98471332 0
-6.0044365 5.4362068 0.90403187 0
6.9912872 4.0723734 -0.98409808 0
7.078094 3.9206665 -0.98399007 0
-5.2255611 6.1828566 -0.9546001 0
-6.4400644 4.9841437 -0.37252635 0
7.3554492 -3.3752112 -0.98574579 0
-5.9787774 5.4700389 0.89463258 0
-6.1529112 5.2734122 0.89749622 0
-5.1354547 6.2708449 0.88146627 0
7.2561436 -3.7167718 0.10244441 0
-6.2382612 5.1728044 0.89893603 0
-6.3108311 5.11201 0.72299087 0
-5.7659049 5.6390367 1.2002416 0
-6.0673695 5.3730383 0.89611971 0
7.0771723 -3.7232153 1.594243 0
6.8587008 4.2988658 -0.98582995 0
-5.0457954 6.3831835 0.53763354 0
-5.4899616 5.9105849 1.1930542 0
-5.3252807 6.1011934 -0.95960546 0
7.3575959 3.3761389 -0.98628557 0
-6.3494444 5.0844812 0.58432782 0
7.2056427 3.691426 -0.98526919 0
-6.3232241 5.1228194 0.54098809 0
6.9063001 4.2254362 -0.98588312 0
-6.4477367 4.987926 0.26629472 0
7.0407639 3.9989293 -0.98344076 0
-4.8754644 6.5398803 -0.028333902 0
-5.8424358 5.5893993 1.08483 0
-4.8725157 6.5373898 0.27454567 0
7.2080054 -3.6926117 -0.98587942 0
7.1953692 -3.7216189 -0.96988893 0
-4.9621282 6.4505992 0.57708728 0
6.8904557 -3.7223566 2.288341 0
7.2867026 3.5362236 -0.98650098 0
-4.8751898 6.5336475 0.35214162 0
-4.9593925 6.4483547 -0.63877285 0
-6.4557981 4.9919 -0.05337584 0
-5.3758459 6.0740237 0.9040333 0
-5.0435572 6.3567672 0.88045847 0
-5.9974365 5.4293561 1.0847285 0
6.770565 4.4507294 -0.98858929 0
-5.1931133 6.2043743 1.0858352 0
7.1313596 3.8500922 -0.98695171 0
7.1744556 3.7737963 -0.98750901 0
-4.7803817 6.6215158 -0.027333736 0
7.2633686 -3.7203979 0.31789458 0
-4.8680739 6.533638 0.57675266 0
7.0504479 4.0055885 -0.98809707 0
7.2952027 -3.5401893 -0.98866642 0
-5.2100439 6.2265205 0.90403378 0
0.4242754 8.0983419 -0.98725533 0
-4.8796682 6.5434299 -0.3327378 0
7.2571158 -3.6191649 -0.98855174 0
7.2707977 -3.7241266 -0.11537194 0
-6.3094645 5.1108174 0.90403199 0
-7.2853107 -3.6260378 0.72390866 0
-6.3558474 5.0877523 -0.6910224 0
-6.1671019 5.2829556 0.90403223 0
-5.0443044 6.3573627 -0.94880211 0
-5.1433034 6.276916 -0.95326829 0
-5.0471373 6.3850465 0.72087979 0
7.2577662 -3.717586 0.53339589 0
-5.411221 6.0086484 1.1923039 0
7.2582779 -3.7178428 -0.55160671 0
-5.3157458 6.094245 1.1898851 0
-7.3246813 -3.6190617 0.26070225 0
7.1995549 -3.7252052 1.054323 0
-5.6004601 5.833313 1.1972826 0
-5.6929035 5.7427282 1.1997082 0
7.2700539 -3.723753 -0.33355647 0
-7.2739239 -3.6199975 0.90403056 0
-6.1543331 5.2711563 1.0848372 0
-5.3707705 6.0677652 1.0858953 0
-5.680479 5.7424493 1.2658665 0
-6.4430618 4.9856215 -0.69496822 0
-4.9487877 6.4396553 -0.9452312 0
7.0506005 -3.7309463 1.8012409 0
-5.8771825 5.5582576 1.2048359 0
-6.4530039 4.9905224 0.5852077 0
-6.5531607 4.8933201 -0.055717468 0
-5.0749531 6.3817787 -0.64466834 0
-5.9675841 5.4634871 1.2073934 0
-5.3575821 6.0515032 1.2669792 0
-6.0555506 5.3663454 1.2098224 0
-6.8910971 -3.626307 2.5126884 0
-6.4821873 4.9641004 0.54011846 0
-4.7892523 6.6292272 0.27460623 0
-6.4722967 4.9559608 0.72247207 0
-4.8833027 6.5456257 0.53576493 0
-4.8772802 6.5414138 -0.63833356 0
-6.5319557 4.8832412 -0.69931519 0
-5.8437405 5.5907507 1.2659123 0
-4.7059336 6.6893234 0.34953797 0
-5.229178 6.1855726 1.1885481 0
-4.7906804 6.6304688 -0.33178067 0
-7.3407726 -3.6237981 -0.070574641 0
-4.9634848 6.4517117 0.88032317 0
0.52761841 8.1111832 -0.98620915 0
-5.1925507 6.2036371 1.2677915 0
-6.64217 4.7894788 -0.05764389 0
7.2580338 -3.7177203 0.74906635 0
-4.6907167 6.7073002 0.27499473 0
-6.5595512 4.8963575 0.26523435 0
-7.3362408 -3.6224644 -0.40235925 0
-6.1510191 5.2723761 1.21312 0
-5.1355529 6.2709208 1.1865594 0
-5.0491552 6.3878489 0.90403473 0
-6.5587397 4.8959713 -0.37851053 0
7.2598553 -3.7186346 -0.7740612 0
-4.6925139 6.7089086 -0.32987899 0
-5.0373344 6.3714309 1.0867987 0
-7.3282681 -3.6201174 0.59076285 0
-6.6397667 4.7883782 -0.38095492 0
-5.5323076 5.9118943 1.2672043 0
7.1227593 3.9332354 -0.98651457 0
-6.003293 5.4350877 1.2660034 0
-4.7845697 6.6251569 -0.63637996 0
-6.3619919 5.0908914 0.90270901 0
-5.0421023 6.3556085 1.1847034 0
7.1901798 -3.7171724 1.3064151 0
-6.315814 5.1163564 1.0852275 0
-6.6495056 4.7928371 0.26457548 0
-4.7912436 6.6309586 0.57683969 0
-4.7088537 6.6939144 0.53445137 0
-6.5554037 4.8943858 0.58608532 0
-6.6315327 4.79633 0.53956294 0
-6.4478865 4.9879999 0.90431345 0
-4.6895823 6.7062855 0.57637858 0
-4.706965 6.7218394 -0.027925968 0
-4.8725414 6.5374117 -0.94585466 0
-7.2839947 -3.62534 1.0841188 0
-6.4774199 4.9601769 0.90403283 0
0.63071311 8.1247587 -0.98560119 0
7.0850873 -3.7273307 1.8156545 0
-6.2513809 5.1797452 1.2170107 0
-5.5216875 5.8995419 1.4481437 0
-4.879612 6.5433826 0.88001823 0
-4.8901377 6.5557179 0.71971655 0
-4.8800888 6.5408812 0.90403557 0
-5.3999519 6.0006804 1.4998832 0
-4.6924496 6.7088509 -0.63469458 0
-5.4957757 5.9145722 1.5034966 0
-5.8415375 5.5884681 1.4471221 0
-4.6092949 6.8003016 -0.026899815 0
-6.1651497 5.2811508 1.2665255 0
-6.3410254 5.0801802 1.2199509 0
-5.5924406 5.8279805 1.5073826 0
-5.7759972 5.645339 1.5141788 0
-6.649169 4.7926836 0.58681798 0
-5.6853676 5.7378712 1.5108685 0
7.1904259 3.8542717 -0.98608136 0
-7.3391428 -3.6233184 -0.73679781 0
-5.9972773 5.4291997 1.4468918 0
-6.1447592 5.2623091 1.446322 0
-5.6888847 5.751678 1.4481487 0
-6.3101168 5.1113863 1.2662671 0
-6.6422882 4.7895327 -0.70672727 0
-5.3632183 6.0584526 1.4495716 0
-4.5074625 6.8740826 -0.025639713 0
-6.5461254 4.889976 0.90670907 0
-6.7314939 4.6845965 0.58735573 0
-4.7125177 6.6996732 0.71918523 0
-6.828454 4.5817237 -0.062187552 0
-4.5977516 6.7896714 -0.63275528 0
-6.7500563 4.6927767 0.26369011 0
-4.6017385 6.7933431 0.57626462 0
-4.9632616 6.4515285 1.1846151 0
-5.8728132 5.5556154 1.518539 0
-6.64083 4.8035431 0.72162318 0
-5.0415506 6.3772879 1.270098 0
-4.6141329 6.8047571 -0.33043796 0
-4.7915955 6.6312642 0.87951231 0
-5.3193183 6.0968485 1.4987261 0
7.2738996 -3.7256832 0.96707535 0
-4.6168041 6.8072171 0.27477777 0
7.3434734 -3.7138622 -0.10517287 0
-6.4777355 4.9604363 1.0857577 0
-4.8789825 6.5392485 1.0878921 0
-5.9662395 5.4626999 1.5225639 0
-6.7596674 4.6970119 -0.061275184 0
-4.7884059 6.6284919 -0.945122 0
7.0457959 -3.7267087 2.05797 0
-6.0544195 5.3657055 1.5260043 0
-6.7524033 4.6938109 -0.38655359 0
-5.2010489 6.2147541 1.4511437 0
-6.6382246 4.7876725 0.90881646 0
-4.6879425 6.7048182 -0.94118512 0
-6.440588 4.9844022 1.2239773 0
-7.3385382 -3.6231406 0.92185247 0
0.73295212 8.1439362 -0.9863838 0
-4.8713098 6.5363712 1.1831806 0
-5.6790657 5.7408972 1.6290798 0
7.1863256 -3.7138698 1.5609636 0
-4.5446806 6.8629475 0.3451184 0
7.3515291 -3.717701 0.097157478 0
7.2569542 3.774389 -0.98565328 0
-5.2311349 6.1870422 1.4966073 0
-6.7389259 4.6878719 -0.71243596 0
7.0668216 -3.7178335 2.0333862 0
-7.2893591 -3.628186 1.2646852 0
-4.6974554 6.7133303 0.8786571 0
-4.5181065 6.8841701 -0.3290419 0
7.3566918 -3.7222021 0.042949677 0
-4.522541 6.8883729 0.27501297 0
-5.9922361 5.4242663 1.6281052 0
-4.7150106 6.7035909 0.90403688 0
-6.4691448 4.9533677 1.2671614 0
-6.7973957 4.6395559 0.53778589 0
7.3570037 -3.7224615 -0.21329248 0
7.3555355 -3.7196105 -0.31132233 0
7.2654929 -3.7214639 1.1843297 0
-4.7782612 6.6196723 1.1817408 0
-5.036437 6.3701839 1.4530144 0
-5.8452778 5.5923452 1.6295748 0
-4.5971222 6.7890916 -0.93950582 0
-5.3623686 6.057405 1.6322153 0
-6.158637 5.276547 1.5318584 0
7.3170457 3.6892025 -0.98389328 0
-7.2752037 -3.6206763 1.4443808 0
7.3613663 -3.722389 0.2988869 0
-4.5150318 6.8812561 -0.63301027 0
-6.6483574 4.8093839 0.90403402 0
-5.5294905 5.9086185 1.6315532 0
-4.4277768 6.9685359 -0.026059866 0
-6.2459993 5.1768985 1.5355048 0
-6.9123697 -3.6294501 2.6864808 0
-6.5405436 4.8873234 1.228148 0
-4.5197773 6.8857536 0.57632041 0
-5.148129 6.2806482 1.4954681 0
-4.5494576 6.8709545 0.53132749 0
7.3632154 -3.7276318 0.29807198 0
0.94191158 8.1461391 -0.98173487 0
7.3216109 -3.6930025 -0.98504782 0
-4.9513574 6.4417634 1.4888968 0
-6.8546457 4.5928206 -0.39125991 0
-4.7113609 6.697855 1.0888381 0
-4.426785 6.9675689 -0.32833916 0
-6.8611393 4.595572 0.26258326 0
-4.8819771 6.5436692 1.2721972 0
-5.1993313 6.2125077 1.6341758 0
-6.8475351 4.589808 0.58855867 0
-6.7435579 4.6899133 0.91175246 0
-4.6119761 6.8027711 0.87849081 0
-6.6412106 4.8038387 1.0864558 0
-4.4219732 6.9628763 0.57602274 0
-4.5477552 6.8681016 0.71786106 0
-6.7886553 4.6331668 0.90403414 0
7.3651953 -3.7292798 -0.47239238 0
-6.9463568 4.4858541 -0.065967321 0
0.83474839 8.1677237 -0.9883554 0
-4.4351006 6.9756789 0.27505708 0
-6.9443235 4.4850268 0.26198232 0
-7.3305407 -3.6207864 1.2532392 0
7.3798275 3.606497 -0.9831326 0
-6.3283596 5.1272988 1.4495704 0
-4.6933169 6.7096272 1.1813731 0
-4.5407295 6.8563251 0.90403795 0
7.3720531 -3.7274816 0.50042355 0
7.3587437 -3.7211392 0.70269251 0
-6.8767452 -3.6218588 2.8438649 0
-4.4248085 6.9656415 -0.63220513 0
7.3562503 -3.7218344 -0.73093998 0
7.3672438 -3.7309849 0.55341935 0
-6.8104362 4.649087 0.72063375 0
-5.5907969 5.8268876 1.8206906 0
-6.9472361 4.4862118 -0.39516419 0
-6.8518505 4.5916367 -0.72047651 0
-4.3339958 7.0492048 0.2754091 0
-6.1656084 5.2815752 1.6306548 0
-5.6821756 5.7443123 1.8123646 0
-5.500227 5.917625 1.8168454 0
-6.4734688 4.9569254 1.4496107 0
-6.3514681 5.0855155 1.5418186 0
7.2640696 -3.7207499 1.4040329 0
-6.9508591 4.4713707 0.53648722 0
-5.0691576 6.3771615 1.4951584 0
-4.7088127 6.6938486 1.2736192 0
-5.7773776 5.6462007 1.8300276 0
-5.5227976 5.9008327 1.8137202 0
-5.0359831 6.369554 1.6368647 0
-5.9924269 5.4244523 1.8106351 0
7.0327277 -3.7151825 2.3154688 0
-6.6454182 4.790966 1.2328987 0
-5.8415909 5.5885229 1.8118229 0
-4.8720579 6.537003 1.488894 0
-6.6369762 4.8005533 1.268826 0
-7.2770033 -3.6216309 1.6256025 0
-5.8736572 5.5561261 1.8355503 0
-4.3771586 7.0331678 0.34066796 0
-4.3411899 7.0564246 -0.32848293 0
-4.8815193 6.5429935 1.4567211 0
-5.6948295 5.7439694 1.8272829 0
-4.604713 6.796082 1.1807175 0
-6.8475294 4.5898056 0.91467321 0
-5.3219914 6.0987968 1.8103609 0
-4.5232458 6.8890405 -0.94176257 0
-5.4179211 6.0133858 1.814815 0
7.3590965 -3.721307 0.90405703 0
-6.3202629 5.1202364 1.6313362 0
7.3660064 -3.729955 0.80908537 0
-6.0535994 5.3652411 1.8448751 0
-6.9530239 4.4885669 0.58958149 0
-5.3673086 6.0634961 1.8166666 0
7.2440796 -3.710717 1.62203 0
-4.3517923 7.0670652 -0.026860714 0
-7.0485249 4.381597 -0.068918228 0
1.043116 8.176156 -0.98550069 0
-5.231286 6.1871557 1.8071339 0
-4.5439072 6.8616514 1.0900407 0
7.4502592 3.5299122 -0.9845649 0
-4.5348811 6.9000678 0.87901938 0
-6.4535017 4.9907684 1.5477974 0
-4.3411179 7.0563521 0.57616699 0
-4.3383121 7.0535364 -0.6322453 0
-5.9748311 5.4677291 1.8421628 0
-6.7431974 4.689754 1.2370734 0
-5.1382098 6.2729759 1.8036482 0
-5.2019339 6.2159114 1.8187053 0
-6.6280613 4.7936354 1.450928 0
7.4075933 -3.6289432 -0.99007261 0
7.4556513 -3.5341451 -0.98589742 0
-4.7870131 6.6272807 1.4881773 0
-7.0546913 4.3840041 0.26084566 0
7.2006884 -3.7261765 1.8226504 0
-5.5142393 5.8908772 1.9960003 0
-4.4348392 6.9754238 0.87797678 0
-7.0517235 4.3828459 -0.40030777 0
-6.1611023 5.2774115 1.8130789 0
-6.5422783 4.8881474 1.5521183 0
7.3524446 -3.7181373 1.1052589 0
-4.3831625 7.043921 0.52822447 0
-6.9587402 4.4908929 -0.72785366 0
-6.9657431 4.4816079 0.71994066 0
-6.9423637 4.4842296 0.91714132 0
-5.8341599 5.5808206 1.99406 0
-6.7895918 4.6338511 1.2698336 0
7.5079246 3.4433057 -0.98313117 0
-4.3793325 7.0370607 0.71641684 0
-4.2575665 7.1474204 -0.02640456 0
-4.2537279 7.143456 -0.3285529 0
-6.1612854 5.2779975 1.8530536 0
7.51092 -3.4455888 -0.98386335 0
-4.7141438 6.7022285 1.4596071 0
-4.4379005 6.9784093 -0.94182813 0
-4.8796749 6.5402708 1.6415777 0
-4.5218468 6.8877149 1.1808927 0
-6.8160419 4.6531844 1.0875983 0
-6.4807882 4.9629493 1.6332788 0
-6.3132858 5.114151 1.8135667 0
-5.0541697 6.365222 1.8021998 0
1.1464031 8.1879292 -0.98598647 0
-4.2595272 7.1494451 0.27507174 0
-5.9934549 5.4254594 1.9943388 0
-5.3589849 6.0532322 1.9995308 0
-4.698184 6.7139821 1.4870393 0
-4.5440826 6.8619461 1.2762613 0
