# .PCD v0.7 - Point Cloud Data file format
VERSION 0.7
FIELDS x y z intensity
SIZE 4 4 4 4
TYPE F F F F
COUNT 1 1 1 1
WIDTH 1403
HEIGHT 1
VIEWPOINT 0 0 0 1 0 0 0
POINTS 1403
DATA ascii
-1.2917275 -4.1099753 1.1501834 0
-0.21625972 -4.1243367 1.6815267 0
-0.83002996 -4.1101689 1.517709 0
-0.29741859 -4.1174622 1.6869254 0
-1.3167491 -4.1103296 1.1224499 0
-3.077023 -3.0741963 -0.9857744 0
1.5710719 -4.1577716 0.36962748 0
-0.13567638 -4.1308846 1.6763628 0
1.3405755 -4.1497703 0.93649316 0
1.5716811 -4.1464305 0.48157418 0
1.5713828 -4.1519833 -0.4335047 0
-0.055071831 -4.1355004 1.6710348 0
-0.42050052 -4.1120028 1.6785729 0
1.5701383 -4.175148 -0.085849166 0
-1.4849634 -4.098691 0.94998634 0
1.2467446 -4.1525025 1.0556438 0
-0.81974173 -4.111773 1.5285602 0
-0.063630342 -4.131587 1.6856391 0
1.5703886 -4.1704893 0.2566781 0
-1.5027361 -4.105052 0.90393102 0
0.67704546 -4.1466312 1.507947 0
0.17650127 -4.1278281 1.6904411 0
1.617255 -4.15341 0.2576865 0
0.54677153 -4.1322412 1.6026776 0
1.1527104 -4.1509495 1.1771736 0
-0.30195379 -4.1261973 1.6817274 0
1.0599333 -4.139286 1.2996678 0
1.2094839 -4.1530247 1.1122725 0
1.4924512 -4.1526222 0.69038153 0
0.056664228 -4.1345787 1.6886337 0
0.18434393 -4.1444001 1.6556768 0
1.6170301 -4.1591215 -0.19857264 0
1.3959835 -4.1524711 0.87314117 0
0.42328429 -4.1341066 1.6383791 0
-1.6842363 -4.1065669 0.50703478 0
-1.1009967 -4.1152315 1.3457904 0
-0.89468646 -4.1172986 1.4860394 0
-1.5814314 -4.1010175 -0.80171072 0
1.1014984 -4.14884 1.23965 0
-1.7737496 -4.0971742 0.17835426 0
-1.136452 -4.1233053 1.2942185 0
1.0088824 -4.1530566 1.3062322 0
-1.6710627 -4.0944352 -0.64593542 0
1.6632957 -4.1476789 -0.080920756 0
-1.7756679 -4.0988908 -0.15411478 0
1.4329202 -4.1538072 0.82092035 0
-0.46406317 -4.1084075 1.6998808 0
1.663307 -4.1472292 0.14589131 0
-1.6290209 -4.1043506 0.70500588 0
1.524718 -4.1617599 0.59441066 0
1.3872719 -4.1474853 0.93526256 0
1.2939169 -4.1501179 1.0538449 0
-0.90275764 -4.1061277 1.5292878 0
1.2007039 -4.1465826 1.1742482 0
1.3233871 -4.1421914 1.0530648 0
-1.7819257 -4.1044903 0.011825323 0
-1.5834844 -4.102963 0.82671189 0
1.2476239 -4.1658607 1.0567904 0
-1.7730615 -4.0965586 -0.32167101 0
-0.77530003 -4.1145353 1.5823917 0
0.87763155 -4.1495399 1.4311326 0
1.5255702 -4.1492443 0.70624518 0
1.0694027 -4.1436596 1.3160167 0
1.347454 -4.1487603 1.0091929 0
1.5714705 -4.1503496 0.59366477 0
1.6170375 -4.1589317 0.36964452 0
1.1073228 -4.1403427 1.2973733 0
0.49954081 -4.1387429 1.6351147 0
1.3416095 -4.1415567 1.0509715 0
1.4797026 -4.1470404 0.8195796 0
0.29951453 -4.1349611 1.6955738 0
-1.4940872 -4.10741 0.98095918 0
-1.775274 -4.0985384 0.3432827 0
-0.38658357 -4.127902 1.6969814 0
1.6629835 -4.1601429 0.031420946 0
1.6167084 -4.1672926 -0.31764513 0
1.6171041 -4.1572456 -0.43434364 0
-1.2363653 -4.1167765 1.2709172 0
1.663125 -4.1544919 0.25770724 0
1.2053984 -4.1428003 1.2159524 0
-1.4006169 -4.1052995 1.1311901 0
0.80490017 -4.1435213 1.5124903 0
1.1757859 -4.1463056 1.2378652 0
0.93808448 -4.1501813 1.4155197 0
0.95357323 -4.1429124 1.4274943 0
1.4695532 -4.1474724 0.87231338 0
-1.0751193 -4.1226559 1.4054558 0
-1.503171 -4.1067476 1.0026257 0
1.493615 -4.1551099 0.79715514 0
-1.6826479 -4.1051044 0.66978979 0
1.2475394 -4.147378 1.1726956 0
1.6630968 -4.1556211 -0.31460708 0
1.5422775 -4.1574416 0.69357669 0
-1.0138102 -4.1115723 1.4872775 0
1.6170285 -4.1591659 0.48175943 0
-1.134928 -4.114151 1.3915036 0
0.73213613 -4.1221495 1.6197433 0
-0.91427016 -4.117178 1.5379121 0
1.3883084 -4.1381788 1.0492501 0
-0.53881907 -4.1273265 1.6816201 0
-1.3907745 -4.1095066 1.1564646 0
0.42271912 -4.1349559 1.7000406 0
-1.377687 -4.1032333 1.1981461 0
-1.3085363 -4.1018476 1.2785046 0
-1.1438739 -4.1078434 1.4135425 0
1.5257964 -4.1459217 0.81901777 0
-0.89385176 -4.1095695 1.5833936 0
-1.7540324 -4.0931902 0.60348654 0
0.65279794 -4.1391172 1.6272893 0
-3.0543594 3.1467376 -0.98820031 0
1.3967447 -4.1412907 1.0522783 0
1.153389 -4.1472726 1.29687 0
1.66268 -4.1722574 -0.20083898 0
1.7091358 -4.1422901 0.36997521 0
-1.7761428 -4.0993156 0.50813758 0
1.6629465 -4.1616201 0.36962342 0
1.7089596 -4.158699 -0.082536578 0
1.6159019 -4.1395912 0.6925174 0
-3.0565567 -3.1477437 -0.98884785 0
1.3456299 -4.1445503 1.114347 0
-1.1991363 -4.1186824 1.3539727 0
1.7090497 -4.150311 -0.31319147 0
-1.6323171 -4.1158247 0.80424523 0
1.5710838 -4.1575489 0.70672834 0
-0.55848002 -4.1253476 1.7123156 0
1.7548373 -4.1452322 -0.080377638 0
-1.5012949 -4.0994315 1.1010756 0
0.6778599 -4.1496277 1.6108012 0
0.54671884 -4.1320229 1.7046542 0
1.6630547 -4.157299 0.48170102 0
0.57224393 -4.1571331 1.6353772 0
1.7091079 -4.1448884 -0.43041581 0
1.7089186 -4.1625242 -0.19878656 0
1.0274178 -4.1474729 1.4262729 0
-1.7843082 -4.1066222 -0.49445879 0
-1.8651936 -4.0871673 -0.33163112 0
-1.2592638 -4.126451 1.2965536 0
-1.6756079 -4.0986214 0.83234215 0
1.4315653 -4.167789 0.93773448 0
-0.98839116 -4.115128 1.5459924 0
1.6175499 -4.1459222 0.70552325 0
1.4341691 -4.1409211 1.048857 0
1.7089223 -4.162178 0.25734735 0
-0.65747547 -4.1289477 1.6827271 0
1.2932158 -4.1551104 1.1729202 0
1.7088598 -4.1679974 0.14414585 0
-1.005084 -4.1128192 1.5454757 0
1.2005992 -4.1471992 1.2946441 0
1.6167748 -4.1656046 0.59435296 0
1.708813 -4.1723614 0.030021548 0
1.5427256 -4.1460614 0.87189245 0
1.494459 -4.1569142 0.90394104 0
1.2489626 -4.1520476 1.2375693 0
1.7548671 -4.1535568 0.032350659 0
-1.3757 -4.0944452 1.2958746 0
1.7548534 -4.1497421 -0.19626999 0
-1.5855098 -4.1048827 0.98883629 0
-0.77521873 -4.1135082 1.6812549 0
-1.6300793 -4.1080351 0.90393209 0
1.7548691 -4.1541266 0.14537382 0
-1.4906349 -4.1040425 1.1411858 0
1.2486279 -4.1403594 1.2907717 0
-1.1338503 -4.1076775 1.4892688 0
1.7090447 -4.1507726 0.48157275 0
0.93704414 -4.1470714 1.5186062 0
-1.883496 -4.1030788 0.0052423477 0
-1.5972576 -4.1131516 0.9563992 0
1.4784696 -4.1619887 0.9361558 0
1.6458936 -4.164978 0.57785058 0
1.3404782 -4.1505423 1.1704345 0
1.7548655 -4.1531286 0.25783026 0
-1.6859028 -4.1081018 -0.82346237 0
1.5257111 -4.1471758 0.93325448 0
-1.2266262 -4.1064258 1.4262953 0
-1.6260467 -4.093997 1.0030901 0
0.032368898 -4.1178517 1.8589315 0
1.6625332 -4.1781206 -0.43954235 0
1.754861 -4.1518693 -0.31351346 0
-0.64784908 -4.1279125 1.7215095 0
-1.6823366 -4.0838614 0.95841408 0
1.0731864 -4.1539783 1.4211645 0
-0.89277506 -4.0996022 1.6807084 0
-1.489639 -4.1060028 1.1625669 0
1.6629651 -4.1608791 0.59402752 0
1.6634029 -4.1434016 0.70517361 0
-3.0207148 3.2143638 -0.987692 0
-1.7790909 -4.101954 -0.66556907 0
0.67253745 -4.1300454 1.7101824 0
1.3879603 -4.1413045 1.1670253 0
-1.7789497 -4.1018276 0.67341137 0
0.34975886 -4.1179543 1.8340607 0
-3.0220981 -3.2150211 -0.98810232 0
1.2091894 -4.1522875 1.3214397 0
-1.8877487 -4.1067762 0.17354059 0
-1.0140629 -4.1134143 1.5864253 0
1.7548282 -4.1427298 0.48142958 0
-1.8898392 -4.1085935 -0.16541648 0
-0.050300837 -4.1220093 1.8672204 0
-1.0665619 -4.1130233 1.5593672 0
-1.2964716 -4.1178842 1.3616991 0
0.1094954 -4.1280832 1.8550649 0
1.8007134 -4.1529698 -0.081681073 0
1.4693367 -4.1515021 1.0529881 0
-0.13166213 -4.1200304 1.8741374 0
-1.8708367 -4.0920734 0.50929356 0
-1.8839455 -4.1034694 0.34180307 0
-1.4027894 -4.1074796 1.2921243 0
-1.2582607 -4.1213355 1.3949027 0
-0.73423076 -4.1217275 1.7288475 0
-1.7607222 -4.1141887 0.70279014 0
1.2945318 -4.1457405 1.2904003 0
1.5704266 -4.1697836 0.82160914 0
-1.0989785 -4.1116376 1.5540972 0
0.87920272 -4.140285 1.6176989 0
0.80150306 -4.1541438 1.6239786 0
1.6464939 -4.1661711 0.68668222 0
1.3223546 -4.1547117 1.2369511 0
-1.7655017 -4.0897942 -0.83595753 0
1.754899 -4.1624904 0.36962545 0
1.4952368 -4.158577 1.0108161 0
1.1000755 -4.1601424 1.4268498 0
1.7548814 -4.1575851 -0.43377411 0
1.8007734 -4.1563206 -0.19764453 0
1.8008249 -4.1591988 0.14488697 0
-1.8766499 -4.097127 -0.50669968 0
1.4789274 -4.1564384 1.051084 0
-1.1378648 -4.1012712 1.5698192 0
1.8009059 -4.1637254 0.031041503 0
1.7089353 -4.1609697 0.59398913 0
1.571337 -4.1528363 0.9337101 0
0.81019294 -4.1609974 1.6186056 0
1.8007872 -4.1570916 0.25759673 0
-0.29681206 -4.1159554 1.8890624 0
-1.3080065 -4.1013007 1.4384122 0
1.3515495 -4.1582136 1.2208786 0
1.6418352 -4.1569133 0.79561245 0
-1.5044589 -4.1117702 1.2008069 0
-0.82106447 -4.1143851 1.7362583 0
1.6633465 -4.145648 0.81819868 0
-1.2545614 -4.1024728 1.4915757 0
-2.9830813 -3.2799802 -0.98627663 0
0.26458466 -4.1415057 1.8463421 0
-1.387073 -4.1035314 1.3672276 0
-0.21743131 -4.1273708 1.8841033 0
1.617728 -4.1413989 0.93155885 0
-1.7595429 -4.110487 0.80350649 0
1.0694591 -4.1438136 1.524332 0
1.8465197 -4.1509309 0.032471657 0
-1.8652434 -4.0872107 0.67629647 0
-1.3771961 -4.1010618 1.3954554 0
-2.9865904 3.2817099 -0.98732483 0
0.18359494 -4.1468477 1.8539157 0
-1.6275196 -4.0991244 1.1026051 0
-1.6818497 -4.1043692 0.99743736 0
1.3407216 -4.1486092 1.2895284 0
1.6166241 -4.1694307 0.82130206 0
1.3963076 -4.1477118 1.2349663 0
0.95363069 -4.1425419 1.6154585 0
1.8464274 -4.1480651 0.25800979 0
-1.5855186 -4.1048908 1.1521127 0
1.5251808 -4.154964 1.0501232 0
1.1745239 -4.1576362 1.4246612 0
1.8007536 -4.1552119 -0.43327016 0
1.8009462 -4.165978 -0.31688482 0
0.93673301 -4.1461406 1.6225941 0
-1.7795815 -4.1023927 0.83929944 0
-1.9792078 -4.0938826 -0.17257386 0
-1.1910863 -4.1048155 1.5618236 0
1.6152852 -4.1642094 0.87327504 0
-1.5895369 -4.10145 1.1687799 0
-1.134449 -4.1112747 1.5890477 0
1.8009094 -4.1639194 0.36959183 0
-1.0129695 -4.1054411 1.6845553 0
-1.7565041 -4.1009479 0.90393293 0
1.2084811 -4.1505151 1.4264457 0
-1.9835379 -4.0975394 -0.0010887384 0
0.57812214 -4.1314998 1.8226233 0
1.7089454 -4.1600242 0.70655644 0
-1.8729327 -4.0938954 -0.68058681 0
1.688423 -4.1720219 0.69414878 0
1.432179 -4.1614561 1.1705952 0
-1.982466 -4.0966339 0.1701169 0
-1.9746671 -4.0900474 0.34075308 0
-1.8875518 -4.1015663 0.5999701 0
-0.3841784 -4.1221676 1.8995028 0
1.8465629 -4.1522665 -0.31398398 0
1.2497444 -4.1439795 1.4205065 0
-0.90984344 -4.1087379 1.7444897 0
1.7548971 -4.1619616 0.59403253 0
0.41971397 -4.1478572 1.8369608 0
1.8469521 -4.16435 -0.083666384 0
0.80508888 -4.1441445 1.7196319 0
1.4952629 -4.1586328 1.1178102 0
0.49792695 -4.1453457 1.8311863 0
1.8008491 -4.1605515 0.48174918 0
1.3872523 -4.1476607 1.2878072 0
1.6887097 -4.1453123 0.87150705 0
1.847064 -4.1678247 0.14403105 0
1.5421015 -4.1619096 1.053849 0
-0.46824002 -4.1179786 1.9073319 0
0.92849755 -4.1215181 1.7226284 0
1.8470539 -4.1675115 -0.20004445 0
1.6435127 -4.1602468 0.90394294 0
1.8467436 -4.1578794 0.36967719 0
1.7942641 -4.1582718 0.57347083 0
0.65353811 -4.1356635 1.8193369 0
-1.8862081 -4.0977321 0.70166361 0
1.0649587 -4.1315403 1.6273022 0
1.0275795 -4.1463208 1.6138258 0
1.8926365 -4.1559081 0.031638265 0
-1.4983439 -4.1115613 1.3058867 0
-1.9845307 -4.0983777 -0.34713954 0
1.8923047 -4.1487775 0.25787783 0
-0.55185699 -4.1107445 1.9146695 0
1.3515677 -4.1582556 1.3270659 0
-1.3965943 -4.1012626 1.452738 0
1.4338653 -4.1440554 1.2855525 0
1.8007984 -4.1577191 0.59383607 0
-1.2267139 -4.1065192 1.5870404 0
1.761691 -4.1599827 0.6935041 0
-1.2537026 -4.0980949 1.5904126 0
1.8928397 -4.1602716 -0.083306968 0
-1.7705877 -4.0943451 1.0046778 0
1.5707409 -4.1639304 1.0513246 0
-1.6723809 -4.0956492 1.1611669 0
-1.6284032 -4.1022 1.2024353 0
-1.9782984 -4.0931144 0.51072979 0
1.6630267 -4.1584196 0.93402243 0
1.7549118 -4.1660657 0.70707059 0
-1.7578244 -4.1050925 1.0042281 0
-1.5070767 -4.1219778 1.3012521 0
-1.4887116 -4.1045523 1.3759398 0
-1.0024285 -4.1079278 1.7543881 0
1.4690908 -4.1560798 1.2355886 0
1.6155772 -4.152554 1.0524104 0
-2.958075 -3.3518951 -0.98893178 0
-1.8853755 -4.0953574 0.802912 0
1.2059133 -4.1440887 1.5312312 0
1.8931942 -4.1678882 0.14386678 0
1.7088462 -4.1692619 0.82099783 0
-1.1333315 -4.1045618 1.6877947 0
1.5249547 -4.1582842 1.1681044 0
-2.9599891 3.3528728 -0.98950768 0
1.3228102 -4.1491885 1.4202461 0
1.847104 -4.1690636 -0.43729174 0
0.72819662 -4.1419082 1.8169236 0
1.89263 -4.1557665 0.36968255 0
1.4773636 -4.1753974 1.1728692 0
-1.8738775 -4.094717 0.84504247 0
-1.9836857 -4.0976644 -0.52256697 0
1.8924096 -4.1510305 -0.43294114 0
-1.8013401 -4.1017394 0.96562004 0
1.8933281 -4.1707625 -0.20102984 0
1.1015539 -4.1483984 1.6120467 0
-4.3756804 0.9500162 -0.98699892 0
1.8471252 -4.169723 0.48192954 0
0.80493951 -4.1355224 1.8113666 0
-1.3791897 -4.1098795 1.4962134 0
1.6169455 -4.1612701 1.0503905 0
1.9386587 -4.1559811 -0.083017766 0
-0.641114 -4.1136103 1.9254007 0
1.7976737 -4.1645889 0.68349361 0
-2.9067245 -3.4102106 -0.98393202 0
1.7090044 -4.1545186 0.93327427 0
1.9386892 -4.1564817 0.14464974 0
1.8008567 -4.1609778 0.70666862 0
-1.6931291 -4.0997205 1.1756845 0
1.7548901 -4.1600132 0.81984198 0
1.6449051 -4.1630135 1.0124326 0
-1.7546806 -4.0952244 1.1041493 0
1.5713437 -4.1527128 1.1661696 0
1.5427734 -4.1448493 1.233269 0
1.8926252 -4.155664 0.48171556 0
-2.0833969 -4.0891523 0.1663022 0
-1.503468 -4.1079059 1.3996959 0
-1.8812096 -4.1010914 -0.86121237 0
-1.2957473 -4.1166768 1.5741491 0
1.8934894 -4.1742291 -0.31947696 0
-2.9135642 3.4138293 -0.98600543 0
-2.0777678 -4.0845346 0.33943141 0
1.9082726 -4.1677976 0.33632231 0
1.8347868 -4.1571651 0.69339752 0
1.9393706 -4.1676693 0.029888391 0
1.50003 -4.1688242 1.2258224 0
1.4788294 -4.1576257 1.2880981 0
1.3965144 -4.1446738 1.4182954 0
1.9389739 -4.1611562 0.25709879 0
-1.5900812 -4.1092148 1.3184257 0
1.9078107 -4.1534562 0.51482713 0
1.8471514 -4.1705384 0.59456849 0
-1.9786584 -4.0934181 -0.69905055 0
1.3510975 -4.1571703 1.4335742 0
1.9841869 -4.1483979 0.14508498 0
1.9389223 -4.1603079 -0.31683028 0
-1.8866377 -4.098958 0.903934 0
-2.0177317 -4.0928726 0.59740734 0
1.9394327 -4.1686902 -0.2011084 0
-2.0914183 -4.0957322 -0.1833089 0
1.1754451 -4.1493664 1.6102591 0
1.9384894 -4.1532011 -0.43418425 0
1.8007885 -4.1571674 0.81955314 0
-1.5855598 -4.0954227 1.3830831 0
-2.0966296 -4.1000071 -0.0088316798 0
0.87874639 -4.1429729 1.8098831 0
-2.0855069 -4.0908833 -0.3586725 0
1.6628574 -4.1651754 1.0508618 0
1.7983971 -4.1659293 0.79374361 0
1.938354 -4.1509767 0.4816767 0
1.754877 -4.1563396 0.93353677 0
1.2031511 -4.1371765 1.6362956 0
-1.0995185 -4.1125989 1.7661674 0
1.4922611 -4.1522155 1.3319483 0
1.7617246 -4.1693802 0.87358987 0
-4.3616171 1.1248199 -0.98432994 0
1.6170979 -4.157402 1.16676 0
-2.0157752 -4.0877647 0.70002246 0
1.7090248 -4.1526232 1.0482616 0
1.9851872 -4.1616836 -0.084419489 0
1.9852644 -4.1627097 0.030113101 0
-4.3635221 -1.1248744 -0.98476994 0
1.8470447 -4.1672254 0.70731628 0
-1.2548277 -4.1038313 1.6917424 0
-1.3231325 -4.1169219 1.6068957 0
-1.6317232 -4.1137576 1.3035648 0
-1.9927046 -4.1052809 0.68198526 0
1.8930944 -4.1657448 0.59441221 0
-1.3889318 -4.1065321 1.5818937 0
-4.3868709 -1.0377617 -0.9897275 0
1.0685467 -4.141325 1.7348793 0
-1.5015996 -4.1006198 1.4989839 0
1.6884874 -4.1660285 1.0539045 0
1.9854932 -4.1657486 -0.20114625 0
1.9852995 -4.1631761 0.25682831 0
1.8006711 -4.1506071 0.93270671 0
-1.3791714 -4.1097989 1.5965559 0
1.9847027 -4.1552491 0.36959386 0
-4.3912749 1.0378247 -0.99074435 0
-2.8755097 -3.4789598 -0.98529828 0
-1.5011678 -4.114315 1.4720206 0
0.9533534 -4.14433 1.8070369 0
1.5243459 -4.1672268 1.2897477 0
-1.886019 -4.0971932 1.0050013 0
1.9851345 -4.1609845 -0.31771088 0
2.0301251 -4.1467137 -0.19817173 0
-1.8784499 -4.0986919 1.0149634 0
-2.084568 -4.0901132 -0.53670001 0
-1.7568879 -4.1021533 1.2050381 0
1.0297455 -4.1309009 1.8004849 0
-1.7951891 -4.0929737 1.1821275 0
1.6489553 -4.1710625 1.12146 0
-1.9078155 -4.0982428 0.9707762 0
-0.73876786 -4.1310153 1.940923 0
-1.9770272 -4.0920405 0.85174298 0
-0.82073545 -4.1137357 1.946559 0
1.5711851 -4.1556621 1.2858918 0
1.8928554 -4.1606102 0.70689571 0
1.6630721 -4.1566029 1.1662335 0
-1.6782422 -4.101047 1.3298645 0
1.9403459 -4.183682 0.36915135 0
1.6154959 -4.1557975 1.2346313 0
-1.1907237 -4.1041908 1.7749228 0
1.8469093 -4.1630216 0.82041347 0
-2.0924373 -4.0965681 0.51229966 0
1.4692082 -4.1538949 1.4192257 0
-2.0163264 -4.0892043 0.80199814 0
2.0311852 -4.1585312 0.14386344 0
-2.8853741 3.4843607 -0.98831165 0
-1.7859912 -4.1081281 1.1758189 0
1.9848167 -4.1567626 0.4818325 0
-1.4800746 -4.0910454 1.5887833 0
1.7548757 -4.1559663 1.0488796 0
1.8011885 -4.1711011 0.90394533 0
1.9819177 -4.173851 0.33616602 0
1.9853112 -4.163331 -0.43774468 0
2.0316918 -4.1641793 0.029464602 0
-1.4032567 -4.1079488 1.6202254 0
-1.980881 -4.0952954 -0.88048244 0
1.761672 -4.1546941 1.0524807 0
1.9081981 -4.165484 0.69392979 0
1.9811784 -4.1579695 0.51495636 0
1.3510361 -4.1570287 1.5407534 0
-1.5787506 -4.0984769 1.4823987 0
2.030874 -4.1550632 -0.31721652 0
1.2477559 -4.1644993 1.6120048 0
1.8349808 -4.1680093 0.87353873 0
-2.0808611 -4.0870724 0.68492579 0
1.6887727 -4.1394434 1.2318337 0
-1.2779443 -4.086997 1.7817388 0
1.9483151 -4.153995 0.68050492 0
1.3230968 -4.1457129 1.6061311 0
-4.3676496 1.2125704 -0.98644662 0
1.7936926 -4.1572127 1.013916 0
-0.90941739 -4.1079259 1.9560618 0
1.9386617 -4.1560302 0.70671058 0
1.6439943 -4.1612034 1.2297413 0
-1.3758652 -4.0951753 1.6948562 0
1.6171522 -4.156023 1.2854156 0
1.9845592 -4.1533422 0.59405482 0
1.7089999 -4.1549492 1.1656623 0
1.1032525 -4.1349053 1.7989485 0
1.9398696 -4.1758628 0.59507322 0
-1.631829 -4.1141257 1.404335 0
1.8928282 -4.1600261 0.8202678 0
1.8006589 -4.1499228 1.0478005 0
-1.8860583 -4.0973053 1.1061838 0
-2.8369546 -3.5437376 -0.98471689 0
-2.196372 -4.0885835 -0.19277889 0
-2.0154018 -4.0867901 0.90393496 0
-2.1987467 -4.0904751 0.16155732 0
2.0323508 -4.1715274 0.25618935 0
-2.1480942 -4.0788784 0.59493399 0
2.0307612 -4.1538067 0.48184705 0
-2.1903505 -4.0837865 -0.37087983 0
-4.3776641 -1.2130008 -0.98876071 0
2.0775111 -4.1582594 -0.085185707 0
1.9076931 -4.1498103 0.87210631 0
2.0332515 -4.181571 -0.088184536 0
-4.356019 1.2995895 -0.98477077 0
1.2046032 -4.14081 1.743959 0
1.6356304 -4.1445827 1.3371546 0
1.8470036 -4.1659489 0.93531966 0
1.4971611 -4.1626911 1.4411776 0
-1.5025318 -4.1042547 1.600426 0
-1.6961505 -4.1041598 1.3939838 0
2.0779781 -4.162746 0.14310145 0
-1.974663 -4.090044 1.0232434 0
-2.2091441 -4.0987582 -0.016418338 0
1.3449204 -4.1429129 1.6461256 0
2.0549622 -4.1655855 0.33624172 0
1.9660783 -4.184762 0.56599724 0
1.6630601 -4.1570854 1.2853043 0
1.9812231 -4.1589293 0.69373715 0
2.0779867 -4.162827 0.25641251 0
2.0322208 -4.1700788 -0.44057995 0
2.0783994 -4.1667914 -0.20296162 0
1.5420706 -4.1626945 1.4202757 0
-4.3657622 -1.300148 -0.98702383 0
-1.8776236 -4.0979738 1.1856396 0
1.8347267 -4.1538086 1.0524683 0
-1.7605798 -4.1137414 1.3070521 0
-1.6281796 -4.1014214 1.5037606 0
2.0330355 -4.1791611 0.36910856 0
1.951529 -4.1595621 0.79213691 0
-2.0977359 -4.1009145 -0.72128773 0
-1.8838396 -4.0909748 1.207114 0
2.0308962 -4.1553097 0.59435725 0
-2.8538947 3.5533304 -0.98993325 0
2.0781 -4.1639156 -0.32030255 0
2.0777528 -4.1605825 0.36935604 0
2.0793853 -4.1762576 0.02742362 0
-2.2071571 -4.0971756 0.33753622 0
2.0772419 -4.1556768 -0.43790251 0
-1.4936249 -4.1069589 1.6372528 0
1.1761744 -4.1428185 1.7987523 0
1.4884967 -4.1441679 1.5470419 0
-1.903475 -4.0922418 1.189769 0
2.1235704 -4.1546426 0.14336443 0
2.054666 -4.1607213 0.51507306 0
1.3957745 -4.1555409 1.6071343 0
-1.5828319 -4.0912881 1.5997038 0
1.9855698 -4.1667676 0.70792663 0
1.9394344 -4.1687174 0.82164049 0
2.1236346 -4.1551828 -0.20169222 0
-1.7808084 -4.1034908 1.3449459 0
1.796751 -4.1628795 1.1243067 0
2.1244142 -4.1617546 -0.086558223 0
1.8932822 -4.1697764 0.93621385 0
1.4700185 -4.1388111 1.6022367 0
2.0777588 -4.1606393 0.48204482 0
1.8469834 -4.1653256 1.0510192 0
-2.0189681 -4.0961003 1.0060441 0
-1.0087135 -4.1195049 1.9713256 0
1.7549422 -4.1745672 1.1701536 0
1.6155428 -4.1539273 1.4181125 0
-4.3565021 -1.3872867 -0.98618531 0
-1.7925055 -4.0891495 1.4007044 0
-2.1547775 -4.0949316 0.69731128 0
-2.2054005 -4.0957756 0.51382446 0
-2.8063326 -3.6131051 -0.98688054 0
1.9850004 -4.1592026 0.8208549 0
-2.8072305 3.6136305 -0.98715925 0
-1.7576528 -4.1045542 1.4075286 0
2.1255436 -4.1712756 0.027404189 0
-4.3610878 1.3876154 -0.98724663 0
-1.6813245 -4.1038857 1.500556 0
1.9808835 -4.1516337 0.8725177 0
-2.0949597 -4.0986376 0.86004257 0
1.9388335 -4.1588507 0.93487287 0
2.1248808 -4.1656871 0.25599146 0
1.7088802 -4.1660938 1.287498 0
1.761692 -4.1602588 1.2350893 0
-1.384351 -4.0991373 1.7969191 0
1.8009168 -4.1643362 1.1679056 0
1.8926727 -4.156683 1.04969 0
2.1249313 -4.1661134 -0.32200366 0
-2.1520553 -4.0883927 0.80084455 0
-2.1943302 -4.086957 0.6895467 0
-2.2098055 -4.0992851 -0.55675268 0
1.8465385 -4.1515126 1.1652098 0
1.7926562 -4.1552925 1.2341835 0
2.124104 -4.1591387 -0.44021451 0
1.6386337 -4.1505513 1.4471245 0
-1.6272693 -4.0982528 1.6048532 0
2.1166532 -4.1648841 0.44716716 0
2.1252005 -4.1683826 0.36912906 0
1.343992 -4.14077 1.7540467 0
-1.5795379 -4.0992227 1.6524115 0
2.0783551 -4.1663647 0.59517384 0
2.0323515 -4.1715341 0.70867872 0
-1.8852143 -4.0948973 1.3090756 0
1.2488854 -4.1528435 1.7994061 0
-1.503768 -4.1090751 1.7030537 0
2.1289988 -4.1719475 0.33604312 0
1.9080446 -4.1607175 1.0535417 0
-1.7527928 -4.0892987 1.5072079 0
1.9846073 -4.1539826 0.9345963 0
2.127835 -4.1564903 0.51508617 0
1.7549027 -4.1635437 1.2867706 0
-2.311976 -4.086863 0.15700638 0
-2.3110681 -4.0861611 -0.20367295 0
1.9599466 -4.1741414 0.90394759 0
-2.101676 -4.104147 -0.90687728 0
-2.3057761 -4.082068 0.33634496 0
-1.1019785 -4.1169796 1.9828134 0
2.1720414 -4.1687355 0.027000427 0
-4.3539519 -1.4749167 -0.98718929 0
2.1720839 -4.1690545 -0.088648498 0
-2.0823565 -4.0882988 1.0332696 0
2.1714363 -4.1641912 0.25576448 0
2.1158507 -4.1635818 0.5619036 0
-2.3194985 -4.0926819 -0.023684621 0
-2.2007709 -4.0920877 -0.73850584 0
-2.7656322 -3.676666 -0.98621666 0
-1.875531 -4.0961542 1.3578115 0
2.1254129 -4.1701732 0.48230231 0
2.0316679 -4.1639132 0.82190251 0
1.9518666 -4.1601467 1.0157733 0
-2.0094566 -4.0854063 1.196794 0
1.542624 -4.1486421 1.6037245 0
2.0557303 -4.1781974 0.69495499 0
-4.3610101 1.4755243 -0.98882484 0
-2.0225148 -4.10536 1.1087263 0
2.1725912 -4.172864 -0.20629102 0
-2.7692919 3.678879 -0.98736262 0
2.1730797 -4.1765318 0.14092326 0
1.8924863 -4.1526818 1.1658969 0
2.0785294 -4.1680374 0.70876384 0
-1.9866555 -4.100172 1.1989799 0
2.1271157 -4.1469345 0.69357443 0
2.1121845 -4.1576328 0.67645025 0
2.2173386 -4.1573606 -0.087811351 0
1.4921787 -4.1520395 1.6574373 0
2.1718495 -4.1672931 0.36904621 0
1.939271 -4.1660337 1.051991 0
1.83489 -4.1629314 1.2356372 0
2.2177563 -4.1601882 0.027258992 0
-2.015594 -4.0872922 1.2100461 0
-2.3049016 -4.0813913 0.51503563 0
-1.6908405 -4.0963573 1.6122103 0
2.171294 -4.1631227 -0.44285309 0
1.8009198 -4.1644998 1.2871592 0
1.6884562 -4.1689377 1.4207764 0
2.201602 -4.1585169 0.33617258 0
-4.3415108 1.5616956 -0.98619068 0
2.2176387 -4.1593924 -0.20491576 0
-4.3417106 -1.5617156 -0.98623693 0
2.1731567 -4.1771092 -0.32591319 0
1.3220129 -4.1588526 1.7992592 0
1.6361125 -4.1455412 1.5562787 0
-2.1966991 -4.0888438 0.86642623 0
2.1258929 -4.1742187 0.59585869 0
-2.2909536 -4.0874362 0.59041417 0
-1.780272 -4.1030107 1.5173349 0
-1.4872589 -4.1022806 1.810189 0
2.0548739 -4.1641345 0.87395716 0
1.3966668 -4.1424356 1.7933712 0
-2.1506696 -4.0850649 1.0069444 0
-1.6266603 -4.0961332 1.706774 0
2.2185407 -4.1654954 0.25535345 0
-2.1595864 -4.1064835 0.90393698 0
-1.197722 -4.1162457 1.9953642 0
2.2183051 -4.1639023 -0.32434356 0
-1.9036949 -4.0925455 1.411361 0
1.907639 -4.1481304 1.233582 0
2.078516 -4.1679101 0.82294583 0
-1.887203 -4.1005707 1.4118924 0
1.9852203 -4.1621246 1.0518396 0
1.951046 -4.1587253 1.1276443 0
-2.3282504 -4.0994515 -0.38959235 0
1.9814759 -4.1643615 1.0543437 0
-1.6741414 -4.0972705 1.670578 0
2.2200851 -4.1759491 0.14040172 0
1.9386396 -4.1556668 1.1671567 0
-2.3142314 -4.0886078 -0.57143795 0
-1.2815235 -4.0929632 2.0014038 0
2.173121 -4.1768422 0.48252189 0
1.7984352 -4.1659999 1.3459585 0
2.0323768 -4.1718163 0.93803334 0
1.8469763 -4.1651025 1.2876296 0
-2.1993966 -4.0909929 -0.92502451 0
-1.7542491 -4.0938702 1.6102152 0
2.169661 -4.1508608 0.70821083 0
-2.2911406 -4.0878506 0.69508982 0
2.1169081 -4.165298 0.79005206 0
2.2177353 -4.1600466 0.48233986 0
-2.7315578 3.7442989 -0.98792613 0
2.2650392 -4.1616111 -0.089634478 0
2.07726 -4.1558495 0.93620181 0
-2.7322364 -3.7447228 -0.98814058 0
2.1723928 -4.1713734 0.59601521 0
2.2023399 -4.1667442 0.51537144 0
-2.3081174 -4.0838785 0.69413781 0
-1.9737866 -4.089304 1.3714483 0
2.2165062 -4.1517291 0.59531724 0
-4.337862 1.649379 -0.98752201 0
2.2637713 -4.1538053 0.36904454 0
-4.3392034 -1.6495333 -0.98783374 0
2.2194362 -4.171556 -0.44688523 0
2.0312099 -4.1588087 1.0519321 0
2.1271393 -4.1847262 0.71068585 0
2.2660716 -4.1679678 -0.20800579 0
2.2208605 -4.1811957 0.36868691 0
-2.1893735 -4.0830078 1.0430801 0
2.2009037 -4.150733 0.69409072 0
1.6152029 -4.1674933 1.6075351 0
2.1251206 -4.1677094 0.82355475 0
2.2667699 -4.172267 0.14009416 0
1.7617488 -4.176136 1.4221246 0
-2.4293103 -4.0832067 -0.03082335 0
1.7915797 -4.1532979 1.4556775 0
1.4916933 -4.1510015 1.7672338 0
2.2676525 -4.177701 0.024195075 0
-2.2910256 -4.0875959 0.79957688 0
-1.5854301 -4.0952258 1.8211699 0
-2.0200958 -4.0990443 1.3137765 0
2.2660773 -4.1680036 -0.3269695 0
-1.8852282 -4.0949368 1.5138664 0
-2.0917273 -4.0959854 1.2113466 0
1.8932223 -4.1684914 1.2890246 0
2.1155798 -4.1631422 0.90394962 0
2.1283789 -4.1637144 0.87435734 0
1.9852198 -4.1621175 1.169373 0
2.3114212 -4.1564751 0.14080238 0
-4.3199162 1.735395 -0.98581958 0
2.2649903 -4.1613102 -0.44604295 0
-2.1551576 -4.0958452 1.1106088 0
2.17027 -4.1554327 0.82275152 0
-2.6854167 3.8043909 -0.98611212 0
-1.8765423 -4.0970335 1.5330911 0
-2.4351058 -4.0875583 0.15185189 0
2.2677553 -4.1783333 0.2542932 0
-2.3159914 -4.0899692 -0.75912821 0
-2.6864252 -3.8050406 -0.98643351 0
-4.3232694 -1.7358294 -0.98660004 0
2.2765472 -4.1694813 0.33585596 0
-2.2870479 -4.078764 0.9039377 0
2.1242058 -4.1599975 0.93767786 0
-1.7666306 -4.0908041 1.6877632 0
1.8348808 -4.1624188 1.419611 0
1.4687861 -4.1617513 1.7973623 0
2.2817545 -4.1606421 0.43922806 0
-2.4316149 -4.0849371 0.33456767 0
2.3125031 -4.1625829 -0.20848453 0
2.0552421 -4.1701808 1.0555429 0
1.9389671 -4.1610441 1.2876897 0
-1.7530551 -4.0901222 1.7125931 0
-1.8028886 -4.1039467 1.6258063 0
2.2179885 -4.1617599 0.70974326 0
-2.4406214 -4.0917001 -0.21673715 0
-2.0146022 -4.0847025 1.4152789 0
1.6885287 -4.1621833 1.6060066 0
1.6416917 -4.1566277 1.6688507 0
2.2665527 -4.1709304 0.48265815 0
-2.3085699 -4.084229 0.87387574 0
-2.1311727 -4.0963449 1.2068818 0
2.0311086 -4.1576781 1.1692226 0
2.2760096 -4.1643176 0.51545334 0
2.3146758 -4.1748476 0.023574114 0
1.9596746 -4.1736703 1.241004 0
2.3137159 -4.1694288 0.25435019 0
2.1695404 -4.1499548 0.93699658 0
2.3152318 -4.1779861 -0.093522191 0
2.3130744 -4.1658068 0.36869395 0
2.0789776 -4.1723418 1.0554461 0
-2.4392614 -4.0906792 -0.40273458 0
2.3137617 -4.1696863 -0.32919532 0
1.9817585 -4.1704302 1.2375734 0
-1.3892915 -4.1071124 2.0196719 0
2.1181533 -4.1673183 1.0179029 0
2.3122745 -4.1612916 0.48262584 0
1.9078064 -4.1533232 1.4181986 0
-4.3141284 1.822968 -0.98723626 0
1.5421693 -4.1601858 1.7960291 0
-2.1561484 -4.0982256 1.2144058 0
-2.3100767 -4.0853944 -0.94742632 0
2.3602555 -4.1636539 0.13940942 0
2.2877433 -4.1697636 0.55508757 0
-4.3166704 -1.8233343 -0.98782909 0
2.3599734 -4.1621847 -0.21008295 0
1.985343 -4.163754 1.2892582 0
-2.438354 -4.0899973 0.51697934 0
-1.8854659 -4.0956149 1.617331 0
-1.9680405 -4.0844512 1.5472419 0
-2.1890249 -4.0827303 1.2220113 0
-4.2840648 1.9068831 -0.9832741 0
-2.6473217 -3.8696187 -0.9871453 0
-2.6473475 3.8696353 -0.98715341 0
2.2021291 -4.1643949 0.87494707 0
-2.0229526 -4.1035147 1.4239404 0
-2.2905054 -4.0864406 1.0082698 0
2.3141942 -4.1721282 -0.45110756 0
2.1247406 -4.1645055 1.0549169 0
2.3500524 -4.1637688 0.33581305 0
2.2683103 -4.1817513 0.59728813 0
2.0303698 -4.1494393 1.2864275 0
2.077785 -4.1608896 1.171 0
-2.4355168 -4.0907707 0.58592057 0
2.3622646 -4.1741199 -0.094271898 0
-1.901592 -4.0896382 1.6346736 0
2.2849407 -4.1654949 0.67182374 0
2.266371 -4.1698112 0.71108806 0
2.3628583 -4.1772137 0.02221477 0
-2.013957 -4.0830183 1.5185242 0
2.2763519 -4.1676054 0.69535232 0
2.1140468 -4.160655 1.1316147 0
1.7617211 -4.1683979 1.6073809 0
-2.4429688 -4.0934625 -0.5919131 0
2.3614957 -4.170115 -0.33129251 0
2.3610198 -4.1676364 0.36851072 0
1.9590816 -4.1726437 1.3538158 0
-2.592802 3.9237349 -0.98315394 0
2.3626857 -4.1763148 0.25352955 0
2.1292992 -4.1759381 1.0568662 0
2.0548687 -4.1640472 1.237185 0
-2.0925212 -4.0966368 1.3900995 0
1.8013878 -4.1714706 1.5702546 0
-1.6971257 -4.1055932 1.8375134 0
2.3140988 -4.1715903 0.59716487 0
-4.3011336 -1.9095929 -0.98726416 0
2.1233754 -4.152998 1.1703544 0
2.2215497 -4.1858597 0.82732713 0
1.6153799 -4.1604271 1.7954621 0
2.4086316 -4.1663189 0.022427678 0
2.1713154 -4.1632838 1.0558124 0
-2.4363508 -4.0924892 0.69202948 0
2.4085174 -4.1657667 -0.094406784 0
1.6427875 -4.1588058 1.7809887 0
-2.15555 -4.0967875 1.3182757 0
-2.3126969 -4.0874209 1.0553255 0
2.2188883 -4.1678481 0.94089031 0
2.4082613 -4.1645298 -0.21236539 0
-1.8728313 -4.0938072 1.7096376 0
2.2661035 -4.1681647 0.82601857 0
-2.4304018 -4.0802317 0.7983588 0
2.3129313 -4.1649995 0.71135485 0
2.3616004 -4.170661 0.48294294 0
-2.5559664 -4.0830979 -0.039726377 0
2.4093523 -4.1698041 0.13804185 0
1.9810961 -4.1562018 1.4193182 0
-2.1207561 -4.0827785 1.4306669 0
2.3512235 -4.1736398 0.51576042 0
2.3097763 -4.1471896 0.82437694 0
-2.5470414 -4.0765939 0.3330344 0
-2.5551791 -4.0825243 0.14694965 0
1.9495263 -4.1560931 1.464968 0
1.8347863 -4.1571388 1.6049628 0
-4.2756615 1.9940751 -0.98465872 0
2.0770354 -4.1536922 1.2887678 0
-2.4444022 -4.0945392 0.70015728 0
-2.4351072 -4.0875597 -0.78066349 0
2.4079132 -4.1628461 0.36843264 0
-1.4925859 -4.110611 2.0352089 0
2.4087327 -4.1668081 -0.33267617 0
-2.5584731 -4.0849247 -0.22787595 0
2.2759993 -4.1642203 0.87555528 0
-2.5441236 -3.981478 -0.98129189 0
-1.8854284 -4.0955076 1.7214673 0
-4.2830901 -1.9953637 -0.98639941 0
2.2912169 -4.1750541 0.78768492 0
1.7930796 -4.1560769 1.6802776 0
-2.6130462 -3.937618 -0.98973131 0
2.4075172 -4.1609316 -0.4528752 0
-1.7906718 -4.0865359 1.8461723 0
2.3614383 -4.1698151 0.59752357 0
2.2023354 -4.1666942 1.0564721 0
2.3647316 -4.1869726 -0.45747668 0
2.2821743 -4.1612816 0.90395212 0
-2.2974472 -4.1018543 1.1135027 0
-1.5790761 -4.0855956 2.0422122 0
-2.4297905 -4.0835671 0.88227582 0
2.3502445 -4.1653895 0.6956656 0
2.4116757 -4.1810379 0.25278473 0
2.4250278 -4.1684499 0.33556843 0
-2.0143962 -4.0841651 1.6228616 0
1.6885505 -4.1601529 1.795038 0
2.4538977 -4.1533241 -0.33181727 0
2.4084837 -4.1656055 0.48301649 0
2.2660503 -4.1678371 0.94203341 0
-2.4319553 -4.0834322 0.9039396 0
-2.2545605 -4.1055765 1.2170882 0
2.1286085 -4.1667643 1.2384079 0
2.1713419 -4.1634827 1.1741395 0
2.1210394 -4.1720014 1.2466891 0
-2.2920914 -4.089962 1.2176569 0
2.4580483 -4.1720376 0.136958 0
-2.1563711 -4.0987606 1.4229574 0
2.4077015 -4.1618228 0.59758687 0
-2.5564537 -4.0834532 0.51856875 0
2.4578125 -4.1709747 -0.21560872 0
2.4587615 -4.1752529 -0.097543478 0
-4.264626 2.0809646 -0.98572147 0
-2.1945214 -4.0871091 1.4043541 0
-2.4270134 -4.0814819 -0.97171211 0
2.4591136 -4.1768403 0.019865632 0
1.9080099 -4.1596417 1.6059637 0
2.2206342 -4.1796641 1.0602989 0
-2.5651827 3.9963677 -0.98820257 0
2.4251442 -4.1693239 0.51584685 0
2.3627067 -4.1764235 0.71312809 0
2.1248405 -4.1653485 1.2932899 0
-2.570344 -4.0935755 -0.41969866 0
2.281605 -4.1604142 1.0198123 0
2.4591439 -4.1769762 0.25247157 0
2.0547335 -4.1618285 1.4211783 0
2.4067647 -4.1572933 0.71224034 0
-4.2743516 -2.0827954 -0.98800611 0
2.4582999 -4.173171 0.36807215 0
2.34972 -4.1609678 0.87598646 0
1.7616842 -4.158071 1.7944102 0
1.9524398 -4.1611395 1.5793409 0
2.4618106 -4.1690879 0.42914951 0
2.5046763 -4.1639595 0.13673496 0
-2.0218902 -4.1020889 1.6504641 0
2.266561 -4.1709805 1.059999 0
2.115778 -4.1634641 1.360579 0
2.4576035 -4.1700315 0.48327172 0
2.3144031 -4.1733074 0.94416952 0
2.5034537 -4.1587973 -0.33560622 0
-2.5108533 4.0502224 -0.98479152 0
2.2016559 -4.1591196 1.2381523 0
2.5062342 -4.170536 -0.09849602 0
-2.4358559 -4.0914693 1.0098114 0
-2.3224683 -4.0949788 1.2398345 0
-2.512877 -4.0516973 -0.98546243 0
2.4590709 -4.1766481 -0.45988768 0
2.1710515 -4.1613021 1.2937608 0
2.5035949 -4.1593938 0.36812973 0
2.2628696 -4.1482539 1.1737502 0
-2.0990114 -4.1019607 1.5730686 0
1.7932699 -4.1564293 1.7936995 0
2.4558041 -4.1619191 0.59812009 0
-2.426652 -4.0725064 1.1148155 0
-2.1537085 -4.0923643 1.5270357 0
2.4247065 -4.1660366 0.69618666 0
2.2195251 -4.1721578 1.17767 0
2.4995005 -4.166882 0.33541477 0
-2.5816889 -4.088985 0.58143806 0
2.3632894 -4.1794596 0.82946587 0
2.5079792 -4.1779032 0.018397331 0
2.2782881 -4.1553626 1.1355164 0
-2.5602632 -4.0862293 0.70477998 0
2.2772815 -4.1765308 1.058562 0
-4.2520008 2.1676838 -0.98670542 0
-1.9857581 -4.0994143 1.7335927 0
-2.5730419 -4.0955415 -0.61248052 0
-2.2939548 -4.0941 1.3231847 0
2.4551198 -4.1595082 0.66761124 0
-4.2555895 -2.1684127 -0.98755074 0
2.3123965 -4.1619811 1.0597656 0
-2.437129 -4.0890775 1.0676007 0
2.498491 -4.1600509 0.51586461 0
-2.0181875 -4.0940623 1.7298236 0
-2.2419033 -4.0895715 1.4433098 0
1.9813983 -4.1626935 1.6073346 0
2.4677241 -4.1775546 0.54758 0
1.834741 -4.1546063 1.7936919 0
2.5093403 -4.1836495 -0.220249 0
1.9452841 -4.1487451 1.691426 0
-4.2231441 -2.2510071 -0.98414981 0
-2.5824814 -4.0905037 0.68905377 0
2.5060217 -4.1696391 -0.46086913 0
2.3487673 -4.1529355 1.0566542 0
2.5540872 -4.166585 0.018403053 0
-2.2864046 -4.0773354 1.4267035 0
2.5058866 -4.1690679 0.48344362 0
2.3622692 -4.1741447 0.94567585 0
2.510325 -4.1878061 0.25131881 0
2.5545115 -4.1682687 -0.099962771 0
-1.9079165 -4.0983825 1.8641062 0
-4.2276697 2.2519939 -0.98521924 0
-2.6887026 -4.0837016 0.14122891 0
-2.6908512 -4.0852208 -0.049421549 0
2.4105649 -4.1756668 0.83014417 0
2.1287992 -4.1692967 1.4236047 0
-2.1228471 -4.0855017 1.6597319 0
2.218617 -4.1660137 1.2967839 0
-2.5668864 -4.0910559 -0.80560291 0
-2.5797243 -4.0852151 0.79669452 0
2.4585545 -4.1743193 0.71464634 0
2.1153259 -4.1627302 1.475569 0
2.4576197 -4.1630874 0.7857455 0
2.4072704 -4.1597385 0.94483173 0
2.554049 -4.1664333 -0.34009242 0
2.5566645 -4.1768103 0.13456285 0
-2.558115 -4.0846639 0.89135885 0
-1.6989448 -4.1082659 2.0651391 0
-2.6903992 -4.0849013 0.330917 0
2.455853 -4.1621399 0.82968545 0
2.5572085 -4.1789699 -0.22157472 0
2.5067649 -4.1727762 0.59927166 0
-2.1959233 -4.0882258 1.5884748 0
-2.4760957 4.1183367 -0.98815846 0
2.2761784 -4.1659389 1.2403657 0
-2.1550493 -4.0955853 1.6331868 0
-2.5766687 -4.0793543 0.90394139 0
2.5563388 -4.1755185 0.36763775 0
2.5582871 -4.1832485 0.25095391 0
-2.6898985 -4.0845475 -0.43424791 0
2.5538671 -4.1657109 0.4835856 0
2.6025152 -4.1639128 0.0172261 0
2.2649906 -4.1613116 1.2974432 0
-4.2073126 2.3370593 -0.98495567 0
2.4266582 -4.1806917 0.87853944 0
2.0548143 -4.1631565 1.6083508 0
2.3624077 -4.1748667 1.063993 0
2.2850831 -4.1657114 1.2524796 0
-2.4349823 -4.0896692 1.2218747 0
-2.7052512 -4.0954027 -0.24326712 0
2.6034324 -4.1673436 -0.10176837 0
2.5055449 -4.1676259 0.71499455 0
2.552211 -4.1591406 0.59914303 0
-2.6882362 -4.0833721 0.52043664 0
2.5559533 -4.1739888 -0.46517825 0
2.5757132 -4.1743603 0.33508193 0
-2.6775765 -4.0758352 -0.62675393 0
-2.285903 -4.0762219 1.5323424 0
-2.0885096 -4.0933461 1.7537141 0
-2.324254 -4.0963602 1.4253008 0
2.3155267 -4.1796503 1.1829314 0
2.202487 -4.1683865 1.4246058 0
2.4232917 -4.1554127 1.058099 0
1.908326 -4.1694527 1.7981625 0
-4.2200389 -2.3400257 -0.98797262 0
-2.6753845 -4.0742855 0.70931625 0
2.6062508 -4.177887 0.13338137 0
2.4563792 -4.1645112 0.94720078 0
2.4085011 -4.1656895 1.0639954 0
2.5025916 -4.1878014 0.69788408 0
2.5043879 -4.1627417 0.8310895 0
2.604239 -4.170361 -0.34388232 0
-2.442503 -4.0931129 1.2547765 0
2.1131787 -4.159246 1.5906925 0
2.6063781 -4.1783638 -0.22386283 0
-2.0140076 -4.0915127 1.8773239 0
-2.5781946 -4.0822816 1.0111115 0
2.607275 -4.1817188 0.25038624 0
-2.4318433 4.1795816 -0.98867512 0
2.6034904 -4.1675611 -0.46671242 0
2.6058826 -4.1765099 0.36740363 0
2.4688447 -4.1791592 0.90395558 0
2.3617651 -4.1715188 1.1830225 0
2.5537562 -4.1652713 0.71579599 0
-2.4342575 -4.0881758 1.3282361 0
-4.1936278 2.4237659 -0.98656762 0
-2.1548247 -4.0950456 1.7395492 0
2.5005226 -4.173799 0.87884116 0
2.3139882 -4.1709657 1.302191 0
-2.3629398 -4.0925803 1.4556801 0
2.6054683 -4.1749601 0.48396826 0
2.6539357 -4.1707816 0.13287449 0
1.9812788 -4.1601267 1.7964349 0
2.1284015 -4.1640158 1.6097026 0
2.6542394 -4.1718554 -0.10459113 0
-4.1971178 -2.4246323 -0.98739779 0
2.6494334 -4.1645517 0.33503532 0
2.5745485 -4.1671886 0.69739449 0
2.6553221 -4.1756854 0.014113069 0
2.578557 -4.1918688 0.51662767 0
2.6537611 -4.1701641 0.25032425 0
-2.5675526 -4.0915413 1.0806553 0
-2.7323647 -4.0874987 0.57652605 0
-2.5756197 -4.077343 1.1181383 0
-1.8082108 -4.1115313 2.0825043 0
2.6036129 -4.1680193 0.60027039 0
2.5048366 -4.1646357 0.94893551 0
2.6548591 -4.174047 -0.22555256 0
2.4079285 -4.16292 1.1831594 0
-2.8088131 -4.0718737 -0.25205135 0
-2.6838927 -4.0803013 -0.82609999 0
2.3519933 -4.1801305 1.2439291 0
2.6535125 -4.1692843 0.3673048 0
2.291364 -4.1752777 1.3703141 0
2.6445515 -4.1705589 0.4190706 0
-2.379725 4.2346497 -0.98680151 0
-2.8172121 -4.0776334 0.13588357 0
1.9620109 -4.1777172 1.8127031 0
2.4681318 -4.1781387 1.0225925 0
-2.7302227 -4.083663 0.68606699 0
2.6996379 -4.1564131 -0.22468865 0
-2.2459311 -4.0946646 1.6758432 0
2.4588797 -4.1757851 1.0679665 0
2.6558785 -4.1776533 -0.34866685 0
2.6494884 -4.1648631 0.51637018 0
-2.4284306 -4.0825462 1.4397793 0
2.2769818 -4.1736546 1.427022 0
-2.2906952 -4.0868621 1.6407373 0
2.5508461 -4.1537247 0.94898701 0
-2.8179059 -4.0781093 0.32915831 0
-2.6855574 -4.0814781 0.90025425 0
2.6542764 -4.1719866 0.48414409 0
2.6457381 -4.1721582 0.54061389 0
-2.829073 -4.0857673 -0.059372842 0
-4.1758976 -2.5096319 -0.98751557 0
-2.4356346 -4.0910125 1.4355464 0
2.6055341 -4.1752057 0.71777582 0
2.4617524 -4.1690044 1.1408391 0
-4.1802001 2.5107656 -0.9885428 0
2.4999151 -4.1696877 1.0611434 0
2.7019906 -4.1643019 -0.34867609 0
2.3633873 -4.1799703 1.3069661 0
2.5589185 -4.1857533 0.83542407 0
2.7038684 -4.1705985 0.24956989 0
2.0546827 -4.1609964 1.7977228 0
-2.7304859 -4.0841341 0.79505169 0
2.6573217 -4.1827583 -0.47446364 0
2.1192055 -4.1690259 1.7089424 0
2.2021942 -4.1651216 1.6113577 0
2.4072683 -4.1597281 1.3039458 0
2.7064776 -4.1793475 -0.10803849 0
-2.3261008 -4.0977888 1.6134789 0
-2.1249509 -4.0882416 1.8921745 0
2.425246 -4.1700878 1.2438002 0
2.6547594 -4.1736951 0.60126805 0
-1.9083021 -4.0989156 2.0953126 0
-2.8171711 -4.0776052 0.5222261 0
2.7079515 -4.1842899 0.011296034 0
-2.5797977 -4.0853562 1.2261603 0
2.6509304 -4.1601505 0.71755886 0
-2.2101822 -4.0995851 1.7801194 0
-2.5604353 -4.0863543 1.2691567 0
2.7046394 -4.1731834 0.36699057 0
2.4583366 -4.1733365 1.1879497 0
2.5765667 -4.179615 0.88036358 0
-2.8275518 -4.0847244 -0.45215583 0
-4.1463842 -2.5923526 -0.98593712 0
2.291014 -4.1747446 1.4877832 0
-2.336061 4.2964149 -0.98810744 0
2.6488197 -4.176311 0.66170681 0
2.709312 -4.1888518 0.13000488 0
-4.1485147 2.5929468 -0.98644781 0
2.508508 -4.1801357 1.0709469 0
-2.429884 -4.0791645 1.5412951 0
-2.4752789 -4.081707 1.4656863 0
2.3506236 -4.1685848 1.4276271 0
-2.3473306 -4.0734124 1.6849575 0
2.6067936 -4.1799178 0.83620799 0
2.7270067 -4.1743302 0.33462167 0
2.7051086 -4.174757 0.48443806 0
2.5529828 -4.1622024 1.0696135 0
-4.1097131 -2.6727812 -0.98291373 0
2.705894 -4.1773901 -0.47671241 0
-2.7334843 -4.0895038 0.90394378 0
2.4610386 -4.1679826 1.2595155 0
2.6528869 -4.1840458 0.69895267 0
-2.68329 -4.079875 1.0913646 0
2.725266 -4.1652613 0.51661706 0
2.7561221 -4.1764622 0.129843 0
-2.8233681 -4.0818553 -0.65067899 0
2.7547364 -4.1720481 0.24871707 0
2.7569818 -4.1792016 0.010131717 0
2.4562054 -4.1637282 1.3077416 0
-2.8733711 -4.0617261 0.57315731 0
-2.57796 -4.0818319 1.3337407 0
2.1283231 -4.1629748 1.799592 0
-2.8199596 -4.0795178 0.71569085 0
-2.2952452 -4.0969648 1.7503996 0
2.7569227 -4.1790133 -0.23214811 0
2.6533911 -4.1688552 0.83641529 0
-4.1218362 2.6763496 -0.98583138 0
2.5747991 -4.1687322 1.0624366 0
2.6494544 -4.1646695 0.88014185 0
2.605978 -4.1768665 0.95472944 0
2.6537328 -4.1829324 0.7827065 0
-2.2875633 4.3543 -0.98804224 0
2.7564094 -4.1773782 -0.35523957 0
2.5085406 -4.1802735 1.1921015 0
2.4236894 -4.1583991 1.4274368 0
2.7540483 -4.1698565 0.48460627 0
2.2884252 -4.1708021 1.6052904 0
2.7573965 -4.1805229 0.36659861 0
2.7612071 -4.1926637 -0.11259198 0
2.803277 -4.1649189 -0.11044967 0
2.1197374 -4.1698885 1.8266642 0
2.70859 -4.1864309 0.60269582 0
2.7046034 -4.1730633 0.71995354 0
2.2775466 -4.1790781 1.6162429 0
-2.735846 -4.0937333 1.0130918 0
2.6494966 -4.1772232 0.90395856 0
-2.4340892 -4.0867953 1.6317697 0
2.7571065 -4.1795993 -0.48129433 0
2.5017142 -4.1818633 1.2473319 0
-2.9539042 -4.0734811 -0.067822278 0
-2.0183711 -4.0973678 2.1124334 0
2.8073206 -4.1771846 0.0084742308 0
2.8072426 -4.1769476 0.12843263 0
-2.3168206 -4.0906105 1.8011107 0
5.0332208 -0.15831691 0.010229826 0
-2.5580573 -4.0846219 1.4602764 0
-2.4341512 -4.0879569 1.6508946 0
-2.2327194 4.4066796 -0.9860152 0
2.8029509 -4.1728091 0.33438849 0
2.5058799 -4.1690402 1.3121042 0
5.0244088 -0.35666376 -0.10238886 0
2.8072391 -4.1769366 -0.23475957 0
5.0368757 -0.045043826 -0.1192221 0
2.7558188 -4.1754966 0.60287225 0
5.0377464 -0.0059292316 0.1258812 0
-2.8826094 -4.0772095 0.68277967 0
2.8055375 -4.1717753 0.36648655 0
2.72821 -4.1805987 0.69949138 0
2.5567513 -4.177155 1.1940451 0
5.0396028 -0.05624336 -0.11521751 0
5.0388842 -0.078744322 0.13235211 0
2.8081808 -4.1797938 0.24747276 0
2.8062673 -4.1739893 -0.35802054 0
5.0426388 -0.078798182 0.0009945631 0
5.04073 -0.10640788 0.12792993 0
-2.9629102 -4.0794697 0.1295017 0
2.8008337 -4.1625729 0.51682889 0
5.042326 0.0046166778 -0.11782938 0
5.042593 -0.10593128 0.0075632334 0
5.038033 -0.056668937 -0.23783511 0
-2.8303585 -4.0866494 -0.85468733 0
5.0388527 -0.0056121945 -0.24065429 0
5.0440073 -0.098977864 0.00046229362 0
5.0436053 -0.04707706 0.12407994 0
5.0416231 -0.15043491 -0.12499511 0
2.607656 -4.1831436 1.0762243 0
5.0453281 -0.047597587 0.0021752119 0
5.0396237 0.045874059 0.24524045 0
5.0363398 -0.20725811 -0.2304619 0
5.0436754 0.078813061 0.13167882 0
-2.8235493 -4.0819793 0.91018677 0
5.0438099 0.15576863 0.0088925362 0
5.043807 0.098914206 0.12272036 0
5.0372944 -0.30855018 -0.007255435 0
5.037694 -0.30544013 0.013542414 0
5.0432653 -0.15098304 0.12135458 0
2.7058699 -4.1773095 0.83920956 0
5.0433569 -0.20567536 0.01033783 0
5.0304093 -0.40404034 -0.10204279 0
5.0452175 -0.099362552 0.1225909 0
-2.7347021 -4.0916848 1.1222489 0
-4.1070371 -2.7633734 -0.98837149 0
5.0479774 0.0029972792 0.0036172867 0
5.0402708 -0.15662038 -0.23344052 0
-2.962122 -4.0789452 -0.26813757 0
5.0480866 -0.053942919 0.0052845478 0
-2.5826921 -4.0909085 1.4432659 0
5.0463881 -0.10496026 -0.11429083 0
5.0486975 0.048615456 0.0017430782 0
5.0449581 -0.20431691 -0.0037423372 0
-4.1084204 2.7638023 -0.98870587 0
5.0470428 0.15224332 -0.0019176006 0
5.0470872 -0.1522581 -0.0019233227 0
-2.9601822 -4.0776553 0.32710457 0
5.0488958 0.078887954 -3.3915043e-05 0
2.8051429 -4.170579 0.48489141 0
5.0371084 -0.35436714 0.014724374 0
2.6580191 -4.185225 0.95819151 0
5.044569 0.2041809 -0.12818861 0
5.0431366 0.078805327 0.26174295 0
5.0467587 0.20490795 0.0099095106 0
5.0509977 -0.0021317005 0.0032315254 0
5.0434551 -0.25513178 -0.10843778 0
5.0471025 -0.15497631 0.12841249 0
5.0427761 -0.15081972 -0.25038731 0
5.0415478 -0.2060833 0.24850929 0
-2.2497177 -4.0994525 1.9119215 0
5.0494909 -0.1007207 -0.12374145 0
5.0460529 -0.0035486817 0.2456485 0
5.0494585 0.10417479 0.12714171 0
5.0448923 -0.23662141 0.13087153 0
5.0302134 -0.47037524 -0.013940215 0
5.0524254 0.052766502 0.0047326088 0
5.0385938 -0.35409862 0.13273215 0
5.0404139 0.35376948 0.014312029 0
2.6502025 -4.1781745 1.0250731 0
5.0468507 -0.054278076 0.24632239 0
5.0521779 0.1015746 -0.0005903244 0
5.0371275 -0.40292442 0.01574111 0
5.0498734 0.15430957 -0.11294347 0
2.3509393 -4.1712456 1.6163216 0
5.0510488 0.10121578 -0.12400031 0
5.0502996 -0.15420687 -0.11301297 0
5.0473695 0.10470927 -0.23721087 0
5.0524006 -0.052773178 0.12574697 0
5.04352 0.31092876 0.11661983 0
-2.6879883 -4.0831966 1.2852774 0
5.0339851 -0.25360352 -0.38321465 0
5.0493479 0.20585173 0.11929917 0
5.0455036 -0.20450765 0.24237204 0
5.0499191 -0.23683789 -0.00094687939 0
5.0539117 0.052363455 -0.11756569 0
5.0260329 -0.54866576 0.019642711 0
-2.7262473 -4.0765424 1.2304845 0
2.4746161 -4.1874228 1.3808522 0
5.0377464 -0.35425186 0.25025046 0
2.8564558 -4.1704707 0.12759221 0
5.0510149 0.0021268129 -0.24311358 0
5.0430856 -0.046920002 -0.37010032 0
5.0446262 0.23660997 0.26103973 0
5.0464234 -0.20482939 -0.25445223 0
5.0553675 0.050630748 -0.12228173 0
5.0563278 0.10241735 0.0058225393 0
5.0432038 -0.098722517 0.36526287 0
5.0438337 0.05509609 0.36601055 0
5.0535154 0.15440279 -0.12698072 0
2.7567163 -4.1783557 0.72173059 0
5.0554161 0.10265064 -0.1157667 0
5.0435677 -0.10568184 0.36624002 0
5.0511365 0.10124367 0.24380493 0
5.0496726 -0.25934154 -0.1318922 0
2.2872658 -4.1690359 1.7237773 0
5.054143 0.15328199 0.12777901 0
5.0515985 -0.26004595 -0.006814599 0
2.203527 -4.1799808 1.8057899 0
5.0505743 -0.25967151 0.11761224 0
5.0506039 -0.25362647 0.13001287 0
5.0320621 -0.50006914 0.13529944 0
-2.4279571 -4.0751948 1.7572792 0
5.0529251 0.0015794039 0.24527383 0
5.0508089 0.15349978 0.24297309 0
5.0435586 0.15108079 0.3649739 0
5.053318 -0.20342845 0.12884521 0
5.0420074 -0.3945955 0.13000298 0
5.0457659 -0.04772979 0.36548364 0
5.0447416 -0.3658455 0.11477327 0
5.0460553 0.0035480261 0.36573148 0
5.0509109 -0.15405983 0.24741244 0
5.0451941 -0.30397272 -0.22827238 0
2.6514268 -4.1758041 1.0648675 0
5.0518785 -0.15385669 0.24291396 0
5.0535822 0.26077157 -0.0070739985 0
5.0429916 -0.42019349 -0.012981176 0
5.0552816 -0.20298564 -0.11202753 0
5.0471029 -0.05420965 0.36595142 0
5.0525937 0.26041001 0.11742413 0
5.0342045 -0.45169744 0.25127053 0
5.035625 -0.45148233 -0.22153777 0
5.0548043 -0.20775956 -0.129906 0
5.0363331 -0.1075328 0.48502946 0
5.0539141 -0.1021263 0.24365222 0
5.0570002 0.15556556 0.12008786 0
5.053607 -0.078955539 0.26051903 0
5.054708 -0.25276226 0.010207653 0
5.0554085 -0.20797068 0.11873746 0
5.0549417 0.050502121 -0.24673444 0
5.0542002 -0.1029616 0.24659991 0
5.04986 -0.31335121 -0.13491601 0
5.0497398 0.25380832 -0.23107922 0
2.5757813 -4.1747804 1.2480211 0
5.0510497 -0.302827 0.13083148 0
5.0467196 -0.36663383 -0.13752115 0
5.0513563 0.206554 -0.25546795 0
5.0554047 -0.10265356 -0.238823 0
2.858918 -4.1775947 0.0063998699 0
5.0550146 -0.10247618 -0.24973905 0
5.0560946 0.051771581 0.2458204 0
-2.8859577 -4.0828223 0.79327059 0
5.0610561 0.0007507205 -0.12091529 0
5.0540423 0.2609399 -0.13262916 0
5.0554733 0.10263592 0.24653113 0
5.0607939 0.052270114 0.122509 0
5.0542212 0.15326327 0.24723399 0
2.8093667 -4.1833911 -0.48655063 0
2.7268143 -4.1733279 0.88211513 0
-2.1809211 4.4615145 -0.98532534 0
5.0427523 -0.45040315 0.015973091 0
5.0565653 0.25237125 0.0099747181 0
2.8587589 -4.1771345 -0.11509389 0
5.0315785 -0.54798776 0.13587999 0
5.0418439 -0.30462819 -0.35024393 0
5.0483403 -0.10035497 -0.37491149 0
5.0500727 -0.05340445 -0.36526978 0
5.05023 -0.36803311 -0.011390626 0
5.062079 0.050148964 0.12486959 0
5.035017 -0.52871209 0.10999691 0
5.050024 0.049016356 -0.37177372 0
5.0499945 -0.10403776 -0.36227387 0
5.0579267 -0.05140394 0.24423838 0
5.0471354 0.40126216 -0.10472822 0
5.0569401 0.23714022 0.12917686 0
5.0467405 -0.20491213 0.36659145 0
5.0530806 -0.31458169 0.11572433 0
5.0598483 0.20952302 -0.0056791902 0
5.0586443 0.23721361 -0.0023821592 0
2.7045636 -4.1729298 0.9583776 0
5.0345507 -0.52850276 -0.14574981 0
5.0519114 -0.26016039 0.24107349 0
5.0470972 -0.35256088 -0.22688872 0
5.0503154 0.10395557 0.36611843 0
5.0420928 -0.3103835 0.36406136 0
