# .PCD v0.7 - Point Cloud Data file format
VERSION 0.7
FIELDS x y z intensity
SIZE 4 4 4 4
TYPE F F F F
COUNT 1 1 1 1
WIDTH 1388
HEIGHT 1
VIEWPOINT 0 0 0 1 0 0 0
POINTS 1388
DATA ascii
0.40839314 -3.0041165 0.79082477 0
-0.90438914 -2.9980845 -0.1044836 0
-0.84836602 -3.0147069 -0.099129617 0
0.88019836 -3.0078809 -0.0080764294 0
-0.18948865 -3.0041974 0.87243843 0
0.66073966 -3.0142262 0.547858 0
0.71490729 -3.0109909 0.49713194 0
0.88427854 -2.9981537 0.23138428 0
0.84435642 -3.0101602 0.22904444 0
0.8821646 -3.0031934 -0.17088962 0
0.2760551 -3.0099521 0.83182001 0
-0.84861612 -3.0149062 0.13576579 0
-0.55697846 -3.0125296 0.66582441 0
0.29775262 -3.0102451 0.82432842 0
0.91916406 -2.9966218 -0.083677709 0
-0.51449919 -2.9972129 0.76424348 0
-0.039579391 -3.0158088 0.85790551 0
0.7013365 -3.0078995 0.54658854 0
-0.84316897 -3.0105667 0.25238752 0
0.91996765 -2.9946265 0.15505743 0
0.83712578 -3.0020463 0.35492623 0
0.55702686 -3.0108716 0.68186045 0
0.87910783 -3.0104806 0.071805 0
-0.6015203 -3.0153923 0.62199712 0
-0.5566721 -3.0081236 0.69572937 0
0.81086063 -3.0061285 0.38629138 0
-0.081956863 -3.0033767 0.90389645 0
0.62537992 -3.0094383 0.63071561 0
0.50661159 -3.0118964 0.72092068 0
0.84605372 -3.0062711 0.30812109 0
-0.83747435 -3.0060301 -0.33609998 0
0.87841415 -3.0121346 -0.090567172 0
0.65650976 -3.002459 0.64052844 0
-0.76950979 -3.0113604 -0.44519222 0
0.46082187 -3.0204694 0.72474611 0
-0.34206533 -3.0082488 0.83382189 0
-0.33556938 -3.013813 0.81729221 0
-0.29836154 -2.9990885 0.88385355 0
0.33945465 -3.0129917 0.8209312 0
0.18377662 -3.0028429 0.90389764 0
0.77392876 -3.0087104 0.46541989 0
0.0066429377 -3.0086825 0.90389693 0
-0.26814628 -3.0224648 0.81526268 0
0.095206499 -3.0078244 0.90389729 0
-0.91511631 -3.0063822 0.013019919 0
0.54737759 -3.010215 0.7181989 0
-0.61640453 -3.0015202 0.69926655 0
0.18845582 -3.025013 0.83192766 0
0.38365841 -3.0108449 0.81675112 0
0.27317452 -2.9980104 0.90389812 0
0.46325827 -3.0154631 0.75712919 0
0.88309777 -3.0009687 0.30914032 0
0.91895759 -2.9971344 0.23262036 0
-0.24941564 -3.0080545 0.87943411 0
0.70578825 -2.9991081 0.62664723 0
-0.096782684 -3.021395 0.86453998 0
-0.68753362 -3.0044291 0.62250054 0
-0.84049129 -3.0084336 0.36803579 0
-0.2559371 -3.002007 0.90389585 0
-0.60119867 -3.0089908 0.69318783 0
0.87579203 -3.0183859 0.15029693 0
-0.43411303 -3.0136781 0.79405987 0
0.023426771 -3.0014482 0.94607043 0
-0.631917 -3.00998 0.66770542 0
-0.42831182 -3.0231633 0.76306403 0
0.0042104721 -2.9926558 0.97436035 0
-0.91709757 -3.0079145 0.13143063 0
0.95188785 -2.9995391 0.077719331 0
0.91237998 -3.0134671 -0.0067023039 0
0.91967666 -2.9953489 0.31014156 0
0.95106626 -3.0016665 -0.0018092394 0
-0.77286935 -3.0141163 0.48250854 0
-0.42843103 -3.0065408 0.83390486 0
-0.91221786 -3.0041401 0.24974895 0
-0.49014735 -3.006911 0.79852033 0
-0.69980979 -3.0133827 0.59329665 0
0.30522025 -2.9996028 0.91239715 0
-0.083013535 -2.9947548 0.97413266 0
0.95212841 -2.9989159 0.15601647 0
-0.51443052 -2.9940219 0.83418155 0
0.80962682 -3.0088489 0.46516061 0
0.15242851 -3.0004668 0.94861412 0
0.218943 -2.9974239 0.94526982 0
-0.91493726 -3.0062437 -0.22757006 0
0.11699247 -3.0066555 0.93536985 0
0.51178372 -3.0032737 0.80492377 0
0.42317331 -3.0146425 0.81384611 0
0.65267897 -3.0071859 0.67989171 0
0.77531815 -3.0057602 0.54478574 0
0.91125154 -3.016269 0.072892666 0
0.16387343 -3.0072167 0.92985463 0
0.58465862 -3.0134578 0.71627474 0
0.34878683 -2.9992788 0.90753067 0
0.25691044 -3.0052497 0.91873991 0
0.91215384 -3.0140285 -0.17051971 0
0.65808296 -3.0192914 0.63012898 0
0.88212883 -3.0032787 0.38683462 0
0.83761144 -2.9999287 0.49643576 0
0.77372444 -3.0170326 0.49698329 0
0.95055664 -3.002986 -0.16399145 0
0.73250389 -3.0193114 0.54639661 0
-0.36311102 -3.0044076 0.89173675 0
0.98641098 -2.9968426 0.0014971495 0
0.84169126 -3.0162675 0.38634849 0
-0.16772747 -3.0184391 0.90389657 0
-0.42853022 -2.9927182 0.9038955 0
0.46629524 -3.0191693 0.79048944 0
0.81343436 -3.0004539 0.54369521 0
-0.83939314 -3.0075588 -0.45911413 0
-0.68366003 -2.9997437 0.70363367 0
-0.41170979 -3.0197995 0.82089067 0
0.53147578 -3.0101056 0.78802502 0
0.36601532 -3.0022876 0.90389884 0
-0.76196527 -3.0051715 0.59552503 0
0.46356857 -3.0160353 0.81062472 0
-0.48039079 -3.0100715 0.82305026 0
-0.13406968 -3.0034094 0.96653008 0
0.94721591 -3.0116365 -0.084526002 0
-0.25648308 -2.9935639 0.97372842 0
-0.70655417 -3.0049679 0.66951716 0
-0.084899902 -3.008019 0.96079683 0
-0.55262327 -3.0045006 0.80400133 0
0.081954837 -3.010901 0.953089 0
-0.41956806 -2.9998934 0.89768744 0
0.2815454 -3.0027473 0.94316339 0
-0.77409101 -3.0007198 0.62209296 0
-0.12056112 -3.0081952 0.96289611 0
0.27233589 -2.994534 0.97560716 0
-0.053467751 -3.0118606 0.9598484 0
0.060231686 -3.0169287 0.94383299 0
0.095044374 -3.0069294 0.97503626 0
0.55996954 -3.01967 0.75557566 0
-0.34193516 -3.0118721 0.90389609 0
-0.99210787 -3.0040398 0.0056753159 0
-0.039415598 -3.015619 0.95608366 0
-0.84344816 -3.0107892 0.48343003 0
0.62011623 -3.0191343 0.71478045 0
0.66241169 -3.0110381 0.71145833 0
0.20160055 -3.018714 0.92721248 0
0.98399889 -3.0033648 -0.16091806 0
-0.99068594 -3.0029719 0.12657213 0
0.46413016 -3.0183418 0.83048439 0
-0.60136247 -3.0122492 0.76339889 0
-0.91809773 -3.0086882 -0.35112029 0
0.18441701 -3.005877 0.9754132 0
0.98559105 -2.9990597 0.23456359 0
0.54570496 -3.0130961 0.80353308 0
-0.25816536 -3.002754 0.96971273 0
0.73433304 -3.0155671 0.62682438 0
0.47312582 -3.000607 0.89457846 0
0.8931905 -3.0173643 0.35487711 0
-0.98682785 -3.0000749 -0.23795772 0
0.98269737 -3.0068841 0.15642846 0
0.94937384 -3.0060489 0.31019104 0
0.91445303 -3.0083196 0.38696778 0
0.71268356 -3.0195549 0.64063382 0
0.010885835 -3.0200601 0.95755601 0
-0.91998744 -3.01015 0.36692584 0
0.94567621 -3.0156236 0.23197329 0
-0.19429612 -3.0093064 0.9753319 0
0.38225818 -3.0129671 0.90611911 0
0.95564282 -3.0011172 0.35537565 0
-0.16833735 -3.0119171 0.97431684 0
0.83946872 -3.0213604 0.46514845 0
-0.60069585 -2.9989831 0.83399439 0
0.55639935 -3.0089958 0.8300401 0
0.34332609 -3.0089583 0.94130015 0
-0.25710797 -2.9838963 1.0431852 0
0.97960222 -3.0152531 -0.082663357 0
0.97952747 -3.0154552 0.076909065 0
-0.55622768 -3.0112362 0.82642877 0
-0.85987425 -2.9889972 0.62220514 0
0.89649594 -3.0019403 0.49624741 0
0.87831461 -3.0123718 0.46473742 0
1.0184017 -3.000062 -0.15695012 0
-0.83230639 -3.0019131 0.5982846 0
0.77571881 -3.0088732 0.63928354 0
-0.24800467 -3.0065975 0.98215961 0
0.65434301 -3.0117242 0.75447142 0
0.58391094 -3.0147893 0.80076528 0
0.62642181 -3.0075192 0.79650259 0
0.77127385 -3.0143485 0.62533033 0
-0.62080383 -3.0053449 0.81034839 0
-0.19437695 -3.016643 0.9677515 0
1.016278 -3.006067 -0.07778877 0
0.46097279 -3.0079169 0.90389979 0
0.3523984 -2.9939718 0.99649501 0
-0.34226227 -3.0027597 0.97384214 0
0.69754684 -3.0153837 0.70995617 0
0.71968353 -2.9925966 0.78207016 0
-1.0018096 -3.0113244 -0.11802715 0
1.0188653 -2.9987512 0.23557925 0
-0.78456092 -3.0033629 0.67162371 0
-0.51457882 -3.0009122 0.90389574 0
0.65519786 -3.00723 0.78476393 0
-0.99534822 -3.0064726 0.24620974 0
1.0152799 -3.0088892 0.079813242 0
0.0052785873 -2.9996932 1.0452325 0
0.11988509 -3.0029976 1.0299654 0
0.21372211 -3.0024498 1.0166705 0
0.88187933 -3.0038733 0.54242468 0
1.0161808 -3.0063422 0.15788949 0
0.84219921 -3.0151036 0.5437839 0
-0.91455412 -3.0059474 -0.4746893 0
-0.68908882 -3.0240989 0.69173729 0
-0.91331267 -3.004987 0.48432684 0
-1.0604398 -2.9932556 0.12217128 0
0.66535747 -3.0054219 0.79330611 0
0.94809663 -3.009356 0.38716638 0
-0.76057673 -3.0040326 0.70904601 0
0.58945775 -3.0229797 0.78765464 0
-0.68784809 -3.0084062 0.7633177 0
0.73673451 -3.0106514 0.70729303 0
0.47183979 -3.0019374 0.93543518 0
0.75439668 -3.0141232 0.6768949 0
1.0133967 -3.0142145 0.00010597706 0
0.55120087 -3.003629 0.88727498 0
0.4193325 -3.0206487 0.9034456 0
0.80797994 -3.0124803 0.62383461 0
-0.33336449 -3.0096092 0.97469115 0
0.77621472 -3.0038562 0.70444405 0
1.0503489 -3.0027275 0.082550049 0
0.50640702 -3.0122375 0.89314151 0
-0.081772089 -3.004885 1.0449212 0
1.0500767 -3.0035334 -0.074686944 0
0.019465327 -3.0061731 1.0451746 0
0.4049722 -3.0142491 0.93944156 0
-0.078634977 -3.000967 1.0590641 0
0.39109457 -2.9995747 0.99259615 0
0.094769478 -3.0054128 1.0461807 0
-0.99135685 -3.0034757 0.36600566 0
0.16169667 -3.0100517 1.0253167 0
-0.49508786 -3.0114608 0.9076786 0
-0.63125205 -3.0088716 0.82958663 0
0.84599757 -3.0063996 0.6219964 0
0.97996199 -3.0142803 0.31035423 0
0.59083843 -3.0024531 0.88325584 0
1.0487489 -3.0074666 0.0035904646 0
0.98352337 -3.0046504 0.3874619 0
0.95634139 -2.997613 0.4959619 0
-0.77346587 -2.9949317 0.76357114 0
0.064991951 -3.0110831 1.0393534 0
0.9164561 -3.0033457 0.54171014 0
0.18405545 -3.0041637 1.0469246 0
-0.68704939 -2.9983037 0.83388054 0
-0.9945178 -3.0058491 -0.36475563 0
-0.31238961 -3.0131669 0.99184084 0
0.90996552 -3.0194621 0.46464181 0
-0.42843771 -3.0055981 0.97386503 0
-0.7755506 -3.0142331 0.69186127 0
-0.034187317 -3.0095615 1.0537968 0
0.83512819 -3.0107572 0.63866198 0
0.27356243 -2.9996185 1.0476382 0
0.65345299 -3.0092967 0.82928705 0
0.63004088 -3.0008526 0.8793 0
-0.13415241 -3.0035 1.0680797 0
1.0481044 -3.0093751 0.15881801 0
0.29573679 -3.013118 1.0075686 0
1.0145334 -3.0110004 0.31113219 0
-0.34244466 -2.997674 1.043627 0
0.94638133 -3.0137975 0.46431661 0
0.37008333 -3.0172546 0.97668624 0
-0.36924028 -3.0103853 0.99931657 0
1.0839536 -2.9995222 0.16134512 0
0.6983242 -3.0138485 0.79210031 0
1.0822915 -3.0046878 0.0061448812 0
0.88081205 -3.006418 0.62079966 0
0.42835641 -3.0065367 0.98925781 0
-0.55785179 -3.0091791 0.91479635 0
-0.16815138 -3.0139077 1.0449069 0
1.0483617 -3.0086133 0.23560667 0
-0.40831375 -3.0135441 0.97944999 0
0.80913019 -3.009944 0.70342696 0
1.0462255 -3.0149403 -0.15828276 0
0.24654555 -3.0195804 1.0153735 0
0.55806553 -3.0139773 0.90390074 0
1.016636 -3.005055 0.3876518 0
-0.86125588 -2.999074 0.69218445 0
1.012486 -3.0108263 0.35539627 0
-0.60109186 -3.0068626 0.90389597 0
0.46969044 -3.0061529 0.98409951 0
-0.19019532 -3.0049484 1.0771239 0
0.98238206 -3.0077367 0.46399546 0
0.73666739 -3.0107887 0.78896165 0
0.66016436 -2.9891691 0.92732263 0
-0.77293372 -2.9900041 0.83388686 0
-0.9146719 -3.0060382 0.60181355 0
-1.0838082 -3.0102851 -0.0038326979 0
1.0833051 -3.0015376 0.23715186 0
-0.51465344 -3.0043809 0.97385108 0
0.9166919 -3.0027604 0.61931014 0
-0.6999414 -3.013494 0.81837821 0
0.53006983 -3.0146997 0.93478918 0
-1.0766158 -3.0050437 0.24283016 0
-1.083601 -3.0101342 -0.12832987 0
1.0792553 -3.0141242 0.082269192 0
0.75666022 -3.0197883 0.75241685 0
1.0790854 -3.0146527 -0.075028062 0
0.84500289 -3.0086789 0.70149446 0
0.77605796 -3.0074856 0.78212786 0
0.89507532 -3.0085692 0.63786983 0
-0.83964205 -3.0077572 0.71463037 0
0.94704986 -3.0120664 0.54154694 0
1.0797385 -3.0126226 -0.1548813 0
1.0471948 -3.0120692 0.31163847 0
-0.86016631 -2.9911268 0.76325607 0
1.1149662 -3.0034821 0.085571289 0
0.016612649 -3.006937 1.1094933 0
0.50825262 -3.0091605 0.98005831 0
-1.0800688 -3.00756 -0.25339413 0
0.21625698 -3.004379 1.0970936 0
0.77319527 -3.0102682 0.78638506 0
1.0165071 -3.005419 0.46375477 0
0.59318042 -3.0101624 0.93204069 0
0.95708394 -2.9938891 0.63645816 0
0.46431327 -3.0189464 0.97733057 0
-0.48289156 -3.0145249 0.98398197 0
0.16787434 -3.0020058 1.1189063 0
0.70219481 -3.0062048 0.87370634 0
1.1133914 -3.0086277 -0.071328998 0
-0.18657041 -3.0006626 1.1220956 0
1.0822405 -3.0048466 0.31257308 0
1.1141642 -3.0061023 -0.15045184 0
0.21316075 -3.0032029 1.1118412 0
-0.71358705 -3.0163209 0.8338927 0
0.95055103 -3.0030005 0.61824274 0
1.1126735 -3.0109735 0.0067477226 0
-0.42844033 -3.0052335 1.0438931 0
-1.0005965 -3.0104136 -0.49375182 0
0.36869001 -3.0121281 1.0493045 0
1.1137195 -3.0075557 0.16149855 0
0.0069875717 -3.0109527 1.1168895 0
0.58984506 -3.0042219 0.96961379 0
-1.0736887 -3.0029109 -0.37904692 0
0.30278623 -3.0030715 1.0977373 0
1.047369 -3.0115535 0.38771987 0
0.65868783 -3.0181382 0.87964272 0
-0.76613355 -3.0085907 0.82423985 0
-0.025319815 -2.9992874 1.1510422 0
-0.080931187 -3.0117462 1.1161087 0
1.0128824 -3.0086784 0.49596548 0
0.85934639 -3.0221438 0.67355692 0
0.069778204 -3.0052054 1.1358845 0
0.25599968 -3.0065091 1.1057615 0
-0.55408025 -3.0075374 0.98757124 0
-0.25446081 -3.0132649 1.0887575 0
-0.49246645 -3.0090466 1.0165248 0
1.1476815 -3.0010366 0.087423325 0
0.34579182 -3.0036798 1.09132 0
-0.16850495 -3.0101266 1.1153378 0
0.80864596 -3.0110116 0.78413618 0
0.14605343 -3.0162964 1.1029296 0
-1.1560314 -3.0000324 -0.010302782 0
-0.687814 -3.0079732 0.90389621 0
-1.0065868 -3.0149117 0.48572671 0
-0.055038452 -3.0153241 1.1153204 0
-0.12230134 -3.0118906 1.1192966 0
-0.30651736 -3.0072737 1.0961926 0
0.6293366 -3.0021501 0.96478772 0
0.38930118 -3.0022926 1.0845211 0
0.6558032 -3.0157063 0.9039017 0
0.46002412 -3.0047846 1.0501511 0
-0.4418788 -3.0210381 1.0109305 0
-0.51454687 -2.9994233 1.0436511 0
-1.08096 -3.0082095 0.36469901 0
-0.60110211 -3.0070705 0.97398591 0
1.070528 -3.0133431 0.35552979 0
0.97900295 -3.0168734 0.54119051 0
0.55817246 -3.014297 0.97789145 0
0.9850055 -3.000643 0.61698389 0
0.95413709 -2.993715 0.69469881 0
0.84668529 -3.0048237 0.78079152 0
0.096688628 -3.0160005 1.1182685 0
0.36395073 -2.9946916 1.1209404 0
-0.78695869 -3.0071125 0.83663034 0
0.017522097 -3.0084908 1.1454823 0
-0.25914335 -3.0046854 1.1277854 0
0.83527672 -3.0101094 0.78115714 0
-0.95166945 -3.0133734 0.61866951 0
0.75623083 -3.0187135 0.82822776 0
-1.1509762 -2.9964583 -0.26333278 0
0.27657986 -3.0161736 1.0954628 0
-0.080668688 -3.0032561 1.1616127 0
-0.69053984 -3.0055537 0.9302814 0
1.111415 -3.0150857 0.2367574 0
0.87477207 -3.0208175 0.70142674 0
1.1444151 -3.0122821 0.0082672834 0
0.076087713 -3.0248883 1.1084013 0
0.18656111 -3.0160356 1.1194813 0
0.42859328 -3.0061662 1.0796561 0
0.34187686 -3.0130563 1.0914805 0
-0.34218216 -3.004992 1.1141949 0
-0.99441361 -3.0057709 0.60512888 0
-0.55369735 -3.0054617 1.0248692 0
-0.63947773 -3.021579 0.9257915 0
1.1807209 -2.9961736 0.16513562 0
0.53899491 -3.0246544 0.97953176 0
0.73379171 -3.016675 0.8727932 0
1.1445761 -3.0117283 -0.14956766 0
0.10775363 -3.0183384 1.1322603 0
1.1447213 -3.0112283 0.16215432 0
-0.83416867 -3.0033967 0.8303355 0
1.0132413 -3.0146539 0.54047072 0
-0.9175415 -3.0082581 0.72001839 0
1.0455155 -3.0170431 0.46378124 0
0.55530429 -2.9965606 1.0597816 0
0.27681231 -3.0130916 1.1206729 0
0.91152561 -3.0155885 0.69911706 0
1.0784051 -3.0167663 0.38780308 0
0.95698881 -3.0078967 0.67166162 0
0.88107014 -3.0058026 0.77879143 0
-1.0370197 -2.9932249 0.61909926 0
1.1427331 -3.0180738 -0.071482897 0
1.1114556 -3.0149534 0.31252623 0
-0.36911273 -3.0102611 1.1069512 0
0.55416548 -3.0023167 1.0513737 0
-0.25479221 -3.0197186 1.115531 0
1.2129918 -2.9927387 0.015465379 0
-1.1673541 -3.0080383 -0.1389128 0
0.47059298 -3.0058124 1.0838714 0
0.46743429 -3.009795 1.0749352 0
0.75221145 -3.0086546 0.90390253 0
1.048798 -3.0073209 0.53949881 0
-1.0749633 -3.0038397 -0.50872433 0
-0.86143279 -3.0003636 0.83339739 0
-0.16933417 -3.00126 1.1853445 0
0.71465302 -3.0119703 0.92829967 0
-1.163897 -3.0055938 0.23909736 0
1.1779935 -3.0060921 -0.14567834 0
0.81054652 -3.0068212 0.86470318 0
0.66099596 -3.0137374 0.96370673 0
-0.95132041 -3.0112767 0.69039607 0
1.1768695 -3.0101793 -0.067584991 0
-0.42446852 -3.0045378 1.1152484 0
0.89540768 -3.0070179 0.77975392 0
1.129516 -3.0084085 0.35577977 0
-0.63290429 -3.011626 0.99292254 0
-0.42843819 -3.0055387 1.1141033 0
0.76940238 -3.0183225 0.8700881 0
-0.60082173 -3.0014908 1.0438917 0
0.8531369 -3.0078118 0.82759571 0
0.1835463 -3.0017512 1.1903439 0
0.40337324 -3.018985 1.0891864 0
0.53398764 -3.0018978 1.0802729 0
0.50749803 -3.0104184 1.06949 0
1.0837466 -3.0001657 0.53856921 0
-0.40189862 -3.0017269 1.1378734 0
0.91595328 -3.0045943 0.77651381 0
-1.1743081 -3.012955 0.11307311 0
0.65519238 -3.0140405 0.97863388 0
0.98390269 -3.0036249 0.69454479 0
1.0787399 -3.0157261 0.46357775 0
1.1115742 -3.0145657 0.38801312 0
1.0704762 -3.0136483 0.4958756 0
-0.081172705 -3.0097764 1.1870198 0
-0.14235854 -3.012475 1.1745143 0
1.0131215 -3.0073829 0.63659906 0
1.1422095 -3.0198762 0.23712575 0
0.86244142 -3.0292878 0.75011563 0
-1.0858037 -3.0117395 0.48680544 0
-0.77527738 -3.0117044 0.90389645 0
-0.86677098 -3.0060148 0.84035361 0
-0.1943903 -3.0094066 1.183393 0
1.1740931 -3.0202756 0.0083415508 0
-0.33695936 -3.0164633 1.1350901 0
1.1769594 -3.0098522 0.23879683 0
0.73815191 -3.0077498 0.95442557 0
-0.7636764 -3.0065751 0.93928826 0
-0.24566531 -3.0041816 1.1918669 0
-0.51456594 -3.0003066 1.1137805 0
0.0077102184 -3.0157139 1.1886971 0
1.049695 -3.0046639 0.61542845 0
0.58806288 -3.0073957 1.05795 0
0.95614076 -2.9986193 0.77795815 0
1.1129454 -3.0100849 0.463305 0
1.2101152 -3.0038176 0.16516089 0
1.1737337 -3.0215826 0.08541441 0
-1.1631596 -3.0050726 0.36356533 0
1.1422765 -3.0196455 0.31275213 0
1.1451285 -3.0098264 0.38825977 0
0.096720695 -3.0161774 1.1901052 0
-0.68849421 -3.0165787 0.97433853 0
-0.86060834 -2.9943507 0.90389633 0
0.69556093 -3.0193055 0.96119344 0
1.2085805 -3.0097284 0.088653564 0
-1.1617382 -3.0040674 -0.39571667 0
1.1162742 -2.9992075 0.53801072 0
1.1480139 -2.9998918 0.46295953 0
1.243655 -2.994503 -0.13825029 0
1.0173901 -3.0029223 0.69306505 0
-0.95084667 -3.0084307 0.76182592 0
0.77475977 -3.0127966 0.92659426 0
1.0103552 -3.0228148 0.61805367 0
-0.4886322 -3.0055156 1.1262274 0
0.95823133 -3.0105529 0.74907935 0
-1.2451165 -2.9995022 -0.019242048 0
1.2073613 -3.0144236 -0.066713691 0
0.62616754 -3.0079875 1.0531535 0
0.46229148 -3.0122707 1.1240227 0
1.2443502 -2.9916589 0.2418195 0
0.85094917 -3.0027621 0.90390348 0
0.55273163 -2.9980297 1.1249943 0
0.88028955 -3.0076635 0.85943055 0
-0.17010665 -2.9929976 1.2553117 0
0.092819691 -2.9946566 1.2596848 0
-0.71019053 -3.0108378 0.99777961 0
-1.0387297 -3.0019436 0.68994808 0
1.1755847 -3.0148516 0.31346881 0
1.0826714 -3.0035071 0.614429 0
1.2070525 -3.0156131 -0.14613229 0
-0.08266592 -2.9975915 1.2569439 0
-1.2405641 -2.9963803 0.23607588 0
-0.77448845 -3.0043983 0.97424245 0
0.7521677 -3.0085452 0.97932279 0
-0.99845362 -3.0088046 0.72567773 0
0.89974248 -2.9867907 0.92005122 0
0.83664382 -3.004148 0.92380953 0
1.1293254 -3.0096381 0.49564183 0
1.0720621 -3.004307 0.63590145 0
-0.47856593 -3.0068219 1.1444497 0
-0.25490165 -3.0180249 1.1862757 0
0.81164789 -3.0043926 0.94649458 0
-0.68831038 -3.0036709 1.0443897 0
-0.046397448 -2.9962714 1.2679832 0
-1.2481978 -3.0016153 -0.14883935 0
1.2098022 -3.0050232 0.31442952 0
0.77069688 -3.0155735 0.95280433 0
0.27745819 -3.0157692 1.1935554 0
0.65652645 -3.0023987 1.0749352 0
1.2072098 -3.015007 0.23904455 0
0.94462478 -3.0183461 0.77687371 0
0.83756304 -3.0257273 0.86592603 0
0.018962026 -3.0015533 1.2637565 0
-0.34184885 -3.0142808 1.1855187 0
1.2394791 -3.0115871 -0.064266562 0
0.36753893 -3.0078931 1.1949329 0
0.98225987 -3.0080669 0.77324319 0
1.0626022 -3.0058563 0.66856575 0
-0.31041121 -3.0111816 1.2053623 0
-0.83450794 -3.0036671 0.94772327 0
-0.60093498 -3.0037444 1.1142375 0
1.2388995 -3.0139587 0.089177489 0
1.2730625 -3.0010302 0.016672373 0
-0.64069915 -3.0226409 1.0397615 0
-1.1646514 -3.0061271 0.4878664 0
-1.0876632 -3.0130944 0.60928607 0
0.083714008 -3.006707 1.2597258 0
-1.0376761 -2.9965708 0.76164818 0
-0.55424571 -3.0059524 1.1375115 0
-0.92382574 -3.013119 0.83973193 0
-0.55097771 -3.002193 1.1495001 0
-0.68815255 -3.0122557 1.0446551 0
-0.36417389 -3.0054443 1.2145221 0
0.91297448 -3.0119908 0.85779285 0
1.2735859 -2.9987473 0.16761637 0
1.1776338 -3.0074 0.46294498 0
1.2389139 -3.0138993 0.16482472 0
-0.95089674 -3.0087321 0.83289289 0
0.65835476 -3.0187731 1.0516427 0
0.7182045 -2.9982927 1.071784 0
0.65699172 -3.0189476 1.0536907 0
1.173824 -3.0212545 0.3882041 0
1.2718471 -3.00633 -0.061363101 0
1.185618 -3.0211575 0.35570288 0
0.94975495 -3.0050621 0.85391665 0
-1.2608702 -3.0103059 0.10699058 0
1.0828966 -3.0028074 0.69047844 0
0.0073168278 -3.0131228 1.2601731 0
-0.78719783 -3.0074866 1.0024681 0
1.3060005 -2.9910538 -0.13361502 0
1.0158252 -3.0073476 0.77132761 0
-0.75438857 -2.9989562 1.0536759 0
0.14766824 -3.0122869 1.2560024 0
1.1440626 -3.0134962 0.5383122 0
0.64928889 -2.9979408 1.1272233 0
-1.2454789 -2.9997509 0.36243927 0
-0.42836738 -3.0154126 1.1854506 0
0.58813572 -3.0275314 1.0817125 0
0.95943677 -3.0131302 0.82646787 0
1.2079591 -3.0121214 0.3885119 0
1.2359949 -3.0258415 0.010318518 0
1.1794732 -3.0007112 0.53716254 0
1.1484146 -2.9985123 0.61232781 0
0.21312129 -3.0124986 1.2513723 0
1.1121243 -3.0127683 0.61443043 0
0.69596243 -3.0185125 1.0469639 0
-0.42238975 -3.0025678 1.2252333 0
0.73599255 -3.0121701 1.0406651 0
0.18551612 -3.0110848 1.2636564 0
0.88086438 -3.0062933 0.94050467 0
-0.18814015 -3.0038762 1.28106 0
1.0438377 -3.0220127 0.69421971 0
0.46147823 -3.0095861 1.1975076 0
0.27798486 -3.0123746 1.2468917 0
-0.95439863 -3.0142112 0.84521723 0
1.187274 -3.0093682 0.49548924 0
0.84040523 -3.0192144 0.94692206 0
1.0624566 -3.0055668 0.74716926 0
0.77411127 -3.008323 1.0353181 0
1.26941 -3.0169578 0.089828968 0
1.1296394 -3.0076137 0.63558877 0
0.77883875 -2.9961095 1.0691018 0
-0.77476287 -3.0069411 1.0447843 0
1.2380927 -3.0172589 0.31417012 0
1.2448769 -3.0099359 0.35603356 0
1.3037007 -3.0017855 0.16805279 0
0.2761271 -3.0102513 1.265898 0
1.2691121 -3.0182569 -0.14287168 0
-0.86252952 -3.0083616 0.97458386 0
0.75307977 -3.0108275 1.0549395 0
0.47199702 -3.0014484 1.2325623 0
0.85424614 -3.0103719 0.98027658 0
1.2701421 -3.0137653 0.24045753 0
1.2075297 -3.0137753 0.4629178 0
1.1138575 -3.0071046 0.68984342 0
0.40623975 -3.0104949 1.2382345 0
1.271515 -3.0077782 0.31505728 0
1.3017575 -3.0108531 -0.060887218 0
1.2106851 -3.0016227 0.5367862 0
-1.1288829 -3.0027533 0.688591 0
-0.6295836 -3.0060897 1.1563594 0
-0.12608218 -3.0199194 1.2786546 0
1.0466321 -3.013736 0.77069008 0
0.98012483 -3.01384 0.85342538 0
-0.34189749 -3.0129225 1.2563412 0
-0.68793297 -3.0094802 1.1150308 0
-0.51492643 -3.017067 1.1856632 0
1.3012041 -3.0134351 0.015502691 0
-1.1794713 -3.0166056 -0.53346819 0
1.0098821 -3.0249369 0.779333 0
-1.2678049 -3.0150619 -0.28403562 0
-0.25465369 -3.0218627 1.2578976 0
0.91352713 -3.0106187 0.9385612 0
1.0578437 -2.9964004 0.82581866 0
1.3348711 -2.9990401 0.094776988 0
1.0165784 -3.0052176 0.84943891 0
-0.69859385 -2.9921174 1.1601591 0
-0.62779212 -3.01142 1.1510808 0
-0.91449594 -3.0059023 0.9579072 0
0.33860517 -3.0223074 1.2446992 0
-1.0031114 -3.0123019 0.84741402 0
1.2375793 -3.0193591 0.38851583 0
-0.6828022 -2.9990191 1.1588621 0
0.84614789 -3.0060551 1.0267911 0
0.9870944 -2.9949946 0.92907667 0
0.95893431 -3.0120559 0.90390491 0
1.2717381 -3.0068059 0.38886642 0
-1.0317271 -3.0049355 0.84839582 0
0.36863232 -3.0119164 1.268774 0
1.3017724 -3.0107837 0.24131155 0
-0.33126569 -3.0056074 1.2939298 0
1.2998112 -3.0199349 0.090411425 0
1.0513213 -2.9998472 0.84624624 0
-0.26418972 -3.0146511 1.2895191 0
-0.16899562 -3.0048795 1.3281181 0
-0.081407547 -3.0078604 1.3298571 0
1.2455871 -3.0042939 0.49526715 0
1.303178 -3.0042245 0.31559849 0
0.0066254139 -3.0085669 1.3316371 0
-1.0918562 -3.01615 0.73262954 0
1.1766229 -3.0110762 0.61271417 0
-1.0402961 -3.0099311 0.83249462 0
0.53223574 -3.0076225 1.2302008 0
-0.86163974 -3.0018723 1.0450423 0
-0.60140491 -3.0130949 1.1855819 0
-0.42837739 -3.0140288 1.256253 0
0.55853367 -3.0153768 1.2007749 0
1.0789335 -3.0151246 0.76929712 0
1.1877378 -3.0060658 0.63506341 0
-1.2646792 -3.0129182 -0.4163878 0
1.0698307 -3.0174503 0.77777314 0
1.332124 -3.0128181 -0.059911549 0
0.9461509 -3.0143943 0.93660843 0
-0.49609876 -3.0123916 1.2414627 0
0.91883481 -2.9974391 1.0171275 0
-0.9401989 -2.993346 1.0113657 0
-0.95334768 -3.023454 0.90389752 0
-0.34238791 -2.9992533 1.3257551 0
0.80210972 -3.025423 1.0363297 0
-0.40269923 -3.003202 1.3000546 0
0.95197749 -3.0195012 0.92268538 0
-1.3501251 -3.0070453 0.1006788 0
0.85227394 -3.0058198 1.0565012 0
-0.87348151 -3.0161855 1.009135 0
-0.95026255 -3.0049222 0.97481143 0
0.83599663 -3.0069706 1.0686891 0
1.1786586 -3.0036733 0.68721938 0
0.65098095 -3.0025551 1.2025008 0
1.208874 -3.0085979 0.61177599 0
1.14291 -3.0174646 0.69004297 0
1.3645744 -3.0028574 0.095070004 0
1.1305741 -3.001586 0.77555108 0
1.2362568 -3.0247695 0.46298134 0
1.2708508 -3.010675 0.46260273 0
-1.1835098 -3.0194609 0.61356139 0
1.3326993 -3.0099328 0.24193239 0
0.096934319 -3.0173564 1.3349416 0
1.1123639 -3.0119851 0.76723695 0
-1.1300118 -3.0077465 0.76025128 0
-0.47248173 -2.9959872 1.3053837 0
0.46222448 -3.0120497 1.2718108 0
1.3311784 -3.0175605 0.16683936 0
0.95562887 -3.0049894 0.98113275 0
-1.3483753 -3.0058815 0.23111475 0
-1.3525863 -3.0086818 -0.16316783 0
-1.2636826 -3.0122349 0.48934591 0
1.2424736 -2.9993365 0.61027193 0
-0.77521348 -3.0111129 1.1157131 0
-1.3571575 -3.0117214 -0.031482697 0
-0.55474687 -3.0064008 1.2520196 0
-0.51481652 -3.0119519 1.2560825 0
1.1472268 -3.0026019 0.76423466 0
1.3333503 -3.0066671 0.3157934 0
0.75356686 -3.0120466 1.1307549 0
-0.68774343 -3.0070825 1.1855416 0
0.18663836 -3.0164015 1.3372374 0
1.3015643 -3.0170076 0.35602748 0
1.0817478 -3.0063777 0.84560001 0
-1.0392387 -3.004539 0.9038974 0
1.3011779 -3.0135577 0.38886261 0
1.2380137 -3.0175822 0.5372473 0
0.36536384 -2.9998908 1.3408744 0
-1.1637778 -3.0055096 0.73719847 0
1.3629379 -3.0117259 -0.058322906 0
1.329191 -3.0275288 0.013921857 0
1.3647213 -3.0020614 0.24313688 0
-1.0794261 -3.0070918 0.85456693 0
-1.2589602 -3.008996 -0.54978198 0
1.363384 -3.0093081 0.16857994 0
0.65635884 -3.0030081 1.222609 0
1.1810294 -2.9950519 0.76162744 0
-0.84750915 -3.0140243 1.0695939 0
-0.42846918 -3.0012274 1.325772 0
1.3340769 -3.0030231 0.38915908 0
1.3026676 -3.0066061 0.46241319 0
0.89646912 -3.0020652 1.0658565 0
-0.16994238 -2.9947546 1.3983259 0
-1.2490945 -3.0022302 0.61586607 0
-0.25471997 -3.0208378 1.3294048 0
1.1804563 -3.0209816 0.66381884 0
-1.1281321 -2.9994321 0.83231175 0
1.3623971 -3.0146565 -0.13686293 0
1.3287632 -3.0296741 -0.14251369 0
-1.3536725 -3.0094039 -0.29725266 0
1.0134301 -3.0141201 0.93116069 0
0.87240672 -3.0264561 1.0290489 0
1.011072 -3.0184886 0.92119551 0
-0.99763942 -3.0081933 0.96860111 0
1.4268428 -2.9912045 0.024187565 0
0.9857856 -2.9985335 1.0109377 0
1.0860684 -2.9929495 0.92116451 0
0.59004354 -3.0209627 1.2294743 0
1.3941735 -3.0070102 0.020136833 0
1.0729424 -2.9991221 0.91752887 0
1.269873 -3.0149388 0.53672767 0
0.27835751 -3.0194974 1.3405058 0
1.3025215 -3.008414 0.4952215 0
0.94767797 -3.0104399 1.0175323 0
1.0637329 -3.0081034 0.90390611 0
1.3605337 -3.0247545 0.015599966 0
1.3344662 -3.00107 0.46220613 0
-0.60127425 -3.0104921 1.2562745 0
1.2080131 -3.0119133 0.68726599 0
-0.76412153 -3.0069404 1.1744618 0
0.74861693 -2.9996588 1.2055104 0
-1.3528218 -3.0088384 0.36079764 0
-0.77418447 -3.0015852 1.1857822 0
1.2447927 -3.0106044 0.6349045 0
1.0479428 -3.0098541 0.92762697 0
1.3632019 -3.0102954 0.31590152 0
1.3027759 -3.0061007 0.53590202 0
0.0065972805 -3.0083816 1.4040823 0
1.1124321 -3.0117624 0.84481239 0
1.176668 -3.0139623 0.7443645 0
-0.1140871 -2.9944475 1.4322658 0
1.3931756 -3.012888 -0.13495773 0
0.084549189 -3.0047159 1.4157856 0
1.3933632 -3.0117831 0.16892278 0
1.3954701 -2.9993722 0.31676018 0
0.55923545 -3.0174751 1.2758591 0
1.3640635 -3.005626 0.38921309 0
1.3594434 -3.0120072 0.35621893 0
1.3923886 -3.0175233 -0.058454752 0
1.3924296 -3.0172818 0.093590021 0
0.46012807 -3.0051279 1.3452611 0
-1.0390918 -3.0037901 0.97515476 0
-0.25571513 -3.0054419 1.3989661 0
1.1462897 -3.0058284 0.8418262 0
-0.95117807 -3.0104213 1.0460627 0
-0.51469922 -3.0065022 1.3266008 0
0.3461628 -3.0009372 1.3932035 0
0.21489573 -3.0079038 1.4052253 0
0.016376257 -3.0074787 1.4225638 0
0.096193314 -3.0132678 1.4072943 0
-1.1234219 -3.0137246 0.85367703 0
0.28024423 -3.0062654 1.3995371 0
-1.3535838 -3.0093451 -0.43293631 0
-0.86330366 -3.0140059 1.1166639 0
0.95651484 -3.0068836 1.058542 0
-0.92060256 -3.0106258 1.0803621 0
1.2696973 -3.0157049 0.61111641 0
1.1869011 -3.012023 0.77573407 0
0.27438688 -3.003037 1.4117002 0
1.424324 -3.0074458 -0.13218021 0
1.4246145 -3.005573 0.17029059 0
1.4237936 -3.0108664 -0.055775344 0
0.85544217 -3.0131326 1.1335649 0
0.71374476 -3.0154684 1.2220683 0
1.1728632 -3.0069127 0.82436562 0
-0.34220195 -3.0044389 1.3980877 0
1.3925123 -3.0167952 0.24229169 0
-0.55573344 -3.0103848 1.3158386 0
1.2429805 -2.9972625 0.75950015 0
-0.052903652 -3.0106168 1.429728 0
0.40894091 -3.0024941 1.3888087 0
-1.1289904 -3.0032287 0.90389788 0
-1.1608508 -3.0034399 0.86242735 0
-0.079656124 -3.0221515 1.4043987 0
-0.68799591 -3.0102763 1.2569036 0
1.2078753 -3.0124443 0.76319075 0
1.2377492 -3.0186644 0.68717742 0
0.14577758 -3.0169816 1.4130301 0
1.3659978 -2.9951441 0.53469098 0
0.95327115 -3.0130122 1.0657322 0
1.4231613 -3.0149434 0.09473598 0
1.1306465 -3.0011199 0.91663504 0
1.0506563 -3.0018167 1.0059712 0
-1.4421623 -3.003108 -0.17455447 0
-1.2260237 -3.0260353 0.68541598 0
1.4566643 -2.9914298 0.24534512 0
0.77600646 -3.0076969 1.2176456 0
1.4243084 -3.0075467 0.24353635 0
1.0135305 -3.0138361 1.0122647 0
-0.83582044 -3.0047126 1.1870117 0
1.3630767 -3.0109742 0.4622817 0
-0.9492178 -2.9986465 1.1165032 0
0.18716502 -3.0188968 1.4110813 0
1.1773334 -3.0084925 0.84068298 0
-1.3560703 -3.0109985 0.49067032 0
1.287113 -3.0087619 0.6609292 0
-0.638304 -3.0205586 1.2713203 0
1.3937876 -3.0092828 0.38924074 0
-1.0376596 -2.9964879 1.0461426 0
1.0851835 -2.9956999 1.0015178 0
-0.79763412 -3.0238075 1.1727631 0
-0.18967724 -3.0070226 1.4424314 0
1.3022606 -3.0107555 0.6345576 0
1.2112859 -2.9993088 0.83725405 0
1.331184 -3.0175323 0.53618717 0
1.3341938 -3.0024364 0.60879874 0
-1.223346 -3.0155945 0.75887716 0
1.0652931 -3.0112038 0.9823792 0
-0.42844081 -3.0051877 1.3979056 0
1.3002212 -3.0180221 0.61073613 0
-0.98841214 -3.0012646 1.0897427 0
-1.4530427 -3.0101206 -0.041225374 0
1.4860746 -2.9940219 -0.049923778 0
1.4541349 -3.0094373 0.096315861 0
0.53478622 -2.9992886 1.3792045 0
1.453793 -3.0118721 0.020979166 0
1.2453989 -3.0057893 0.77451789 0
0.0055239201 -3.0013092 1.4757628 0
0.65712357 -3.0193071 1.2798476 0
1.4239322 -3.0099728 0.31645095 0
1.1109682 -3.0165458 0.92464066 0
-0.8685348 -3.0086882 1.1768723 0
-1.0372238 -3.0127695 1.0201008 0
-1.4548979 -3.0113163 0.09280479 0
-1.2592692 -3.009208 0.74423945 0
1.4538946 -3.0111492 -0.13200366 0
1.3939874 -3.0081062 0.4621383 0
-0.63157058 -3.0094025 1.3231664 0
-1.3530021 -3.0089583 -0.57065946 0
1.3960122 -2.9961798 0.53446996 0
-1.3447249 -3.0034544 0.62005544 0
-1.2207494 -3.0054693 0.83167028 0
-0.86276317 -3.0100653 1.1875749 0
1.2681208 -3.0225799 0.6867857 0
-1.4407294 -3.0021846 0.35957754 0
1.358536 -3.0213711 0.49534512 0
-1.4528239 -3.0099795 0.22641718 0
1.1892067 -2.9956079 0.91491449 0
-1.0880861 -3.0134027 0.9806087 0
-0.32836676 -3.0000801 1.4554677 0
-0.16895056 -3.0053599 1.4725208 0
1.4527553 -3.0192602 -0.056715012 0
1.4533861 -3.0147691 0.16969001 0
1.1168467 -2.9973371 0.99939561 0
1.0121902 -3.0124292 1.0638824 0
0.95557153 -3.0048668 1.1359148 0
-1.3136687 -3.0065613 0.68512273 0
-0.60164666 -3.0179057 1.3286414 0
0.18339992 -3.0010579 1.4816961 0
-1.128706 -3.0019703 0.97554457 0
-0.77517128 -3.0107207 1.2579045 0
-0.70421124 -3.0170999 1.2841277 0
-0.26308799 -3.0124755 1.4511068 0
0.55998373 -3.0197124 1.3514771 0
0.09570694 -3.0105851 1.4802778 0
0.37060928 -3.0191898 1.4182034 0
-0.080739021 -3.0133157 1.475796 0
1.1752037 -3.0112493 0.90390766 0
1.2876451 -3.0096836 0.7420193 0
1.3339647 -3.0035858 0.6828109 0
1.3000928 -3.018621 0.68546116 0
1.1423796 -3.0192904 0.92317533 0
1.4844327 -3.0070641 0.17113101 0
1.2700803 -3.0140345 0.76109576 0
-0.5147624 -3.0094407 1.3987067 0
0.46104145 -3.0081434 1.420563 0
1.4538559 -3.0114243 0.31660497 0
-0.25551724 -3.0085032 1.4718256 0
1.4839511 -3.0108898 -0.13087171 0
-1.4399478 -3.0016809 -0.44864929 0
1.4154735 -3.0257475 0.35606742 0
1.2403146 -3.0081689 0.83754504 0
-0.60055327 -2.9961469 1.397028 0
0.85631883 -3.015156 1.2107134 0
1.4170789 -3.006283 0.49499154 0
-0.68790007 -3.0090618 1.3281829 0
-1.456784 -3.0125318 -0.31435496 0
0.83300602 -3.0200114 1.2174211 0
-0.34224749 -3.0031686 1.4700015 0
-1.3118677 -3.0002921 0.75848365 0
-0.91216993 -3.0041029 1.2007899 0
1.3598266 -3.0080545 0.63410425 0
1.4238849 -3.0102775 0.46209204 0
0.59344208 -3.0092616 1.3775408 0
1.454563 -3.0063896 0.38945329 0
1.3027899 -3.0060356 0.75873709 0
-0.86109209 -2.9978797 1.2576361 0
1.4830033 -3.0184183 0.020467281 0
0.75497556 -3.0155721 1.2835329 0
1.3625441 -3.0138602 0.60931277 0
0.46366 -3.0273592 1.3903055 0
1.1479311 -3.0001771 0.99774456 0
1.4217737 -3.0238914 0.38906741 0
1.3030838 -3.0033655 0.77371275 0
1.1756243 -3.0147076 0.92006922 0
-1.246938 -3.0007515 0.87091315 0
1.4254409 -3.0002444 0.53443301 0
1.5147805 -3.0026531 0.098581791 0
-1.1164901 -3.0041406 1.0248852 0
-0.70947003 -3.009675 1.3310935 0
1.4826648 -3.021107 0.095080137 0
1.5142915 -3.0070441 -0.052141845 0
1.3351398 -2.9976921 0.75640523 0
1.4739504 -3.0073788 0.35646379 0
1.4834824 -3.0146129 0.24364424 0
-0.42847061 -3.0010085 1.469245 0
0.65517783 -3.0140007 1.3551464 0
1.5142431 -3.0074773 -0.12900746 0
-0.77132559 -3.0128498 1.2972214 0
1.0704551 -3.0137727 1.0624824 0
1.1710111 -3.0034809 0.98335874 0
1.0678464 -3.0162778 1.0612023 0
1.2083596 -3.0105791 0.91719663 0
0.27695394 -3.0136788 1.4879034 0
1.5140151 -3.0095255 0.17125881 0
1.4063596 -3.0122972 0.57353806 0
1.3633622 -3.0094266 0.68283474 0
0.65414965 -3.0110419 1.3741236 0
1.2868806 -3.0083594 0.82304358 0
1.5133424 -3.0155649 0.02171278 0
-0.95323896 -3.0125074 1.1848433 0
0.89256597 -3.0202787 1.2149649 0
-0.40799713 -3.0129609 1.4667468 0
1.4832845 -3.0161841 0.31656122 0
1.1787528 -3.0033307 0.99631095 0
-1.1688435 -3.0090914 0.99060154 0
-1.5443416 -3.0029652 -0.050220728 0
-1.2232842 -3.0153534 0.90389884 0
-1.0765464 -3.0049932 1.1039467 0
-0.77481222 -3.0073974 1.3290877 0
-1.3481495 -3.0057316 0.75051355 0
-0.83239245 -3.0019817 1.3081157 0
0.95572698 -3.0051994 1.2136786 0
-1.1299179 -3.0073304 1.0475254 0
-1.438566 -3.0007901 -0.58864272 0
1.5145786 -3.0044658 0.31736434 0
1.2124978 -2.9946413 0.9917264 0
-1.0411878 -3.0144775 1.118741 0
-0.47738004 -3.00471 1.4728222 0
1.3028772 -3.0056279 0.8343451 0
-1.5431488 -3.0022204 -0.18798542 0
1.4529686 -3.0177419 0.46214676 0
1.3947423 -3.0036604 0.68146551 0
1.3918428 -3.0207376 0.60945809 0
1.5456218 -2.9908533 0.31824243 0
1.5439918 -3.0076723 0.098270416 0
0.55858374 -3.0155268 1.4265883 0
1.5438147 -3.0095007 -0.051999986 0
-0.54580784 -2.9932876 1.4783659 0
1.2681096 -3.0226285 0.8390348 0
0.36934817 -3.0145497 1.4923871 0
1.1294354 -3.0089288 1.0602274 0
-0.68748999 -3.0038776 1.3992186 0
1.4542067 -3.0089269 0.53466272 0
-1.2199545 -3.0023699 0.9760524 0
1.5130633 -3.0180709 0.24364865 0
1.544009 -3.0074942 0.17188835 0
-0.95317793 -3.0224335 1.1899843 0
1.543753 -3.0101361 -0.12889701 0
1.5444767 -3.0026684 0.24527371 0
1.2387544 -3.0145521 0.91637111 0
1.543452 -3.0132422 0.022768021 0
1.4168615 -3.0089185 0.63388228 0
1.3350241 -2.9982722 0.83167922 0
1.4261392 -2.9957411 0.67988765 0
-1.4613559 -3.0154784 0.49225068 0
1.4054908 -3.0108876 0.6565609 0
-0.78870845 -3.0098488 1.3393269 0
1.4233831 -3.0135131 0.60839176 0
1.5144415 -3.0056975 0.38959575 0
0.71391368 -3.0148177 1.3714023 0
0.95242548 -3.0172541 1.2120326 0
0.21789718 -3.0001318 1.5603199 0
-1.0381422 -2.9989474 1.1892412 0
-1.5408702 -3.0007977 -0.32693487 0
1.4824046 -3.023174 0.38922703 0
-1.3150971 -3.0115342 0.83095884 0
1.2439721 -3.017123 0.91664553 0
1.5745473 -2.9971521 0.17348814 0
0.46082687 -3.0074348 1.4958577 0
0.77677178 -3.0045655 1.3655605 0
1.0140827 -3.0021737 1.2068944 0
-1.5574005 -3.0111196 0.085241437 0
1.4735062 -3.0139029 0.49505019 0
0.65189886 -3.0050583 1.4300389 0
0.75422013 -3.0136817 1.360086 0
1.4850402 -3.0022385 0.53410196 0
1.4834169 -3.0151327 0.46203148 0
0.85764229 -3.0182106 1.2884324 0
-0.94995952 -3.0031021 1.2597992 0
1.1703465 -3.0022497 1.0628312 0
1.5148914 -3.0016575 0.4617331 0
-1.5546379 -3.0093946 0.22192788 0
-1.4472389 -3.0063801 0.6246345 0
-0.51491141 -3.0163622 1.4722548 0
-1.0335383 -3.0075171 1.1914239 0
1.5735655 -3.0090554 -0.051283956 0
1.3038405 -3.001133 0.90999222 0
1.5305622 -3.0118322 0.35644627 0
1.3617039 -3.0184133 0.75883532 0
1.269711 -3.015645 0.91496933 0
-0.60093546 -3.0037498 1.4704609 0
1.5734282 -3.0107217 0.098205805 0
-0.77398062 -2.9996977 1.3998585 0
1.3941684 -3.00704 0.75616455 0
-0.86323047 -3.000649 1.3457184 0
-1.4112093 -3.0171125 0.68243992 0
1.358759 -3.019069 0.77457476 0
1.6040939 -2.995975 -0.12378585 0
1.2406476 -3.0068069 0.99304414 0
1.6039164 -2.9985816 -0.048346639 0
1.2902826 -3.0142517 0.90390944 0
1.3646421 -3.002491 0.83139932 0
-1.0035913 -3.0126622 1.218775 0
-1.2068455 -3.0085006 1.0318828 0
-0.11760354 -3.0019147 1.5961475 0
-1.4069133 -3.0036275 0.7570523 0
0.014807701 -3.0110731 1.5837264 0
1.4532599 -3.0156674 0.60819614 0
1.5737218 -3.0071611 0.24511075 0
1.5727766 -3.0186212 0.02223587 0
0.83642495 -3.0051029 1.3625069 0
1.5438359 -3.0092812 0.38958669 0
1.1871171 -3.0104849 1.0591357 0
0.14568233 -3.0172181 1.5716791 0
0.74739814 -2.996609 1.4343586 0
1.071908 -3.024349 1.1406958 0
0.079286337 -3.0172627 1.5784543 0
1.4253633 -3.0007446 0.75438821 0
1.6035279 -3.0042875 0.09957993 0
0.85155141 -3.0041523 1.3641088 0
0.27594972 -3.0178773 1.5592678 0
1.33427 -3.0020542 0.90877748 0
-1.5438392 -3.0026517 -0.46902305 0
0.55645204 -3.0091531 1.5016358 0
-1.3470323 -3.0049887 0.88138962 0
1.5142668 -3.0072649 0.53418314 0
0.4057591 -3.0119183 1.5461643 0
-1.1094668 -2.9944301 1.1967134 0
-1.2569807 -3.0076385 1.0019259 0
1.6031404 -3.0099802 0.024353862 0
1.6034486 -3.005451 0.17273831 0
-0.91514993 -3.0064082 1.3262911 0
1.5735091 -3.0097396 0.3173871 0
1.3015552 -3.0170896 0.91580844 0
1.4094729 -3.0173495 0.73880649 0
-1.559808 -3.0126231 0.35772479 0
-1.4376044 -3.0001705 0.75679505 0
1.4538846 -3.0112197 0.68126988 0
1.0630233 -3.0066934 1.2181804 0
0.95839524 -3.0109036 1.2924917 0
-1.1326842 -3.0195658 1.1204116 0
-1.3168874 -3.0177662 0.90389967 0
1.5151447 -2.999383 0.60610616 0
0.33892941 -3.0213907 1.5544128 0
-1.5464256 -3.0042667 0.49339974 0
1.543623 -3.0114789 0.46185172 0
1.5718539 -3.0298083 -0.13347459 0
1.2863332 -3.0074112 0.98474932 0
-0.057708025 -3.0212097 1.5941072 0
1.4733013 -3.0169129 0.63407803 0
-1.2228992 -3.0138519 1.0488372 0
1.0704901 -3.0135663 1.2071624 0
-1.0739555 -3.0031052 1.2305231 0
-1.1707454 -3.0104358 1.1194389 0
1.6031613 -3.0096714 0.24508512 0
-0.19215822 -3.0121009 1.6072488 0
1.5733993 -3.0110707 0.38960171 0
-0.86521125 -3.0279183 1.3334975 0
1.4552445 -3.001538 0.75382066 0
1.4847205 -3.0047784 0.679986 0
1.3033431 -3.0034537 0.98841298 0
1.2695524 -3.0163369 0.99374366 0
1.5442104 -3.0054164 0.53392422 0
0.6507529 -3.0019333 1.5062294 0
-0.25954604 -3.0054805 1.6137023 0
1.48247 -3.0226543 0.60846472 0
1.171638 -3.0046425 1.1426992 0
1.416172 -3.017277 0.77396989 0
1.6329731 -3.005522 0.099668264 0
-0.94334745 -2.9979725 1.3539555 0
1.2452408 -3.0070448 1.0573802 0
0.89467454 -3.0104394 1.3607979 0
-0.68813634 -3.0120518 1.4730818 0
1.3640964 -3.0054476 0.9082489 0
-1.1291952 -3.0041344 1.1914716 0
1.6327955 -3.0088294 0.024927616 0
1.6330472 -3.004142 0.17311966 0
1.6329162 -3.0065804 -0.12615281 0
-0.950634 -3.007154 1.3324134 0
0.53044927 -3.0134599 1.5363231 0
-1.4084001 -3.0082941 0.83040202 0
1.4062915 -3.0121868 0.82154453 0
1.3927454 -3.0154221 0.8329215 0
0.5943712 -3.006063 1.5295286 0
1.4749204 -2.9931331 0.77147758 0
1.5873096 -3.0138659 0.35645688 0
-0.32810593 -2.9995832 1.6207137 0
0.46535301 -3.0220978 1.5437551 0
1.5736877 -3.0075746 0.46173692 0
1.35978 -3.0085347 0.91402316 0
-0.63604975 -3.01687 1.4936438 0
1.529846 -3.0251629 0.49518669 0
-0.70345569 -2.9999659 1.4984117 0
-1.5032673 -3.005141 0.68119216 0
-1.3153944 -3.012569 0.97686529 0
1.5445975 -3.0014222 0.60601664 0
-1.0410686 -3.0138686 1.2629385 0
1.6323771 -3.0166166 -0.052103341 0
1.1295137 -3.0084238 1.2043362 0
-1.5443745 -3.0029857 -0.61289835 0
-0.86302161 -3.0119498 1.4036388 0
1.524123 -3.0067191 0.65235448 0
-1.6570101 -3.0062687 0.078038692 0
1.2828912 -3.0014493 1.0653565 0
1.6030427 -3.0114138 0.38963461 0
-1.4058723 -3.0003607 0.90389991 0
-1.6524024 -3.0034826 0.2177248 0
1.6022245 -3.0234306 0.31678462 0
-1.5006914 -2.9977918 0.75592506 0
1.6324906 -3.0145013 0.24481928 0
-1.2962823 -3.0089617 1.0385532 0
-1.222084 -3.0106735 1.1212738 0
1.4021871 -3.0055265 0.90391076 0
1.5138614 -3.0109048 0.68031156 0
1.5353314 -3.0237906 0.5661701 0
1.6623883 -3.0072656 -0.12596905 0
1.5874608 -3.010026 0.49487591 0
-1.548681 -3.0056751 0.6291039 0
-0.77501082 -3.0092371 1.4740779 0
1.6622498 -3.0107818 -0.050436974 0
1.6624256 -3.0063171 0.1730206 0
1.3030978 -3.0032389 1.0557022 0
1.4225003 -3.0192063 0.83272028 0
1.6326735 -3.0110979 0.31752682 0
1.6622298 -3.0112927 0.098970652 0
0.85246837 -3.0062687 1.4424648 0
-1.6602774 -3.0082448 -0.20429081 0
1.3315138 -3.0158787 0.99014437 0
1.5302076 -3.0184298 0.6339761 0
1.520283 -3.0008707 0.73668444 0
-1.0384338 -3.0004346 1.3336856 0
1.4834638 -3.01476 0.7553066 0
-1.6676917 -3.0127282 -0.063752413 0
1.3641551 -3.0051298 0.98566699 0
1.425094 -3.0024812 0.90521622 0
-1.152971 -2.9978688 1.2446377 0
1.6619933 -3.0172994 0.023546815 0
1.0640929 -3.0088186 1.2976696 0
1.3923252 -3.0178974 0.90994239 0
1.6626065 -3.0017266 0.31809032 0
-1.001024 -3.0107346 1.345295 0
-1.2526071 -3.0046391 1.1318533 0
1.6327242 -3.0101554 0.38968801 0
1.4536014 -3.013237 0.83068871 0
0.95168328 -3.0209765 1.3605144 0
1.5725616 -3.0212269 0.53461683 0
0.7151922 -3.0098937 1.5219336 0
1.0136491 -3.0045238 1.3540871 0
-1.6540926 -3.0045047 0.35639679 0
1.5736146 -3.0084615 0.60640335 0
1.6331294 -3.0026121 0.46158004 0
1.4167922 -3.0097589 0.91354752 0
1.602415 -3.0206327 0.46192658 0
0.96104193 -3.0165617 1.3720219 0
-0.40740776 -3.0118754 1.6336241 0
1.6918619 -3.0073481 -0.049424529 0
-1.3525281 -3.0086432 1.0145566 0
0.6502825 -3.0251043 1.5303628 0
1.6918616 -3.0073557 0.099745035 0
1.4847168 -3.0048077 0.82826614 0
-0.47543621 -3.0012484 1.6399426 0
-0.8616662 -3.0020654 1.4747226 0
1.6029599 -3.0126293 0.53404784 0
-0.78625154 -3.0060067 1.5097744 0
-1.1305003 -3.0099068 1.2646449 0
1.4268626 -2.9910767 0.97914171 0
1.7214445 -2.9955246 0.10170245 0
1.1754495 -3.0117047 1.2234502 0
0.75440598 -3.0141466 1.5153646 0
1.7214222 -2.9975994 -0.047052145 0
1.1863846 -3.0157001 1.2041197 0
1.0732925 -2.9970593 1.3499882 0
1.5131786 -3.017036 0.75511014 0
1.2466564 -2.995801 1.1987388 0
1.5427542 -3.0204425 0.68110895 0
-0.95181656 -3.014257 1.4062047 0
-1.2072129 -3.0089934 1.2077355 0
1.692009 -3.0014737 0.31815326 0
1.5151592 -2.9992523 0.82649672 0
-1.4539058 -3.0106769 0.89275134 0
1.6915712 -3.0189486 0.023411512 0
-1.0336404 -3.0076623 1.3654835 0
1.5736921 -3.0075221 0.67918944 0
1.5441535 -3.0060036 0.752864 0
1.6621833 -3.012471 0.38967156 0
1.6615486 -3.0285897 0.24370623 0
-1.2224953 -3.0122769 1.1942544 0
1.2851579 -3.0053756 1.1466165 0
-1.65275 -3.0036926 0.49497581 0
1.6630064 -2.9915688 0.53277683 0
1.6915849 -3.0184042 0.17165256 0
-1.6708817 -3.0146573 -0.349877 0
-1.5045049 -3.0086718 0.82968485 0
1.3599453 -3.0068278 1.055335 0
1.6920905 -2.9982207 0.38993692 0
1.6915071 -3.0215135 -0.12953365 0
1.4050411 -3.0101578 0.98622203 0
-1.3814745 -3.0015254 1.0442626 0
1.5305463 -3.0121269 0.7728405 0
-0.54900265 -2.9987907 1.6491454 0
-1.5989518 -2.9995654 0.67925501 0
0.83654606 -3.0045745 1.5128274 0
-1.6559894 -3.0056517 -0.49144572 0
1.6916353 -3.0163934 0.24485755 0
1.6623814 -3.0074389 0.46164048 0
1.7507032 -2.9903228 -0.12100554 0
0.77333593 -3.0186222 1.5203941 0
1.6326064 -3.0123477 0.53393865 0
1.3921332 -3.0190275 0.98802614 0
1.7213053 -3.008497 -0.12590355 0
1.633293 -2.9995661 0.60527205 0
1.6027296 -3.0160134 0.60687089 0
1.7212631 -3.0124235 0.024782896 0
1.4740624 -3.0057325 0.91252661 0
1.4528837 -3.0183458 0.90790176 0
-1.4110146 -3.0165009 0.97759914 0
1.5450557 -2.9966934 0.82539999 0
-1.3214417 -3.0336204 1.0509315 0
1.7212845 -3.0104268 0.17269719 0
-1.3149652 -3.011075 1.1230054 0
1.5869203 -3.0237508 0.63411653 0
1.6493461 -3.0058131 0.56159115 0
1.5270315 -3.0111492 0.82005787 0
1.4842085 -3.0088451 0.90477288 0
1.7213016 -3.0088427 0.24556446 0
1.1702517 -3.002074 1.3027093 0
-1.5596282 -3.0125108 0.7663883 0
0.85366631 -3.0090337 1.5216639 0
-1.0847366 -3.0109615 1.3633645 0
-1.1114058 -2.9971111 1.3725841 0
1.7213261 -3.0065584 0.31791425 0
1.7507448 -3.0019169 0.17375493 0
1.6029601 -3.0126278 0.67954481 0
-1.1298943 -3.0072267 1.3372757 0
1.7507669 -3.0080936 0.025645137 0
1.5733232 -3.0119932 0.75339615 0
1.7213935 -3.0002756 0.38991022 0
0.96141028 -3.017349 1.4514823 0
1.0676607 -3.0159087 1.3784854 0
-1.040746 -3.0122242 1.4084837 0
1.3033223 -3.0012238 1.198488 0
-1.5050838 -3.0103235 0.9039011 0
-1.2214949 -3.0083766 1.2669663 0
1.7507818 -3.0122585 0.099068642 0
1.1294945 -3.0085471 1.3505259 0
1.7507536 -3.0043783 0.24596429 0
0.89443696 -3.0115478 1.5112927 0
1.4534823 -3.0140846 0.98419785 0
1.7800299 -2.9970667 -0.12289685 0
1.662441 -3.0059292 0.60570955 0
1.5875152 -3.0086424 0.77230418 0
1.6328959 -3.006959 0.67862654 0
-1.7695506 -3.006243 -0.074093699 0
-1.4028473 -2.9908648 1.1234343 0
-0.87335753 -3.0159976 1.5226638 0
-0.95173931 -3.0137925 1.479454 0
-1.3132732 -3.0051849 1.1958392 0
1.5136507 -3.0127969 0.90487814 0
1.691574 -3.0188406 0.46182299 0
-1.657511 -3.0065718 0.63398802 0
1.7508099 -3.0201159 -0.052226305 0
1.6510959 -3.0083184 0.64728355 0
-1.5416808 -3.0013039 0.90123546 0
-1.295157 -3.0074959 1.21595 0
1.6918199 -3.0090239 0.53364253 0
1.7801735 -3.005091 -0.04883039 0
1.4073129 -3.0138443 1.0688243 0
1.5309141 -3.00528 0.91204691 0
1.7801998 -3.0065634 0.025881171 0
1.7801731 -3.0050662 0.10015786 0
-1.4505913 -3.0085406 1.0275426 0
1.7800393 -2.9975929 0.24653041 0
1.7213255 -3.006604 0.46160007 0
-1.7695639 -3.0062511 -0.21900517 0
-1.6040845 -3.0129652 0.75360453 0
-0.63182974 -3.0098345 1.6629739 0
-1.6616957 -3.0091023 -0.64054024 0
1.6439345 -3.0205579 0.63385308 0
-1.4126711 -3.0217009 1.0516322 0
0.95415127 -3.0085983 1.507278 0
-1.2581635 -3.0084498 1.2659638 0
-1.502748 -3.0036588 0.97799349 0
-1.598731 -2.9989893 0.82914197 0
-1.3582869 -3.0124724 1.1497297 0
1.6331002 -3.0031571 0.75135648 0
1.6025023 -3.0193486 0.75421095 0
1.289737 -3.0133066 1.2287853 0
1.7213814 -3.0013988 0.53321528 0
1.4834709 -3.0147033 0.9833014 0
1.5728592 -3.0176198 0.82896876 0
1.1876422 -3.0067463 1.3481522 0
1.5313468 -3.0177217 0.90391314 0
1.6473341 -3.0029325 0.73328769 0
-0.94802332 -3.0048432 1.5301208 0
1.5147312 -3.0030956 0.97922599 0
-1.7664413 -3.0044231 0.35471213 0
1.6918623 -3.0073278 0.60574901 0
-1.7839274 -3.0146582 0.068120599 0
1.5434723 -3.0130339 0.90421939 0
1.7214849 -2.9917626 0.60434103 0
-1.7788577 -3.0116909 0.21180928 0
1.4154234 -3.0263543 1.0576303 0
1.8094792 -3.0011609 -0.048092842 0
1.6622838 -3.0099194 0.67882192 0
1.7507781 -3.0112209 0.38972104 0
1.7803917 -3.0172832 0.17182922 0
1.0138959 -3.0031862 1.502836 0
-1.2206321 -3.0050123 1.3399646 0
1.0646762 -3.0099778 1.4578061 0
-1.4995852 -2.9946349 1.0517209 0
-1.7737737 -3.0087149 -0.36647475 0
-1.1693861 -3.0094748 1.3815584 0
1.8097202 -3.008637 0.099475265 0
1.7508396 -3.0283961 0.31677532 0
1.3597679 -3.0086586 1.1987889 0
1.6333393 -2.9987056 0.82450163 0
1.8384331 -2.9915066 -0.12191159 0
0.95955801 -3.0133893 1.5306063 0
1.7009131 -3.0083644 0.63316071 0
1.7803108 -3.0127647 0.31757784 0
-1.0406053 -3.011507 1.482017 0
1.5734867 -3.0100114 0.90290534 0
1.8097804 -3.0105081 -0.12669712 0
1.6026843 -3.0166786 0.82835102 0
-1.4037275 -2.9936285 1.1972551 0
1.4735063 -3.013901 1.0549729 0
1.405633 -3.0111182 1.1512809 0
1.5442817 -3.0046804 0.97882819 0
1.7507967 -3.0164104 0.46176946 0
1.1759454 -3.0126233 1.3851142 0
1.8098295 -3.0120289 0.17238367 0
1.6441213 -3.0131032 0.77253485 0
-1.1322861 -3.0178056 1.4124899 0
