# .PCD v0.7 - Point Cloud Data file format
VERSION 0.7
FIELDS x y z intensity
SIZE 4 4 4 4
TYPE F F F F
COUNT 1 1 1 1
WIDTH 1430
HEIGHT 1
VIEWPOINT 0 0 0 1 0 0 0
POINTS 1430
DATA ascii
-2.926321 -7.4064484 1.6877351 0
-3.1639013 -7.1554732 2.252177 0
-3.3189983 -6.988028 2.5369878 0
-3.6209483 7.1802883 1.277884 0
-6.3892746 4.8876395 1.2623398 0
-6.9620419 -3.7854815 1.8757992 0
-3.7914381 6.9379015 1.9518976 0
-5.0836906 5.7770696 2.666075 0
4.5623045 6.365108 2.2358131 0
4.7525072 -6.6066456 0.31593096 0
0.32220554 8.0782194 -0.98715401 0
-3.6152782 -6.6868496 2.9254897 0
-5.6506128 5.3905697 2.3150587 0
4.7564807 -6.4066873 1.6373298 0
-3.8965311 6.7745657 2.2975013 0
-5.8539109 5.2521625 2.1228027 0
-2.7674351 -7.5783315 1.1271508 0
-6.5874338 4.7621126 0.54216146 0
-7.1901236 -3.718992 0.91585946 0
-6.5835857 4.7626548 0.58555901 0
4.746624 -6.577703 0.76000357 0
-3.1796465 -7.1262794 2.3416004 0
-6.5783176 4.7550392 0.72346282 0
4.7545357 -6.5925288 -0.58727908 0
-6.0918894 5.0953641 1.8296647 0
4.7592564 -6.6152158 0.11787868 0
-5.2329831 5.661675 2.6447251 0
-5.8364687 5.2718143 2.1429648 0
-2.6585016 -7.6881294 0.53141701 0
-3.8661838 6.8059216 2.2862909 0
4.7557535 -6.2341757 2.2391272 0
4.5361509 6.7707133 0.28238904 0
4.7479634 -6.5802126 -0.81478417 0
-2.7301512 -7.57938 1.268333 0
4.5303588 6.7599397 0.53817666 0
-3.5112448 7.3532114 0.34698272 0
-5.1832447 5.7002406 2.6762016 0
-3.0129333 -7.3124604 1.9932072 0
-3.6661901 7.1408496 1.4517694 0
4.7543077 -6.6089325 0.51218927 0
-3.0062609 -7.3228712 1.9706576 0
4.7458572 -6.5982013 0.70854342 0
-3.6924138 7.0688033 1.7220128 0
-6.5869303 4.7641864 -0.69925165 0
-7.0622177 -3.7546093 1.6139939 0
-2.6566238 -7.6815915 0.7179867 0
-3.6242623 7.1691208 1.4343963 0
0.31900108 -8.0942917 -0.99033964 0
-2.6841326 -7.6604352 0.84702981 0
4.5380287 6.775929 0.31291366 0
4.5405493 6.7811828 0.086760521 0
4.5500803 6.7386599 0.70871353 0
-3.7544336 6.9630413 2.0094242 0
-3.7962351 6.8942647 2.1637545 0
-6.4539156 4.846149 1.2197564 0
-6.0209379 5.1478906 1.9702435 0
-2.685235 -7.6621065 -0.84794128 0
-3.5729527 7.290925 0.85935879 0
-6.1936636 5.0098119 1.7950058 0
4.5422287 6.7846851 -0.14045966 0
-3.3318977 -6.9870272 2.6007035 0
-2.8371358 -7.4875326 1.6045146 0
-3.4939752 7.3814898 -0.0089812875 0
4.5542946 6.4863801 1.9710011 0
-2.6000462 -7.742517 0.0031630993 0
-2.6684155 -7.6366143 1.126564 0
-6.3298016 4.9297891 1.5308638 0
-3.1394949 -7.1904573 2.2708745 0
-5.6265478 5.4066958 2.4140911 0
-6.7548275 -3.853163 2.4989936 0
4.5402832 6.7806292 -0.3683154 0
-2.5984058 -7.7399521 -0.27940947 0
-3.5128708 7.3571177 0.53280604 0
-3.5753779 7.2938175 -0.88548231 0
-3.5363426 7.3067493 0.93932104 0
-3.4946485 7.3823171 0.28090537 0
4.5449514 6.7317476 0.90404928 0
0.42359483 -8.1020298 -0.9879843 0
-6.5814323 4.7616692 0.90554285 0
-2.6008024 -7.7437 0.2849443 0
-4.2069721 6.3570495 2.9506803 0
-2.6430774 -7.712553 0.59518564 0
-5.3503671 5.582768 2.6520917 0
4.7485199 -6.5812559 0.98413312 0
-2.6557503 -7.6785517 0.90403807 0
0.42306066 8.1049242 -0.9885565 0
-6.5856447 4.7607245 0.90403175 0
-3.5574784 7.2724681 1.1475356 0
-2.8368888 -7.4921374 1.6382134 0
-6.3934488 4.8910747 1.4423599 0
-2.7606611 -7.5683775 1.4086614 0
-2.9361935 -7.3833046 1.93943 0
-6.7106876 4.6754279 -0.05847007 0
-7.1798105 -3.7157955 1.2430193 0
4.7459517 -6.6621904 -0.0031499267 0
4.5509472 6.594254 1.6510639 0
4.5401249 6.7817006 0.56921482 0
4.7503033 -6.3955002 1.8618193 0
-4.3231964 6.2857566 2.9557915 0
-4.5429907 6.1262527 2.9619176 0
-3.5119429 7.354888 0.71857846 0
-3.2407494 -7.070529 2.5406735 0
4.7490034 -6.6021962 0.90404987 0
-5.7287874 5.3605437 2.3268175 0
4.5372629 6.7213855 1.0988846 0
-3.4914565 7.378397 -0.5922116 0
-6.2045307 5.010448 1.8392897 0
-3.9627943 6.676671 2.5918701 0
-5.3842835 5.5438213 2.6978528 0
-6.5428438 -3.9002049 2.9983757 0
-6.7134504 4.6766458 0.26438832 0
-3.5199552 -6.7841034 2.9324071 0
-3.5031562 7.3927646 -0.30122167 0
-3.9421964 6.6786656 2.6222537 0
-6.7101765 4.6752028 -0.3825165 0
4.5425935 6.7854452 -0.59937632 0
-5.9741197 5.1755199 2.1359694 0
4.5552034 6.3560901 2.4280925 0
-5.8277225 5.2606535 2.3291767 0
-2.6353002 -7.6971951 0.93366814 0
-2.9177303 -7.3945704 1.9717069 0
-4.1038933 6.4441299 2.9515915 0
4.7390175 -6.5895147 1.0992987 0
-5.3011379 5.6342783 2.6924894 0
-3.6660028 7.1404333 1.6352324 0
-4.4400406 6.214304 2.9614949 0
-4.6572757 6.0504904 2.9673393 0
4.7544937 -6.3749404 1.9651289 0
-3.0092764 -7.3020258 2.1759384 0
-3.8261938 6.869143 2.3020837 0
-2.6545196 -7.6742673 1.0899124 0
-2.848629 -7.4942689 1.6919239 0
-6.0104332 5.1381836 2.1485505 0
-3.0905027 -7.2458014 2.2582109 0
4.5376215 6.7750802 -0.83010972 0
-2.6052895 -7.7507167 -0.56544346 0
4.5407801 6.7816639 0.76466739 0
0.52596462 8.120924 -0.98812973 0
-2.606298 -7.7522945 0.5666337 0
-5.7384415 5.3293624 2.4271626 0
-6.3836956 4.8830481 1.6215348 0
-6.5865164 4.7614002 1.0848422 0
-3.5024586 7.3919077 0.57071042 0
4.7518148 -6.6770549 0.28258729 0
-3.5120611 7.3551722 0.90403748 0
-3.7018642 7.051405 1.9586215 0
0.52533782 -8.1246166 -0.98885775 0
4.5310421 6.7130013 1.2934451 0
0.63167703 -8.1185436 -0.98437858 0
-3.2284598 -7.076087 2.6053841 0
-6.7134933 4.6766644 0.58701229 0
-3.0316205 -7.2752371 2.2744098 0
0.6312753 8.1211329 -0.98488796 0
4.7526999 -6.2305188 2.4331555 0
4.5399323 6.781167 0.856565 0
-6.7078485 4.6741772 -0.70826602 0
4.7485542 -6.668788 0.56865752 0
-6.7351313 -3.8511751 2.6751723 0
-3.4909925 7.3778276 0.86013365 0
-7.0715694 -3.7599194 1.7941945 0
-3.6571074 7.1206832 1.8169944 0
-2.5987878 -7.7405491 0.84811437 0
-5.8431759 5.2783785 2.3256214 0
-3.6249986 7.1864262 1.6225872 0
-2.6525459 -7.6673965 1.2756553 0
4.7527752 -6.5892296 1.2105336 0
-3.4941797 7.381741 -0.88802552 0
-2.836935 -7.4922829 1.823277 0
-4.7808032 5.9836645 2.9767203 0
-5.4808288 5.5142994 2.6637685 0
4.5465488 6.585413 1.8788021 0
-3.51085 7.3522635 1.0894306 0
-6.585803 4.76367 1.2271624 0
-3.538106 7.3095074 1.2834167 0
-6.4615498 4.8497772 1.5411434 0
-3.0030694 -7.3185892 2.2594347 0
-6.0922852 5.0955739 2.1488297 0
-3.8035517 6.9093399 2.3508348 0
4.5444918 6.7894025 0.99231732 0
-2.6105499 -7.7589436 -0.85435987 0
-3.8935471 6.7714839 2.596992 0
-4.8965101 5.9072814 2.9833229 0
-2.7382693 -7.5948582 1.6104257 0
-6.968442 -3.7875662 2.2066703 0
4.7490845 -6.6701336 0.85499728 0
-3.4257164 -6.8843913 2.9406736 0
-6.5926342 4.7661476 1.2662098 0
4.5511932 6.4781742 2.2590504 0
-6.8378992 4.5857258 -0.062725186 0
-6.3295603 4.9296699 1.8512497 0
-5.955142 5.1829739 2.3389454 0
-2.76196 -7.5702863 1.6940248 0
-3.4270368 7.4882178 -0.011148095 0
0.7330668 -8.1431198 -0.98622358 0
-6.2152147 5.0286102 1.9793653 0
-3.63727 7.1841917 1.7300086 0
-5.8562298 5.2534757 2.4419878 0
-3.5673332 7.2842226 1.4406319 0
-3.170877 -7.1642942 2.5485506 0
-6.3855972 4.8846135 1.8026662 0
-6.8402338 4.5867147 0.26297963 0
-7.0645809 -3.7559512 1.9732392 0
-3.7024288 7.0800767 2.0195556 0
-2.638073 -7.7026711 1.2742305 0
-2.6855655 -7.6626072 1.4131401 0
-6.7823963 4.628592 0.72144127 0
4.5359793 6.719655 1.4892519 0
-3.4290228 7.4907298 0.28014636 0
-6.7235498 4.6810961 0.91060662 0
-6.7940397 4.6371026 0.53797936 0
4.753974 -6.6085086 1.295887 0
4.7493367 -6.5827861 1.4369299 0
-5.0082006 5.825829 2.9887245 0
-6.8393936 4.586359 -0.38981074 0
-7.372467 -3.6722734 0.35598516 0
4.5377636 6.7753768 1.2189999 0
0.73162436 8.153389 -0.98823941 0
-3.7983007 6.9476814 2.3010774 0
-3.4931412 7.3804655 1.1512339 0
4.5423632 6.7878885 1.1456041 0
-5.5234036 5.4876118 2.721262 0
-5.6014237 5.435297 2.6725843 0
-3.5121565 7.3554015 1.2751834 0
-5.1157074 5.7394514 2.9929249 0
-3.4511094 7.4355106 0.9426527 0
4.7576089 -6.40873 2.0965319 0
-2.6549468 -7.6757541 1.4625771 0
-4.0271711 6.565743 2.9646597 0
-2.6045713 -7.7495942 1.1318107 0
-3.4353886 7.4987793 -0.30474478 0
-3.8639827 6.8028784 2.6346824 0
0.83642936 -8.1543713 -0.98573935 0
-3.765347 6.9749775 2.3104448 0
-3.4279475 7.4893699 0.57122326 0
-6.1964254 5.0122218 2.1574702 0
-2.8450899 -7.5021849 1.9489384 0
-3.4271216 7.4883256 -0.59779453 0
-6.7793312 4.6263514 0.9040339 0
-6.5886936 4.7630901 1.4474416 0
4.7424679 -6.5938959 1.4910362 0
-6.8417273 4.5873475 0.58844864 0
-3.1331506 -7.1798801 2.6143916 0
-6.7387762 -3.8476794 2.8274517 0
4.7519364 -6.3687186 2.2525477 0
-2.8492832 -7.4952016 1.9799187 0
-3.0145245 -7.3170004 2.3646297 0
-7.3781614 -3.6752939 0.53869808 0
-6.0231514 5.1499357 2.3335168 0
-7.2061529 -3.7239602 1.5761399 0
-3.6619453 7.1314244 2.0034389 0
-2.8380594 -7.4958129 2.0098574 0
4.7400084 -6.5653052 1.6628995 0
-7.3712921 -3.6716499 0.72164559 0
4.7490878 -6.6701417 1.1423626 0
-6.7091465 4.6747489 1.2338178 0
-5.6293235 5.4083743 2.7343264 0
-6.2134657 5.0150123 2.1625051 0
4.7432909 -6.7705126 0.31140244 0
-3.0858202 -7.2397027 2.5504801 0
-7.3610115 -3.6661961 0.90403342 0
4.545784 6.5838747 2.1117325 0
-5.2344222 5.6630392 3.0016661 0
-6.8482599 4.5901155 -0.71999776 0
0.83396232 8.1739674 -0.98957849 0
4.5352273 6.7700887 1.4480786 0
-2.9406457 -7.3912325 2.2852213 0
-5.7172594 5.3508081 2.6802001 0
4.7477503 -6.7791648 0.082018614 0
4.5337076 6.7165942 1.6849539 0
-3.5106726 7.3518376 1.4609902 0
-3.4232841 7.4834728 -0.89356434 0
-6.081068 5.102284 2.3485146 0
-6.7794733 4.6264553 1.0865424 0
-2.9261684 -7.4062371 2.2652383 0
4.7450957 -6.774014 -0.37878907 0
-3.8244886 6.867331 2.6027932 0
-6.3855877 4.8846049 1.9845529 0
-2.6292982 -7.6853418 1.6141715 0
-2.5659318 -7.871232 0.25433409 0
0.93921936 -8.170311 -0.98646247 0
-2.6789956 -7.6526499 1.6975467 0
-6.5943813 4.7675977 1.5516577 0
-3.3321609 -6.9874387 2.9501734 0
-7.4321642 -3.6506979 0.25874662 0
-7.0638275 -3.7555234 2.154263 0
-3.4313622 7.4936876 0.86291337 0
-3.5626469 7.2786326 1.7337437 0
-2.755434 -7.5606971 1.980021 0
-7.4394979 -3.6528566 -0.075968087 0
-6.4588356 4.8484874 1.8640766 0
-5.9849491 5.1814494 2.459861 0
-3.6267819 7.1891298 1.9701228 0
4.7459574 -6.7756853 0.54009902 0
4.7535477 -6.7904134 -0.1491431 0
-2.6007209 -7.7435727 1.415802 0
0.93830228 8.178546 -0.98807299 0
-6.5887833 4.7631593 1.6295087 0
-3.5431147 7.3173399 1.6305904 0
-2.7318883 -7.5826921 1.9517467 0
4.7415457 -6.5927258 1.6875527 0
-3.4946418 7.3823085 1.4442308 0
-7.4366589 -3.6520209 -0.41151726 0
-6.8489494 4.5904074 0.91475403 0
4.5436559 6.7914615 1.4365044 0
-5.7359061 5.3278785 2.7478414 0
-3.3546758 7.5898671 -0.013019264 0
-3.63411 7.1805305 2.0254974 0
-6.974968 4.4974961 -0.067586184 0
-2.6582012 -7.6870837 1.6508033 0
-7.4356775 -3.651732 0.59271717 0
-5.8334284 5.2653341 2.6881895 0
-2.5624223 -7.9009008 -0.0028115511 0
-6.7801905 4.6269794 1.2692907 0
-3.6602573 7.127677 2.1890454 0
1.042581 -8.1816769 -0.98657894 0
-6.1976042 5.0132499 2.3407707 0
4.751936 -6.7872858 -0.61440551 0
-6.9795141 4.4993458 0.26131916 0
-3.7112393 7.0651808 2.3102462 0
-3.0010004 -7.3158131 2.5530329 0
-3.4229622 7.4830656 1.154392 0
-7.427742 -3.6493964 -0.74813783 0
1.0422726 8.1848602 -0.9872005 0
-3.3586583 7.593626 0.33533216 0
-3.3494167 7.5830173 -0.60110128 0
-7.1854572 -3.7175455 1.9062643 0
-6.9678984 4.4946194 0.58986187 0
-3.6980829 7.0751848 2.3172336 0
-2.8388467 -7.4982824 2.1976533 0
-3.5112371 7.3531933 1.6477211 0
4.7485847 -6.7807832 0.76947677 0
-2.5641818 -7.9037409 -0.2899422 0
-3.3613586 7.5985713 -0.30765057 0
-6.3314934 4.9306231 2.175652 0
4.5274324 6.9734211 0.077938437 0
-6.9805698 4.4997754 -0.39831269 0
-5.3627877 5.5942063 3.0142093 0
-3.0361724 -7.2830791 2.6235313 0
-3.4602518 7.4502697 1.2902112 0
-6.0898104 5.0942645 2.4716384 0
-2.5733137 -7.886343 0.59735942 0
-6.2017927 5.0158906 2.3569994 0
-7.3820677 -3.6773663 1.0867064 0
-3.2283554 -7.0759182 2.9554219 0
4.752141 -6.6778827 1.4325104 0
4.5353012 6.7702432 1.6804671 0
4.7404308 -6.7649627 0.99803805 0
-3.3590021 7.5945234 0.52519989 0
-2.5678811 -7.9097128 0.28279793 0
-6.8332586 4.5837598 1.2406278 0
-6.5821047 4.7579775 1.8113728 0
-2.5605407 -7.8978629 0.56835866 0
-3.3575549 7.593617 0.57190335 0
-3.9516749 6.6913834 2.9793041 0
-6.9869766 4.496213 0.53444648 0
-3.3691216 7.6086817 0.27916503 0
-6.7104969 4.675344 1.5600214 0
4.7507052 -6.7848978 -0.85026705 0
-6.9671297 -3.7871387 2.5406644 0
4.53263 6.9846668 -0.15593112 0
-2.8460445 -7.4905858 2.2703652 0
4.524004 6.9660034 -0.62399495 0
-7.3697033 -3.6708074 1.2689245 0
-3.7556815 6.964406 2.6093261 0
4.5324578 6.9842944 0.30966461 0
-5.4738178 5.5080261 3.0207162 0
4.5415125 6.7271132 1.8833084 0
-7.4333429 -3.6510448 0.92703176 0
1.1458189 -8.1950111 -0.98736775 0
-2.8395872 -7.4920492 2.2928813 0
4.528862 6.9765148 0.54158568 0
-6.9834423 4.493782 0.71944129 0
-6.5804873 4.7612362 1.8756952 0
-6.3928156 4.890553 2.1691749 0
1.1455829 8.1978722 -0.98792577 0
-2.6576042 -7.6850047 1.8387682 0
4.5340796 6.9878039 -0.3910051 0
-6.7830181 4.6290464 1.4526601 0
4.5588245 6.498363 2.5592978 0
-2.5706453 -7.9141755 -0.58016372 0
-3.7933059 6.9405632 2.6511042 0
4.5405049 6.7827506 1.7281077 0
-6.986207 4.502069 -0.73149455 0
-3.3698449 7.574482 0.9466548 0
4.7529159 -6.5894928 1.9014688 0
4.7463455 -6.5988212 1.8859377 0
-6.7470655 -3.8579328 3.0401468 0
-3.3546138 7.5897865 -0.90016139 0
1.2501746 8.1939516 -0.98563957 0
-3.3637714 7.6069746 0.71441364 0
-6.9247799 -3.7960284 2.7072318 0
4.7535319 -6.3726001 2.5470922 0
-2.6802387 -7.6545339 1.9870367 0
-5.9609151 5.187573 2.6997924 0
-3.358171 7.5923538 0.90404212 0
-2.6496062 -7.6571627 2.02389 0
-7.0787735 -3.7640102 2.340039 0
-6.9775152 4.4985323 0.91913021 0
-6.2039614 5.0101566 2.4860635 0
-7.3637342 -3.6676407 1.4513927 0
-2.5641112 -7.9036269 -0.86983621 0
-2.5650735 -7.9051805 0.85447526 0
-2.9202251 -7.3980198 2.5579791 0
-5.8695583 5.261023 2.7699387 0
-3.362247 7.5997281 0.8650707 0
-5.587976 5.4236064 3.0286942 0
-2.5765538 -7.8929758 0.94148397 0
-2.6087751 -7.7561684 1.7052381 0
-3.5003638 7.3893356 1.7409766 0
-3.567564 7.2844982 2.0325093 0
-2.6327167 -7.6920919 1.9599528 0
1.2490389 -8.2106323 -0.98888946 0
-7.1061773 4.4040995 0.2598809 0
-6.5832386 4.7588573 1.995225 0
4.7466116 -6.7769551 1.2305951 0
-2.8387365 -7.4979372 2.3864565 0
-7.1112623 4.4060845 -0.072447777 0
4.5311327 6.9814277 -0.86586094 0
-3.6646461 7.1374202 2.378674 0
4.7494707 -6.6711125 1.7232699 0
-6.3319082 4.9347582 2.3679538 0
1.3538861 -8.2005377 -0.98569191 0
-3.5443845 7.3193254 1.9803069 0
-3.4572258 7.445384 1.6382787 0
-7.1071367 4.4044743 -0.40551198 0
4.5364695 6.9929733 0.77459025 0
-6.9990158 4.5044937 0.904037 0
-3.350698 7.5846863 1.1575189 0
-2.9371781 -7.3850574 2.6326442 0
-3.5191393 7.3721743 1.8375666 0
-6.7830133 4.6290426 1.6364636 0
-3.4348674 7.4981203 1.4507277 0
1.3536556 8.2048283 -0.9865272 0
-3.3592253 7.5951056 1.0933757 0
4.5376644 6.7751689 1.9172654 0
-3.8649721 6.8042459 2.9899316 0
-3.363297 7.5635662 1.2942595 0
-3.6354656 7.1821012 2.3262806 0
-3.6267214 7.1890383 2.321101 0
-5.9743237 5.175632 2.7833328 0
-2.5672374 -7.8739042 1.284884 0
-6.988987 4.4975953 1.0887887 0
-3.2933221 7.7080359 -0.016018391 0
-3.1361661 -7.1849079 2.9675002 0
-6.4718132 4.8546562 2.1937683 0
-2.7677112 -7.5787368 2.2768264 0
4.531074 6.9813004 1.0070066 0
4.5440359 6.7305131 2.0821109 0
-3.2915034 7.705596 0.27863324 0
-6.8400679 4.5866442 1.5703051 0
-3.2814841 7.692153 -0.60675597 0
-7.1101103 4.4056349 0.59159267 0
-7.44238 -3.6537049 1.2634389 0
-6.9716043 4.4856396 1.272758 0
4.7397332 -6.7636094 1.4615867 0
-2.5642581 -7.9038639 1.1413548 0
4.747448 -6.579247 2.1353879 0
4.7455301 -6.597785 2.0844915 0
-3.2949986 7.7102857 -0.31194264 0
-6.9749165 4.4974751 1.2491786 0
1.4576385 8.2068195 -0.98597383 0
-6.0866661 5.1066141 2.7110875 0
-2.73876 -7.5957947 2.3014455 0
-6.4004774 4.8968582 2.3557591 0
-7.3715582 -3.6717908 1.6355996 0
4.5363846 6.771359 2.0217497 0
-6.7160568 4.6777945 1.8898664 0
1.4573588 -8.2139235 -0.98735595 0
-7.113781 4.4070673 -0.74172676 0
-5.7177024 5.351182 3.0424628 0
-7.1934395 -3.7200198 2.2443752 0
-6.5779161 4.7547278 2.1790085 0
4.5266924 6.9718208 1.240243 0
-3.2950916 7.7104101 0.57287145 0
-3.7070184 7.058979 2.6622696 0
-3.5152106 7.3627377 2.0250807 0
-6.3331347 4.9314318 2.5045648 0
1.5616707 8.2044468 -0.98486197 0
-6.4531002 4.8453054 2.3769517 0
-3.3627548 7.6043205 1.2833745 0
-3.2826176 7.6936736 -0.90640438 0
-6.7860518 4.6312637 1.8215086 0
-3.7070312 7.0852575 2.6246533 0
-2.8473697 -7.4924746 2.5672653 0
-6.0895472 5.0941253 2.800168 0
-6.9739504 4.4872532 1.457819 0
-2.6555367 -7.6778064 2.2171681 0
-3.4305639 7.4926782 1.7468231 0
-6.5875473 4.7644687 2.2067432 0
4.5256691 7.1001053 0.27702928 0
-3.4987578 7.387363 2.0394037 0
-5.8294764 5.2620916 3.0502105 0
-6.1999702 5.0145216 2.7190049 0
-2.6098785 -7.7578936 1.9964354 0
4.5210238 7.0866661 0.57412243 0
4.7463684 -6.6632471 2.0165238 0
-3.3564444 7.5921702 1.453918 0
-7.1216736 4.4101481 0.92443335 0
-7.2429953 4.3101029 -0.077101588 0
-6.9598818 -3.7847779 2.8783178 0
-2.6828403 -7.6584768 2.2812119 0
-7.1834774 4.352221 0.71739781 0
-7.1956844 4.3601112 0.52987778 0
-3.2957425 7.7112842 0.8676306 0
-3.2825494 7.7074766 0.9503324 0
1.5611229 -8.2263098 -0.98911297 0
4.5209522 7.1173368 0.093484402 0
-7.2382812 4.3083401 -0.41322809 0
4.5381002 6.7760787 2.157104 0
4.5205336 7.1167374 0.29694891 0
-2.5668159 -7.9079928 1.4306707 0
-3.0381494 -7.2864847 2.9775922 0
-7.3746014 -3.6734056 1.8203895 0
-2.8405294 -7.493784 2.6438329 0
-7.2495337 4.3125477 0.25811374 0
4.7406149 -6.9755597 0.3082304 0
-6.9671078 4.4942975 1.5803628 0
1.6654172 -8.215395 -0.98662901 0
-7.439889 -3.6529715 1.6010923 0
4.7399826 -6.9742885 -0.40044421 0
4.5481129 6.7360086 2.2828457 0
-3.2154012 7.8061361 -0.017745733 0
4.7437115 -6.9817858 -0.16369176 0
-6.4434576 4.8411784 2.5184109 0
-2.5689292 -7.877368 1.6319814 0
-3.2145662 7.8049822 0.27802968 0
-3.571238 7.2888799 2.3354497 0
-3.45719 7.4453268 1.9898405 0
4.7424707 -6.98421 0.27764452 0
1.6653445 8.2221832 -0.98794866 0
-6.778141 4.6254816 2.0058327 0
4.5135431 7.106729 0.70226431 0
-6.836359 4.5850735 1.9015317 0
4.7474327 -6.9892669 0.072202444 0
-3.3650484 7.6103091 1.4740043 0
-3.3691254 7.5732832 1.6460571 0
4.5305209 6.980104 1.4778552 0
-3.5144787 7.3609791 2.214716 0
-7.1885233 4.3554831 0.90403903 0
-3.5407138 7.3135843 2.3322964 0
4.5260162 7.1245871 0.49923837 0
4.7511096 -6.7856827 1.7018385 0
-3.7905483 6.9366331 3.0072517 0
-2.5280228 -8.0710497 -0.0094872713 0
1.7693937 8.2118864 -0.98587465 0
-5.9475369 5.1769152 3.0604634 0
4.7412262 -6.980917 0.57369399 0
-6.5824308 4.7582312 2.366235 0
4.7564116 -6.6116033 2.2873962 0
4.7459784 -7.0026736 0.089897156 0
-2.5263777 -8.0683069 -0.3005144 0
-3.2129426 7.8027368 -0.61272013 0
4.7418456 -6.9780345 -0.64063716 0
4.74401 -7.000021 0.29444182 0
-3.6308212 7.1767197 2.6296384 0
-7.1135912 4.4069934 1.2575181 0
-3.2158132 7.806706 0.57340741 0
4.7460017 -6.9863896 0.54338062 0
-2.6381469 -7.702817 2.3109775 0
-6.9820375 4.492816 1.6442673 0
-2.7650719 -7.5748587 2.5728889 0
-3.2944679 7.7095737 1.1632648 0
4.7402153 -6.9949059 0.49831116 0
-7.2582893 4.3158216 0.59344923 0
4.525857 7.1006498 0.87210476 0
-6.9178419 -3.7922294 3.0715613 0
-2.6541014 -7.6728115 2.4079092 0
1.7694316 -8.2224741 -0.9879328 0
-2.5192823 -8.0689831 0.51600552 0
-3.2280855 7.8236742 -0.31647444 0
-2.5325961 -8.0786743 0.28060019 0
-6.3250246 4.9297419 2.7305756 0
-2.5122862 -8.0871191 0.25134134 0
-6.5868921 4.7628512 2.3891344 0
-2.5257902 -8.0673275 0.57056868 0
-6.2188025 5.0177388 2.8214552 0
-7.2555504 4.3147974 -0.75394404 0
-2.5234213 -8.0851231 0.32029331 0
-3.3615675 7.6012216 1.6640475 0
4.5381508 6.7762423 2.3225493 0
-3.6238122 7.1846285 2.6756744 0
4.7457447 -6.9858723 0.77899873 0
-7.688509 -3.5800657 -0.087462544 0
4.5132322 7.1751242 0.30676961 0
4.5382729 6.7227464 2.4810421 0
-7.6870241 -3.5796516 0.25481164 0
-6.719553 4.6793346 2.2233684 0
4.5203028 7.0845795 1.1694331 0
-7.3794394 -3.6759722 2.0066347 0
1.8734454 8.2176037 -0.98720312 0
-3.2021046 7.8521972 0.3221271 0
-7.6795359 -3.5732944 0.52837443 0
-2.5202446 -8.0727367 0.71004164 0
4.74365 -6.9816618 -0.88377011 0
-2.5324855 -8.0784893 -0.59495187 0
-2.5654807 -7.9058375 1.721648 0
4.5172796 7.1842203 -0.17127651 0
-2.9360662 -7.3830776 2.986505 0
-3.3591533 7.5956984 1.7527418 0
-7.2515163 4.3132892 0.9289782 0
-3.1999969 7.8461828 0.51674771 0
-2.5217848 -8.0606489 0.86025155 0
4.5278015 6.9742203 1.7157173 0
4.5268087 7.1257219 0.9040581 0
4.7473097 -7.004468 0.70101786 0
-7.6919594 -3.5794353 0.33906329 0
4.743639 -6.7711873 1.9376225 0
-3.2897029 7.719799 1.3027592 0
-3.4311709 7.4934459 2.0472636 0
-6.7771311 4.624743 2.1923149 0
-7.203166 4.3649473 1.0912266 0
4.7447195 -6.9901586 0.87056088 0
-7.6895199 -3.5803478 -0.43105674 0
4.7402568 -6.9748397 1.0144129 0
4.7380819 -6.9920306 0.90405858 0
-7.1188412 -3.7386868 2.7404087 0
-3.2173834 7.808877 -0.91499746 0
4.521142 7.1929016 0.067598939 0
-3.1979752 7.8494787 0.60185575 0
-2.5156765 -8.0943174 0.60019743 0
4.5178432 7.1854868 -0.41228729 0
-2.6090493 -7.756597 2.2909288 0
1.9772323 8.2083673 -0.98591352 0
-2.7395582 -7.5973158 2.6539457 0
1.8737277 -8.2333794 -0.99027014 0
-3.2896833 7.7031541 1.4598405 0
-3.4987512 7.3873549 2.3423157 0
-3.2254143 7.8199806 0.87004113 0
-6.9622145 4.4923062 1.9143062 0
-7.1908131 4.3569632 1.2779315 0
-2.5200663 -8.0720406 0.90404797 0
-7.3834734 4.2145205 0.25650585 0
-7.3869295 4.2157569 -0.082487464 0
-7.1984739 -3.7215803 2.5869825 0
1.9774452 -8.2149773 -0.98719895 0
-7.6941957 -3.5816514 0.59671819 0
4.5192223 7.1885872 0.54488754 0
-2.6796145 -7.6535883 2.5776665 0
-3.5164838 7.3657956 2.4070613 0
-7.689208 -3.5780752 0.71605814 0
-7.4387445 -3.6526349 1.9416943 0
-2.5318894 -8.0774956 -0.89069378 0
4.7534237 -6.6078086 2.4884582 0
-6.582675 4.7622375 2.5398326 0
-3.1387725 7.9077635 0.27733612 0
4.525919 7.1244478 1.1063547 0
-3.2031279 7.8551154 0.71028233 0
-3.3604937 7.5984168 1.8552513 0
-7.6850433 -3.5790992 -0.7761308 0
4.5178828 7.185576 -0.65526688 0
-7.3869362 4.2157593 -0.42266017 0
4.7515416 -6.6763625 2.3183985 0
4.5148373 7.1787314 0.78298807 0
-2.5681915 -7.8758583 1.9814615 0
-6.7077341 4.6695971 2.3984563 0
-6.4489765 4.8423896 2.7420626 0
-7.3685017 -3.6701696 2.1914227 0
-6.9959784 4.5024042 1.8328168 0
-3.1456041 7.9174991 -0.020376742 0
-6.3384857 4.9340696 2.8400609 0
-3.1998038 7.8456321 0.90404737 0
-7.6775293 -3.5770042 0.93826509 0
-6.0877991 5.1074901 3.0785398 0
-3.5627465 7.2787519 2.6386435 0
-7.4020929 4.2158117 0.33541298 0
-7.6856508 -3.5763171 0.90404046 0
-7.1200705 4.4095225 1.5939558 0
-3.1965036 7.846858 0.95443988 0
-3.4516239 7.4363413 2.3432665 0
2.0813615 8.2101088 -0.98704827 0
-2.5237494 -8.0639248 1.1514673 0
-3.2185268 7.8104577 1.1664474 0
4.7449207 -6.9906912 1.1683931 0
-7.3904934 4.2170315 0.59502411 0
-3.7102203 7.0636835 3.0230217 0
4.743454 -6.9812675 1.2528012 0
4.5168076 7.1831603 -0.90042317 0
-6.9728088 4.4864683 2.0168533 0
-7.1910677 4.3571277 1.4654067 0
-3.3733702 7.5803595 2.0011919 0
4.5248299 6.9677911 1.9562364 0
2.0817442 -8.2183304 -0.98864806 0
-7.4033966 4.2166028 0.52522743 0
-2.5228195 -8.0827761 1.0982962 0
-7.2577581 4.3156228 1.2664473 0
-6.7734642 4.6220627 2.3795514 0
-6.8444538 4.5885029 2.2386513 0
-2.8319874 -7.4780493 2.9953017 0
4.7515793 -7.010222 1.1072674 0
4.5238123 7.0947332 1.4707994 0
2.1849437 -8.199769 -0.98612142 0
2.1850142 8.2009258 -0.98634672 0
-3.1572261 7.9340625 -0.3207432 0
-3.533524 7.3023415 2.6871097 0
-7.4007044 4.2149701 0.71481061 0
-3.2866688 7.7145729 1.6558523 0
4.5301542 7.1305118 1.3092158 0
-3.354928 7.5901957 2.0529885 0
-2.5637078 -7.902976 2.0155225 0
-2.5244703 -8.1129923 0.95069993 0
-3.1520429 7.9266758 0.57446706 0
-7.68892 -3.5779331 1.0920157 0
-7.3993425 4.2201962 -0.76653516 0
-7.3920107 4.2096977 0.90404177 0
-6.2033358 5.0170488 3.0884728 0
-3.3602686 7.5978303 2.0476928 0
-3.204123 7.8579559 1.0978835 0
4.7467403 -6.777205 2.1822748 0
-3.1550527 7.9309649 -0.62141907 0
-2.5212822 -8.0767822 1.2924664 0
-3.4242706 7.4847207 2.3490853 0
-3.2902031 7.7038512 1.7598147 0
-6.453228 4.8458223 2.8574312 0
2.2884879 -8.1904593 -0.9856832 0
4.5232391 7.1976147 1.0239592 0
-2.6362762 -7.6991224 2.6639142 0
-7.186532 4.3541961 1.6529751 0
4.7408457 -6.9760246 1.4916816 0
-2.5218139 -8.0606976 1.4438043 0
4.7424116 -6.9840536 1.4671495 0
2.2890527 8.1979637 -0.98714602 0
4.7517891 -7.0105047 1.3107128 0
-7.369791 -3.6708536 2.3796597 0
-7.682024 -3.5782576 1.281776 0
4.5390573 6.778749 2.6279268 0
-6.578517 4.7571077 2.7553539 0
-3.2011914 7.8495917 1.2915165 0
-7.4048271 4.2221584 0.93488359 0
-6.7175398 4.6784477 2.5603077 0
-3.1992941 7.8518276 1.3088679 0
-7.691309 -3.5791135 1.2803192 0
-3.1517949 7.926322 -0.92412007 0
-2.6069269 -7.7532778 2.5894578 0
4.5175114 7.1847425 1.263587 0
-2.5185499 -8.10042 1.3009102 0
-3.2239099 7.8179002 1.4664178 0
4.5312681 7.1321068 1.512481 0
-7.3987112 4.2137613 1.0932195 0
-7.1102943 4.4057064 1.931015 0
-7.4277172 -3.649389 2.283998 0
4.740962 -6.9959135 1.5133204 0
-3.158494 7.9358692 0.8729527 0
4.7450218 -6.6598325 2.6176336 0
2.3928442 -8.1906881 -0.98739529 0
-7.1770697 4.3480797 1.8404226 0
-6.8502407 4.5886364 2.4130125 0
-6.9667931 4.4941697 2.253581 0
-2.5219584 -8.0794191 1.4873936 0
-7.2568445 4.3152814 1.6055136 0
-3.4996128 7.3884134 2.6505196 0
-6.9859419 4.495501 2.2080286 0
2.3934112 8.19701 -0.98862898 0
-3.1114235 7.9927816 0.60331535 0
-3.0746341 8.0297375 -0.02310133 0
-3.1992826 7.8441458 1.4853735 0
-7.6838636 -3.5754337 1.4683886 0
-2.4854484 -8.2344255 -0.015727282 0
2.4955602 8.1725254 -0.98580706 0
-2.4832644 -8.2306643 -0.31083071 0
-3.3595977 7.5960784 2.2411635 0
-6.3293352 4.9328828 3.1022034 0
-3.075676 8.0312681 -0.32368338 0
-3.1498585 7.9235625 1.171021 0
-2.4868617 -8.2368603 0.27862799 0
2.4962797 -8.1794338 -0.98715723 0
-2.7347007 -7.5880547 3.0090342 0
-3.6280994 7.1911259 3.0391407 0
4.7353444 -7.1872706 -0.17952394 0
4.5278101 7.1063013 1.7757516 0
-7.3977203 4.2196164 1.2750621 0
-2.5704584 -7.8804979 2.3360419 0
4.5262146 7.1248713 1.7154939 0
-3.0812635 8.0394783 0.2760154 0
-3.1036806 7.9785194 0.95812869 0
-2.4829488 -8.2301197 0.57263589 0
4.7432327 -6.9808226 1.7349877 0
4.7393847 -7.1956935 0.062666893 0
4.7367258 -6.9902034 1.7167749 0
4.5163827 7.1822047 1.5060823 0
4.7385244 -7.1939006 0.30482197 0
-6.5826197 4.7622128 2.8793788 0
-2.5201607 -8.0579424 1.7384822 0
-3.3709173 7.5762701 2.3583255 0
4.5360937 6.9921608 2.2092576 0
4.7346621 -7.1858487 0.546422 0
-3.2867417 7.7146978 2.012543 0
-2.5634732 -7.902597 2.3138511 0
-3.2148643 7.8053937 1.7657166 0
-7.4109764 4.221199 1.2832711 0
-6.7041149 4.6671906 2.7677667 0
-6.8361168 4.5849705 2.5768769 0
-2.4873538 -8.2377081 -0.60897219 0
-3.0801997 8.0379152 0.57535148 0
2.5996096 8.167408 -0.98705733 0
4.7398992 -7.1967654 -0.42498481 0
-2.5216293 -8.0781364 1.6827059 0
-7.2083111 -3.7246292 2.9368773 0
-3.1957965 7.8455982 1.6642909 0
-3.2942638 7.7092996 2.0643382 0
-3.3591876 7.5957432 2.3600681 0
-3.0826287 8.0414848 -0.62752748 0
-3.198946 7.8431845 1.6800375 0
-7.6883698 -3.5800271 1.627955 0
-7.1308479 -3.7450392 3.1158266 0
2.6006286 -8.1759987 -0.98873878 0
-7.3949842 4.2115011 1.4720919 0
-3.0718565 8.0256557 0.87424254 0
2.7016387 -8.1455631 -0.98532164 0
-2.482223 -8.2288704 0.86679053 0
-7.6869736 -3.5769708 1.6577837 0
4.7338305 -7.1841145 0.78805995 0
4.7475643 -6.997685 1.7714128 0
-2.5179172 -8.0990763 1.6538177 0
4.5181522 7.1133285 1.9183655 0
-3.4217887 7.4815817 2.6569386 0
-3.1462498 7.9184198 1.4709373 0
-6.9863052 4.4957509 2.3984981 0
-7.1888971 4.3557243 2.0319319 0
4.7429371 -7.2030983 -0.67274284 0
-3.0765634 8.0325718 -0.93119037 0
2.8038163 8.1263275 -0.98438156 0
2.7036028 8.1603127 -0.98821402 0
4.7347879 -7.186111 -0.91872251 0
-7.5890808 4.1381602 -0.43711424 0
-7.2482872 4.3120818 1.9461391 0
-7.3245182 -3.6826284 2.7765691 0
-3.4638333 7.4560509 2.7085729 0
-3.0286336 8.0939989 0.50833607 0
-6.9867611 4.5013762 2.4263339 0
-3.360477 7.5983739 2.4368496 0
4.7360086 -6.9892373 1.9214749 0
-2.5195894 -8.0701828 1.8780022 0
4.5214567 7.0879173 2.0787954 0
-2.4912114 -8.2443533 -0.91017973 0
-7.3924665 4.2177372 1.6170385 0
-3.0352821 8.1148682 0.30840993 0
-7.1118059 4.4062963 2.2734418 0
-6.4693813 4.8568172 3.1208024 0
-7.6114435 4.1458001 0.25314546 0
4.505991 7.4060793 -0.18867183 0
4.5196581 7.1895666 1.753186 0
-2.4820213 -8.2285223 1.162014 0
-7.6828957 -3.5749552 1.8472285 0
-3.1094842 7.9892101 1.3155918 0
4.7454424 -6.9852653 1.9819047 0
-7.6175776 4.1478953 -0.092724323 0
4.7381334 -7.1930842 1.0314879 0
-2.9969254 8.1345091 -0.32735145 0
-3.1990199 7.8433952 1.8756478 0
4.5065985 7.4074979 0.30309832 0
-3.0735703 8.0281734 1.1747558 0
-7.3995972 4.2142987 1.6629074 0
2.8073578 -8.1502934 -0.98909056 0
-3.5392084 7.3112307 3.053154 0
-3.0021448 8.1424198 -0.025892377 0
-2.6355281 -7.6976452 3.0229626 0
-3.0314426 8.1028156 0.70608628 0
4.503562 7.4004025 0.54816687 0
4.5106754 7.4170251 0.057052732 0
4.5134363 7.1065755 2.122509 0
4.507586 7.4098063 -0.43702805 0
2.9084597 -8.123003 -0.98686028 0
-2.456037 -8.3092155 0.60316575 0
4.5019598 7.396657 -0.68490016 0
2.9088569 8.1254473 -0.98734164 0
-7.9489012 -3.5037525 -0.099587202 0
-2.4641385 -8.3270769 0.24789178 0
-7.6114149 4.1457896 0.59825397 0
-3.0169168 8.1261349 0.6045922 0
-7.4324121 -3.6507709 2.6339564 0
4.7413292 -6.9811893 2.0738239 0
-3.0067897 8.1494598 0.27514434 0
-6.7230759 4.6808872 2.9047797 0
-2.5268197 -8.0690432 2.0393534 0
4.5076952 7.4349203 0.27159238 0
-7.9496517 -3.5039501 -0.45127344 0
-7.9577856 -3.5060933 0.25058615 0
-3.0015788 8.1415625 -0.63219559 0
-7.609458 4.1451216 -0.78784668 0
-3.2878561 7.7007022 2.369458 0
-7.1961937 4.3604403 2.2244692 0
4.7370892 -7.1909075 1.2755871 0
-7.9471588 -3.5032933 0.60062194 0
4.5062723 7.4067359 0.79376066 0
-2.561264 -7.8990312 2.6159935 0
-3.0079279 8.151185 0.57629168 0
-7.6759205 -3.5715077 2.0370409 0
3.0118937 8.1106367 -0.98785579 0
-3.2833662 7.7088833 2.3718762 0
-6.8554363 4.5919857 2.7874856 0
-7.6027021 4.1428137 0.94330049 0
-3.2256002 7.8202376 2.0738215 0
4.7381239 -6.9920883 2.1279044 0
-3.3509703 7.585041 2.6671422 0
-3.0354056 8.1152563 0.90405321 0
3.012835 -8.1159515 -0.98890483 0
-7.3982792 4.2134995 1.8539948 0
-3.1977558 7.8490887 2.0240388 0
4.5081444 7.4362822 0.57983255 0
-2.5182018 -8.0996809 2.0100009 0
-3.1543307 7.9299359 1.7762194 0
-7.9438009 -3.5024085 -0.8043313 0
-6.5931492 4.7671428 3.1342869 0
-3.0159302 8.1242533 0.96270192 0
-2.5718822 -7.8834133 2.6953886 0
3.1129627 8.0850592 -0.98653173 0
-7.6994095 -3.5831053 1.978349 0
4.7346258 -7.3194084 0.27220416 0
4.5069017 7.4082074 -0.93974721 0
-3.0323181 8.1055641 1.1020868 0
-7.0023479 4.508637 2.6055617 0
-7.3854389 4.2152238 1.9612703 0
3.1145172 -8.0931587 -0.98813474 0
-3.2016001 7.8507576 2.0734017 0
4.5052099 7.4042525 1.0398979 0
-3.002862 8.143507 -0.93928838 0
-3.0784178 8.0352964 1.4780083 0
-3.1075044 7.9855633 1.6740952 0
-3.3729062 7.579586 2.7219987 0
3.2140012 8.0601912 -0.98563135 0
4.5058184 7.4292269 0.88808441 0
-2.5268369 -8.0984421 2.0792375 0
4.519681 7.0827799 2.3878496 0
-3.0097399 8.1539307 0.87801504 0
4.7349081 -7.3201885 0.57921016 0
-7.2461805 4.3112941 2.2912505 0
3.2152104 -8.0660381 -0.98679185 0
4.7474394 -6.9892793 2.2330565 0
-2.4934907 -8.2482796 1.4618731 0
-2.4373889 -8.3950453 -0.021788478 0
-2.466774 -8.3328886 0.95989251 0
-7.9534216 -3.5049434 0.95123208 0
-7.1878262 4.3550324 2.4153783 0
4.7372856 -7.1913171 1.5220733 0
-6.8466244 4.5894222 2.9254467 0
4.5283308 7.2090578 2.0072989 0
-6.9676895 4.4894676 2.79669 0
-3.0314608 8.1028738 1.3002043 0
-7.709939 4.1224046 0.32015657 0
-2.4386401 -8.3972731 -0.32155323 0
-7.3935089 4.2106066 2.045486 0
-2.4406457 -8.4008446 0.27654219 0
-7.6030874 4.1429453 1.2898092 0
-2.9231553 8.2478132 -0.33214885 0
3.3168674 8.0440779 -0.98675871 0
-2.9252019 8.2510138 0.27443349 0
-3.1394076 7.9086685 2.0781002 0
-3.0035739 8.1445866 1.1798077 0
-2.5221515 -8.0612602 2.3401632 0
3.4160299 8.0115147 -0.98489749 0
4.5306559 7.1312304 2.3339067 0
-2.9316139 8.2610416 -0.029092252 0
3.3188553 -8.0530405 -0.98854327 0
-2.4406061 -8.400774 0.57485628 0
4.736825 -7.325489 0.88690054 0
-7.719223 4.1276755 0.51464176 0
-8.0318394 -3.4804714 0.51542592 0
-7.6887407 -3.5778444 2.2313669 0
-3.4596982 7.4493761 3.0731335 0
-7.7083387 4.1214957 0.70974159 0
4.7421827 -6.9975581 2.3363919 0
-7.1147213 4.4074345 2.621011 0
-2.4407063 -8.4009533 -0.62353873 0
-3.2150178 7.8056064 2.3790281 0
4.5059509 7.4296293 1.1976337 0
-3.0288754 8.094759 1.4982221 0
-3.0185504 8.1292486 1.3226557 0
-3.2001953 7.8467484 2.2708378 0
-6.72085 4.6783185 3.1493235 0
-8.0456581 -3.486815 0.31952488 0
4.7436142 -6.987236 2.3846922 0
3.4187946 -8.0231867 -0.98722911 0
4.5110636 7.4179335 1.2895133 0
3.5158446 7.9825745 -0.9840399 0
-2.4621696 -8.3227367 1.3164968 0
-2.4852772 -8.2341309 1.7597075 0
-7.6737757 -3.5759575 2.326045 0
-8.0300264 -3.4796395 0.70988858 0
4.4930525 7.528594 0.48452473 0
-2.4357653 -8.3921547 0.87301457 0
4.5179296 7.1856813 2.2544723 0
-7.9493599 -3.5038733 1.3026471 0
-7.7062273 4.1202965 0.9040482 0
-3.0774393 8.0338593 1.7828369 0
-8.0200968 -3.475081 0.90404785 0
-2.5276184 -8.101491 2.2788777 0
-2.9315529 8.2609463 -0.63980472 0
4.5051394 7.5470037 0.061102986 0
-2.9357486 8.2675076 0.57730818 0
-3.2882738 7.701263 2.6818428 0
3.5196295 -7.9975924 -0.98705041 0
-2.9263825 8.2720337 0.60613203 0
-2.9239488 8.249054 0.87974644 0
4.7400074 -7.1969919 1.7724683 0
-7.3368206 -3.6889136 3.1578569 0
4.5080318 7.5514092 0.2722764 0
4.7330728 -7.4183369 0.052251339 0
-7.4291258 -3.6498036 2.9877186 0
-6.9688396 4.4950023 2.9459879 0
-7.3964376 4.2123828 2.2394543 0
4.5196133 7.1154199 2.5390346 0
-3.1059427 7.982686 2.0355334 0
-2.5171466 -8.0974388 2.3695817 0
4.7335796 -7.4217739 0.27093768 0
-3.1985941 7.8505812 2.3876243 0
-2.4458981 -8.4101982 -0.92943203 0
4.5014267 7.5413485 0.69405472 0
-2.5199423 -8.071558 2.4737844 0
4.7366295 -7.4260325 -0.19847065 0
4.7354689 -7.4235206 0.30121851 0
4.7328434 -7.41784 -0.44917411 0
-7.7099504 4.1224108 1.0983984 0
3.62076 -7.9731226 -0.98738706 0
-2.92904 8.2570162 -0.9479959 0
4.7389812 -7.4295082 0.057942867 0
-7.5269346 -3.619931 2.8118434 0
3.6210721 7.9742894 -0.9876219 0
4.7401419 -7.3346577 1.1964736 0
4.7330656 -7.4183207 0.55008137 0
-7.607584 4.1444812 1.6390035 0
-6.8393021 4.5815868 3.1616817 0
-2.4369564 -8.3942757 1.1726522 0
-7.393774 4.218205 2.3119783 0
-3.0116024 8.1567545 1.4858303 0
-3.0130033 8.1186724 1.6830516 0
4.4977884 7.5358081 0.9040674 0
-7.6907234 -3.578824 2.4255767 0
3.7193925 7.9395556 -0.98617935 0
4.5134754 7.4235702 1.5409365 0
-2.4745097 -8.2155838 2.0587173 0
-3.2882795 7.7173471 2.73946 0
3.71999 -7.9416695 -0.98660636 0
4.7393017 -7.4299669 0.48189735 0
-3.1999168 7.8459554 2.4702344 0
4.7318478 -7.4192939 0.69339991 0
-3.0353403 8.1150503 1.6992733 0
-2.9272237 8.273695 0.96753395 0
-8.0398521 -3.4841499 1.09846 0
4.7446833 -7.0009279 2.5463066 0
4.5217781 7.0888481 2.7047215 0
4.5103683 7.4430294 1.5107903 0
4.7359958 -7.4246607 -0.70402324 0
-2.5702 -7.8799686 3.0589085 0
-7.7104111 4.1226721 1.2929842 0
4.4939222 7.5299196 1.1137621 0
-3.0700717 8.0230331 2.0887265 0
-2.4627442 -8.3240032 1.6760452 0
-7.9488573 -3.503741 1.6563735 0
3.8205643 7.9150515 -0.98709059 0
4.7341032 -7.3179626 1.50525 0
-7.1274281 4.4142962 2.8190241 0
-2.9315004 8.2608633 1.1849039 0
3.8209243 -7.9162588 -0.98733544 0
4.7370563 -7.1908388 2.0236998 0
4.7375154 -7.427949 0.7997036 0
-7.2567205 4.3152351 2.644038 0
-3.3703542 7.5753317 3.0894904 0
4.7382617 -6.9730749 2.6952801 0
-2.9976525 8.1356115 1.7891901 0
-2.5231657 -8.0629511 2.6481838 0
4.7367001 -7.4262414 0.90406859 0
-8.0375309 -3.4830842 1.2929633 0
4.7303667 -7.4124818 1.0485644 0
-2.8604941 8.3820791 -0.032475352 0
-3.0320311 8.1046638 1.8984296 0
4.7362747 -7.4252648 -0.96090353 0
3.9198809 7.8841176 -0.98699021 0
-3.1525016 7.9273291 2.3935416 0
4.5093813 7.4140019 1.7923722 0
-2.8595085 8.3804874 -0.33900642 0
3.9209375 -7.8874836 -0.98767602 0
-2.8592629 8.3870096 0.29376674 0
4.4939337 7.641088 -0.20722437 0
-2.8638554 8.3875055 0.27298748 0
-2.4390559 -8.3980141 1.4745247 0
-3.2201052 7.8126402 2.6950889 0
-2.9241467 8.2676182 1.3296325 0
-7.4107103 4.2210374 2.437573 0
-2.8590565 8.3862915 0.49759984 0
-7.5936308 4.1397147 1.9884505 0
4.4958134 7.6456599 0.29933751 0
4.4979019 7.6507416 0.046016216 0
-2.8603172 8.381793 0.57829511 0
4.01929 -7.8534436 -0.98723304 0
-2.8561931 8.3763227 0.70118058 0
-2.8590455 8.3797398 -0.64740705 0
4.4954433 7.6447601 -0.46305507 0
-8.0336618 -3.4813082 1.4876511 0
4.4938765 7.6409478 0.55197346 0
4.0208035 7.8580341 -0.98817253 0
-2.9264579 8.2529783 1.4900432 0
4.502717 7.5433145 1.3244314 0
-3.1011162 7.9737959 2.3994322 0
-7.6795998 -3.5775814 2.6841621 0
-7.7261934 4.1316338 1.4892502 0
-6.9767752 4.495141 3.180378 0
4.7422981 -7.434257 1.1151624 0
-3.0273275 8.0898991 2.097518 0
-7.1223745 4.4104214 2.9758132 0
4.5106964 7.4440231 1.8255649 0
-2.8568292 8.3761625 0.88351059 0
4.7291889 -7.4154868 1.325418 0
4.1183257 -7.8215146 -0.98751068 0
-7.886797 4.0866871 -0.46039736 0
-2.8558598 8.3751621 0.90405881 0
-2.4065499 -8.5596199 0.24459183 0
-2.838398 8.4289732 0.24349904 0
-7.2506552 4.3145103 2.8316939 0
4.735342 -7.4232473 1.3013053 0
-2.8321371 8.4161568 0.60765183 0
-3.1930413 7.8406925 2.7532866 0
-3.0148864 8.122263 2.0482473 0
-2.4028468 -8.5511332 0.60664642 0
4.2140694 7.7803011 -0.98616314 0
4.1212921 7.8300967 -0.98927581 0
-7.9039946 4.0922885 0.24859691 0
4.4979134 7.6507688 -0.72176766 0
-2.3948207 -8.5727711 0.27430177 0
-7.9100475 4.0942597 -0.1063748 0
4.3077865 7.7342277 -0.98408222 0
-8.2226696 -3.4239068 -0.11245018 0
-7.7142391 4.124846 1.6840241 0
-2.5176926 -8.0985985 2.7347713 0
4.2168102 -7.787879 -0.98772955 0
4.4992304 7.538003 1.5347397 0
-2.8626995 8.3856392 -0.95964015 0
4.5081258 7.4110675 2.0481787 0
-7.8971424 4.0900564 0.60267723 0
-2.4620266 -8.3224211 2.0382924 0
-2.4350381 -8.3908596 1.777319 0
-2.4022021 -8.5863676 -0.029674768 0
-2.4825306 -8.2293997 2.3689456 0
4.740716 -7.1984687 2.2826307 0
-2.9959865 8.1330862 2.0984809 0
4.311554 -7.744195 -0.98615348 0
-8.2309227 -3.4259555 0.24631393 0
-3.0697021 8.0224905 2.4007478 0
-8.2222328 -3.4237983 -0.47263944 0
-2.4006891 -8.58358 -0.33421755 0
4.7398491 -7.333849 1.8209276 0
-7.3950148 4.2186489 2.6663635 0
-8.0392208 -3.48386 1.6837444 0
-2.3983493 -8.5408278 0.96839142 0
4.5028172 7.6626983 0.80606115 0
-2.3908081 -8.5843487 0.49408209 0
-2.8286495 8.4090176 0.97158313 0
-7.9566545 -3.5057952 2.0144691 0
-2.3976688 -8.5780172 0.57720232 0
-2.3931179 -8.5945635 0.28780425 0
-2.8582425 8.3834581 1.1071103 0
4.4062014 7.7008419 -0.98492026 0
4.4972119 7.6490626 -0.98219275 0
-2.397892 -8.5784283 -0.64007425 0
-2.9231963 8.2478771 1.7976778 0
-2.9250097 8.2693224 1.6945443 0
-8.2295742 -3.4256208 0.60506177 0
-2.8602867 8.3817434 1.1905355 0
-3.2838416 7.7097025 3.108717 0
-2.7806306 8.4921808 0.27218354 0
4.4939432 7.5299511 1.7451317 0
-2.7835603 8.4970646 -0.035522223 0
-2.3874989 -8.5697126 0.90406084 0
4.4119186 -7.7153354 -0.98794878 0
-7.7097683 4.1223068 1.8800113 0
-7.9082947 4.093689 -0.82065511 0
-7.8956451 4.0895686 0.95698094 0
4.7381201 -7.4282751 1.5377567 0
4.5037155 -7.6648846 -0.98551798 0
4.5005035 7.6570692 1.0601361 0
4.7377071 -7.4283628 1.5560689 0
-7.2450514 4.3108716 2.9969993 0
-3.1504765 7.9244432 2.7086625 0
-2.78371 8.4973145 -0.34428209 0
-8.0284224 -3.4789028 1.8788733 0
-2.7752199 8.483161 -0.65289247 0
-7.5332947 -3.6230662 3.1969948 0
-2.3976684 -8.5780153 0.88057661 0
-2.7789226 8.4893332 0.57915843 0
-2.8578777 8.3821888 1.3103206 0
-8.2291079 -3.4255052 -0.83592987 0
4.4907107 7.6332474 1.3129265 0
-2.394907 -8.602479 0.6987505 0
-3.03304 8.107831 2.3028321 0
-2.3995552 -8.5814915 -0.94963443 0
-8.2281322 -3.4252627 0.96414506 0
4.5109234 7.4447136 2.1438522 0
-7.1201487 4.4098945 3.2011495 0
4.6031113 -7.6330452 -0.98728418 0
-7.6008787 4.1421905 2.345104 0
-2.8541603 8.3692465 1.513061 0
-2.8283515 8.4084072 1.3369286 0
-2.398778 -8.54181 1.3317537 0
-2.8545713 8.3725176 1.4977636 0
4.5077624 7.4102182 2.3085263 0
-2.3942037 -8.5716333 1.1844282 0
-7.3927889 4.2235899 2.849658 0
4.6974578 -7.5891666 -0.9868021 0
4.7371292 -7.426856 1.749897 0
4.7373238 -7.3268671 2.1365767 0
-2.7828369 8.4958591 0.88684845 0
-2.7343283 8.5586338 0.24224412 0
-2.7816815 8.4939337 -0.96760666 0
-7.8973751 4.0901322 1.3127706 0
-2.439146 -8.3981743 2.0861309 0
-2.3932691 -8.595233 1.1092002 0
-8.2098331 -3.4207203 1.3229218 0
4.4981384 7.5363402 1.9580112 0
-7.7496243 -3.5619938 2.8522909 0
4.4908419 7.6335669 1.5702219 0
-7.7173395 4.126606 2.0787754 0
-2.4588804 -8.315484 2.4033036 0
-8.0341291 -3.4815228 2.0770659 0
4.7398095 -7.4329123 1.813941 0
-2.4813991 -8.2274504 2.6804569 0
-2.8530493 8.3653793 1.7167168 0
4.485467 7.7860346 0.58552289 0
4.7303076 -7.6629958 0.040633678 0
-3.0312529 8.1022205 2.5059481 0
-2.7350087 8.5600786 0.60918367 0
-3.0021167 8.1423769 2.415055 0
-2.3911095 -8.585681 1.3141053 0
4.4914422 7.8050728 0.26552868 0
-3.0219564 8.1357431 2.4199605 0
-7.953413 -3.5049412 2.3748956 0
4.7311907 -7.6649795 -0.21731305 0
-7.6874838 -3.5797799 3.049099 0
4.7315183 -7.6657162 0.2973969 0
-3.1110764 7.9921427 2.7747488 0
-2.9271145 8.2734785 2.063168 0
-2.7813182 8.4933271 1.1952751 0
4.7324753 -7.4201927 1.9621329 0
4.5022602 7.4184341 2.4599848 0
-2.8498311 8.3648653 1.8071699 0
-3.0760398 8.0318022 2.7209895 0
-2.7004943 8.6048546 0.27120066 0
-7.2458677 4.3117075 3.2166471 0
4.7271543 -7.683075 0.26626301 0
-2.9364886 8.2686644 2.1142819 0
4.733521 -7.670217 -0.47743022 0
-2.7051702 8.6129093 -0.03866291 0
-7.704319 4.1192126 2.2753584 0
4.7328396 -7.6686854 0.55405974 0
-2.7026362 8.6085443 -0.34905797 0
-3.1968675 7.8475065 3.1292267 0
-2.51897 -8.1013117 3.1064472 0
-7.3969021 4.2193236 3.0267859 0
-2.8303676 8.4125338 1.7051129 0
-2.7347708 8.5595722 0.97656941 0
4.488205 7.7947588 0.90603805 0
-2.6995687 8.60326 -0.66087151 0
-2.7026291 8.608532 0.58027339 0
4.7328672 -7.6687479 -0.73902702 0
4.4990768 7.5377693 2.1715753 0
4.7349176 -7.422328 2.0718412 0
-2.4044371 -8.5904837 1.4931583 0
4.7290392 -7.6885281 0.58523774 0
4.7319126 -7.6666021 0.81097305 0
-8.0345526 -3.4817171 2.2758977 0
-2.3929462 -8.5938044 1.520267 0
-7.8984356 4.0904775 1.6707819 0
-2.4060507 -8.5584764 1.6995194 0
-2.8561406 8.3761396 1.922852 0
-2.668438 8.6506023 0.27948165 0
-8.093421 4.0547295 0.298931 0
-8.3920422 -3.3734598 0.50209904 0
-8.4007082 -3.3771408 0.29991698 0
-2.7824378 8.4951935 1.5060153 0
4.4989738 7.6533489 1.8344936 0
4.7290177 -7.6600966 1.0682454 0
-8.0947113 4.0554142 0.50093603 0
-2.7033834 8.6098309 0.88987625 0
4.4852695 7.7854071 1.2267108 0
-2.4393525 -8.3985424 2.3979139 0
4.7340689 -7.4224744 2.176682 0
-2.6696434 8.6553049 0.48782623 0
-2.3512807 -8.7570162 -0.34556949 0
-2.3544459 -8.763051 -0.036665797 0
4.7406197 -7.3359795 2.459969 0
-7.6061344 4.1439862 2.7066851 0
-8.2321129 -3.4262509 1.68771 0
4.4820595 7.8931594 0.034541368 0
4.4813957 7.8914771 -0.2271353 0
-2.3920636 -8.5899019 1.7263379 0
-2.6695309 8.6548634 0.69606888 0
-2.3480835 -8.7509203 -0.65588057 0
4.7334414 -7.7012653 0.90540862 0
-2.3579631 -8.7697582 0.27157104 0
-8.404439 -3.3787255 0.70287335 0
-8.1003389 4.0583992 0.70245755 0
4.4842396 7.8986878 0.29531598 0
-2.3983803 -8.5793276 1.8006444 0
-2.7104974 8.6220856 -0.97935712 0
4.4963684 7.5336456 2.3855298 0
-7.5649395 4.1465311 2.8757267 0
-8.0915871 4.0537562 0.90405703 0
-3.0006309 8.1401253 2.7338533 0
-2.8546457 8.3709354 2.1282997 0
-2.3566198 -8.7671967 0.57977831 0
-7.7185478 4.1272926 2.4786563 0
-2.4559751 -8.3090782 2.7729037 0
-8.3999367 -3.3768129 0.90405655 0
4.4850521 7.9007478 -0.4917348 0
4.4840279 7.8981504 0.55607378 0
-7.9403315 -3.5014944 2.7376633 0
-2.3426361 -8.7911501 0.24131513 0
-2.7025185 8.6083412 1.2004373 0
-8.0379429 -3.4832737 2.4768944 0
4.7310205 -7.6645975 1.3280749 0
4.4792399 7.8860116 0.81645584 0
-2.9267492 8.2727575 2.4351563 0
-7.3907566 4.2224393 3.2383575 0
4.4935932 7.6402593 2.0956764 0
-2.6214266 8.7227755 -0.041486859 0
-2.744369 8.5799561 1.3472834 0
-3.0177755 8.1277714 2.792233 0
-7.8837442 4.0856924 2.029331 0
-2.9383945 8.2716455 2.4320688 0
-2.8611302 8.3831062 2.1253057 0
4.7354903 -7.4235673 2.3366027 0
-2.6409135 8.7168436 0.24042141 0
-2.3527331 -8.7597857 0.88787246 0
-2.6729269 8.668108 0.90406549 0
-8.091651 4.0537901 1.105428 0
-2.3430567 -8.7921524 0.61010373 0
4.7328157 -7.6994553 1.2263498 0
-2.8326726 8.4172516 2.0768948 0
-7.7472458 -3.5608633 3.2413335 0
-2.6266975 8.7321615 0.26990962 0
4.5050297 7.4268351 2.7890928 0
4.4879022 7.9079728 -0.75896394 0
4.4873838 7.7921419 1.5507326 0
-2.4049015 -8.5558424 2.0683928 0
-8.4047832 -3.3788717 1.1052492 0
-2.3925385 -8.5920029 1.93384 0
-2.7846303 8.4988489 1.8199143 0
4.7372408 -7.4270158 2.3932233 0
-2.6413045 8.7177057 0.61099505 0
-3.1089935 7.988306 3.1508722 0
-2.6253119 8.7296944 0.58144081 0
-2.6320624 8.7417154 -0.35611427 0
-8.1990604 4.0317168 -0.11981738 0
-2.3600779 -8.7737894 -0.97356164 0
4.4815502 7.8918695 1.078572 0
-2.6734209 8.6700325 1.1124265 0
-2.6255107 8.7300482 -0.6698817 0
-2.6990366 8.6023436 1.5121412 0
-8.5066786 -3.3392041 0.2419883 0
4.7294693 -7.6611118 1.5891032 0
-8.0918179 4.0538793 1.3070264 0
-2.7334399 8.5567474 1.7159314 0
-8.2066479 4.0340691 0.2438699 0
-8.4021063 -3.3777349 1.3065245 0
-8.5054331 -3.3389137 -0.49499154 0
4.4707861 7.9849129 0.028334498 0
-2.3432274 -8.7925587 0.97938418 0
-8.2019653 4.0326176 -0.4852435 0
-2.6695185 8.6548157 1.3202815 0
-2.6377468 8.7098608 0.98158574 0
-2.3551998 -8.7644892 1.1977077 0
-2.8565784 8.3776646 2.336885 0
-8.2369251 -3.4274457 2.0543995 0
-2.3984261 -8.5794115 2.1131451 0
4.5016212 7.5416451 2.6036301 0
4.7381487 -7.3291473 2.7847571 0
-2.6260805 8.7310629 0.89338493 0
-8.5282774 -3.3442385 -0.12704533 0
4.7302856 -7.6921349 1.5484083 0
-8.5110178 -3.3402154 0.60948932 0
-8.2067127 4.0340891 0.60753119 0
-8.3893957 -3.3723357 1.5073388 0
4.47787 7.996408 0.24715829 0
-2.6248031 8.7287884 -0.98730326 0
-2.8502579 8.3655548 2.4395788 0
-2.4451642 -8.4088907 2.7178624 0
-8.0923023 4.0541363 1.5090969 0
4.4827938 7.8950229 1.3423791 0
4.4791832 7.998539 0.46641064 0
-2.3945923 -8.6010857 2.1435819 0
-8.1940556 4.0301657 0.97094274 0
-8.2057161 4.0337801 -0.85323119 0
4.4869461 7.7907476 1.8766904 0
-7.9823961 -3.5031245 2.895246 0
4.4981456 7.6513338 2.3671086 0
-2.631608 8.6963263 1.352386 0
-2.6207843 8.7216311 1.2054989 0
-2.5085378 8.7822418 -0.98581338 0
-8.5138187 -3.3408682 -0.86748695 0
-2.3492546 -8.7531538 1.5075903 0
-2.7812901 8.4932804 2.1355138 0
-2.3409057 -8.7870245 1.3494861 0
4.4800043 7.9998722 0.68532646 0
4.7306805 -7.6638327 1.8540874 0
-8.0784273 4.0467753 1.7103341 0
4.7418528 -7.4336195 2.6121612 0
-2.9368739 8.2692671 2.7535665 0
-7.6123934 4.1461244 3.0748186 0
-2.853467 8.3668318 2.5439577 0
-2.6729269 8.668108 1.5299153 0
4.4729061 7.9883533 0.90407789 0
-2.5385509 8.8375273 -0.35949779 0
-7.8899164 4.0877028 2.3950481 0
4.7306204 -7.8904257 0.24392414 0
-8.3941193 -3.374342 1.7099333 0
4.7350073 -7.8971081 0.02200985 0
4.7288637 -7.8877506 0.46452236 0
-2.9242206 8.2677641 2.8110669 0
-2.8318539 8.415576 2.4517977 0
-2.7058272 8.6140404 1.8292837 0
-8.5313263 -3.3449492 0.97860932 0
4.4818068 7.8925195 1.6077328 0
4.7289028 -7.6881332 1.8732533 0
-2.4056559 -8.5575714 2.4420922 0
-7.9407902 -3.5016153 3.109127 0
-2.5382171 8.8613348 0.23884583 0
-2.4573636 -8.3121395 3.1508017 0
-2.392302 -8.5909557 2.3518977 0
-2.4010911 8.8519859 -0.98754692 0
4.7304678 -7.8901939 0.68435192 0
4.7259731 -7.9201689 -0.23759353 0
-2.3955588 -8.5741301 2.4285147 0
-2.5546966 8.8672686 -0.046425581 0
-3.0166264 8.1255808 3.1716719 0
-2.5537376 8.8655024 0.26848769 0
-2.7366824 8.563632 2.0912237 0
4.727747 -7.9243145 0.29328609 0
-8.2244129 -3.4243395 2.4220467 0
-2.6720419 8.6646566 1.7392583 0
-2.5451312 8.8496485 -0.67796671 0
-8.1986017 4.0315747 1.3363354 0
-2.3044777 -8.9438763 -0.04388988 0
