# .PCD v0.7 - Point Cloud Data file format
VERSION 0.7
FIELDS x y z intensity
SIZE 4 4 4 4
TYPE F F F F
COUNT 1 1 1 1
WIDTH 1423
HEIGHT 1
VIEWPOINT 0 0 0 1 0 0 0
POINTS 1423
DATA ascii
-3.7805886 -7.9352984 -0.98479879 0
4.2389421 -7.5520959 1.7976346 0
3.9130659 -7.8624058 1.0595469 0
8.7281094 1.0516293 -0.98663747 0
3.8336201 -7.9588299 -0.4723292 0
4.3316183 7.2827196 2.5452704 0
7.4521542 4.2368751 2.1907773 0
4.2722416 -7.5295963 1.8271861 0
7.72223 4.173069 1.1145422 0
4.1457434 7.4574699 2.3440146 0
3.832809 -7.956109 0.55331433 0
7.3392663 4.2777977 2.4776275 0
4.0246282 7.5839748 2.1427779 0
3.8292494 -7.9441748 -0.73027956 0
8.73106 -1.052475 -0.98723423 0
7.7183499 -4.319901 0.28663695 0
4.1109362 7.4951835 2.2906823 0
4.0337467 -7.7660604 1.3218009 0
-3.7841396 7.9397888 -0.98570538 0
7.4537563 4.233706 2.206213 0
7.7234793 -4.3244247 0.0078133345 0
4.6650043 -7.126936 2.4086471 0
4.4208908 7.1716185 2.7170873 0
3.809968 7.7746449 1.8457813 0
4.3956032 -7.3801723 2.1450694 0
7.7130623 -4.315237 0.56463981 0
3.7439423 -8.0263939 0.040307283 0
3.7058177 7.8976851 1.5384583 0
7.5048933 -4.3779573 1.7288537 0
4.5844479 -7.2082486 2.3493516 0
7.8413873 4.1256366 0.0098999739 0
4.7615328 -7.0236359 2.5516343 0
3.8307719 -7.9492788 0.80848086 0
4.0007963 -7.7973475 1.3109574 0
3.7068172 7.8950744 1.5688024 0
3.8472276 -7.9319468 0.90406215 0
7.729269 -4.3295312 -0.27258831 0
3.6487112 8.0776863 0.039038658 0
7.8449178 4.1223931 -0.1759553 0
7.2483644 -4.5185785 2.3714156 0
4.3148293 -7.4691916 2.0436225 0
3.7761705 7.8304348 1.7348745 0
3.956121 7.6618342 2.0572815 0
3.7456174 -8.03232 -0.21820688 0
7.7224264 4.1682363 1.2594213 0
7.8417706 4.1259561 0.28720391 0
8.7589188 0.95223922 -0.98721695 0
7.5924816 -4.3596373 1.3956499 0
4.3690505 -7.4151411 2.1299329 0
8.7594452 -0.95238227 -0.98732316 0
4.0814991 -7.714962 1.5593529 0
7.8427434 4.1267657 -0.26858395 0
4.0638962 -7.730875 1.5289998 0
7.8325281 4.1182628 0.56398606 0
4.9499741 -6.8504753 2.685535 0
4.5635266 -7.2096415 2.4188375 0
3.6494269 8.0803642 -0.22002846 0
4.1576023 -7.6241951 1.805295 0
4.4672799 -7.3156123 2.2809534 0
3.8383644 -7.9456706 0.90406775 0
3.7374692 -8.0403881 0.26495862 0
7.5161343 -4.3734646 1.7525835 0
7.5738454 4.1924477 1.9368575 0
8.7751551 0.84901112 -0.98515654 0
7.6795826 4.1642838 1.5428922 0
3.6494384 8.0804062 0.29686844 0
7.1112342 -4.6735072 2.508775 0
3.9625103 7.6426764 2.1445432 0
4.8493767 -6.9243984 2.6938391 0
7.3525238 -4.4425788 2.2220559 0
7.850174 4.1251259 0.30555892 0
4.165432 -7.6173038 1.835808 0
4.2121906 -7.5652924 1.9429173 0
7.8557229 4.1280107 0.064656019 0
7.7124529 4.1646919 1.3908639 0
3.7909803 7.8158526 1.8183689 0
7.3386164 4.2760057 2.5778713 0
7.8502064 4.1251426 -0.41941535 0
-3.6832423 8.0178013 -0.9856292 0
7.4663115 -4.3964868 1.9480395 0
7.5751805 4.197473 1.9667449 0
7.7327647 -4.3326149 -0.55487382 0
8.7851086 -0.85155767 -0.98715365 0
3.7423637 -8.0208111 -0.73809767 0
7.0745668 -4.7118783 2.5765364 0
3.7495995 -8.0464058 0.29697704 0
3.7474461 -8.0387878 -0.47880608 0
7.7163577 -4.3181438 0.84308887 0
3.832969 -7.9356742 1.1139905 0
4.0334463 -7.7655416 1.531194 0
7.7688417 -4.3053145 -0.17767978 0
-3.6872067 -8.0229645 -0.98666012 0
7.8513937 4.1257601 0.54586494 0
3.7473326 -8.0383863 0.5542773 0
7.3887095 -4.4191785 2.2011456 0
7.7692695 -4.305553 0.30530977 0
7.774292 -4.3083496 0.063934326 0
3.6456287 8.0661554 0.81173575 0
3.9157815 -7.871057 1.3163757 0
3.6473489 8.0725908 -0.74201512 0
7.8506947 4.1333838 -0.54995179 0
7.7109542 4.1620612 1.4990849 0
3.8719735 7.7314878 2.0666394 0
4.0348558 7.5800056 2.3053131 0
3.7389979 -8.0472803 0.58656442 0
3.6518638 8.0894804 0.55469537 0
7.6519446 -4.3519068 1.2628326 0
3.6532605 8.0947056 -0.48235989 0
7.1901584 -4.5950789 2.508389 0
3.7441015 -8.0269575 0.81112337 0
4.3904104 -7.3892517 2.291182 0
7.7267523 -4.3273115 -0.83790946 0
3.8331275 -7.9571776 1.065429 0
4.2374315 -7.5480995 2.0541794 0
-3.5761113 8.0874701 -0.98419237 0
4.1296091 7.4905901 2.4507353 0
7.842463 4.1265321 0.84157324 0
4.0006862 -7.7970123 1.5675712 0
3.9224496 7.6958714 2.158839 0
3.6373641 8.1224461 0.26813126 0
8.8253632 0.64737862 -0.98547518 0
7.8599958 4.1302323 -0.6661936 0
7.8450847 4.1287141 -0.83167398 0
8.8192577 0.75277871 -0.98897016 0
4.2686357 -7.5175047 2.1432476 0
3.8487263 -7.9382744 1.2248387 0
8.8198605 -0.75292403 -0.9890908 0
3.9565325 -7.8311043 1.5375986 0
7.8549275 4.1275973 0.78669691 0
7.7711706 -4.3066115 -0.66704607 0
7.7789445 -4.3109407 0.54628348 0
-3.584188 -8.0983067 -0.98633301 0
7.7854447 -4.3145604 -0.423437 0
4.0806627 -7.7125406 1.8164988 0
4.7599721 -7.0305109 2.7117326 0
4.5815077 -7.2040391 2.5594006 0
3.7793272 7.8362842 1.9450529 0
4.4695101 -7.3190947 2.4358363 0
7.5936303 -4.3606796 1.6771207 0
4.3314877 7.2954683 2.7413406 0
7.8517289 4.1259341 -0.91253603 0
4.0309582 -7.7612309 1.7408333 0
8.8392353 -0.65050739 -0.98823929 0
7.5184441 -4.3747325 1.9667549 0
4.0615501 -7.7220984 1.8474493 0
3.7087436 7.9018879 1.8299704 0
4.4019566 -7.3898492 2.3572478 0
7.5613394 4.1814175 2.2166729 0
7.5137043 -4.3831997 1.9758406 0
7.8332777 4.1188869 1.1189063 0
3.8373396 -7.9437723 1.3245704 0
3.7393355 -8.0488014 0.90876758 0
7.6892414 4.1692314 1.7579277 0
3.9612577 7.6405072 2.3543177 0
7.4505472 4.230793 2.4910297 0
7.6452699 -4.3480635 1.504329 0
4.1546564 7.4719329 2.5574522 0
7.8480248 4.1240082 1.0276616 0
3.9548454 7.6579652 2.3182473 0
7.2741089 -4.5216494 2.5103292 0
3.914115 -7.8657484 1.5737352 0
4.2137909 -7.5678897 2.153616 0
3.6433442 8.1343298 0.47987425 0
4.6591692 -7.1108036 2.7225425 0
4.1584053 -7.6264148 2.0648088 0
7.7170134 4.1685991 1.6716523 0
7.7288218 -4.3291368 1.1239362 0
7.7077484 4.1603355 1.7423244 0
4.3161316 -7.4724936 2.3044369 0
3.7085361 7.9099407 1.8630774 0
4.0250845 7.5856819 2.4655051 0
7.2570314 -4.5236659 2.5875459 0
-3.4795942 8.1714153 -0.98586237 0
3.834691 -7.96242 1.3241892 0
8.8707676 -0.44453698 -0.98598742 0
3.628314 8.1633472 0.26325929 0
3.6423004 8.1322546 0.69214094 0
7.3437934 -4.4341855 2.5073335 0
7.7869558 -4.315402 0.78822529 0
3.6513484 8.0875521 1.0720792 0
7.7767525 -4.3097196 -0.91663527 0
3.8129873 7.7873917 2.171068 0
7.5764513 4.1981807 2.2146502 0
7.8488107 -4.2815323 0.0043311119 0
8.8754272 0.4454487 -0.98691046 0
8.8693314 -0.5504548 -0.98981178 0
-3.4829049 -8.175993 -0.98675716 0
3.7496557 -8.0466042 1.0709054 0
7.7699361 -4.3059239 1.0291891 0
4.1646843 -7.6146603 2.1557479 0
8.8717213 0.55095798 -0.99028647 0
3.8457532 -7.9257231 1.5456548 0
3.7945132 7.8276982 2.0826459 0
3.6383131 8.1243315 0.90406966 0
3.8340142 -7.9376101 1.534903 0
4.2331161 -7.5366831 2.3124681 0
7.7125649 -4.3147984 1.4029665 0
7.8512211 -4.2835979 0.2853024 0
4.2302504 7.388792 2.7573144 0
4.3693476 -7.4160872 2.4500701 0
7.467711 -4.3977942 2.2342463 0
4.0002842 -7.7957931 1.8268335 0
7.8437304 4.1217756 1.2699189 0
7.8558836 -4.2875929 -0.27854109 0
8.8937349 -0.34306341 -0.98672605 0
4.028574 -7.7571011 1.9511781 0
3.7779443 7.8337221 2.155345 0
3.6301553 8.1722498 0.58829927 0
7.6402736 -4.3451867 1.7483473 0
-3.374537 8.2437601 -0.98553979 0
7.699264 4.1533904 1.9502752 0
3.6347539 8.1172581 1.115608 0
4.3947296 -7.3788414 2.5669355 0
3.9556513 -7.8276081 1.8594089 0
3.705935 7.8919539 2.091188 0
8.9048367 0.34507102 -0.9889189 0
4.0797396 -7.7098708 2.0769191 0
3.6502838 8.0835695 1.3323445 0
3.8760991 7.7446313 2.3338909 0
7.5908341 -4.3581414 1.9607959 0
7.9860349 4.0830941 -0.18538582 0
7.8589325 -4.2902055 0.56627476 0
3.7418823 -8.0602856 1.2331541 0
3.6734848 -8.1703644 -0.49197578 0
-3.3802676 -8.2519264 -0.98712003 0
7.6947241 4.17204 1.9738579 0
3.6765971 -8.1820068 -0.22923321 0
8.9178619 0.13637656 -0.98476946 0
3.8331456 -7.9572382 1.5838385 0
3.627079 8.1573763 0.91309881 0
7.7699342 -4.305923 1.2726569 0
3.6776121 -8.1858034 0.033173561 0
7.5104365 -4.3812551 2.2237983 0
7.8455248 4.1290808 1.4005258 0
7.8625841 -4.2933345 -0.56373924 0
7.9868627 4.0972257 0.0049495697 0
3.6702268 -8.1877508 0.26302028 0
7.9837427 4.0947032 0.2856338 0
4.5686531 -7.224474 2.7431715 0
7.5265474 -4.3791809 2.1831477 0
7.9893785 4.0847726 0.30371547 0
7.7045403 4.1586089 1.988632 0
4.1258845 7.4774151 2.7723186 0
3.7503676 -8.0491228 1.3315246 0
7.8977914 -4.2626271 0.30370176 0
3.6779034 -8.1868935 0.29494441 0
8.9243526 -0.24272877 -0.98925674 0
7.9773288 4.0895185 0.56562209 0
7.9984956 4.0893483 0.058914423 0
3.675611 -8.178318 0.55630052 0
8.9281883 -0.13794035 -0.9867996 0
7.8971968 -4.2757545 0.24815881 0
7.8516254 -4.2839441 0.8472631 0
4.059926 -7.7160215 2.1693463 0
3.9169626 -7.8748202 1.8364959 0
3.9219904 7.6940498 2.4837394 0
7.9089479 -4.2686319 0.058743834 0
3.9650614 7.6470952 2.567492 0
-3.2687492 -8.3149748 -0.98529351 0
3.6330478 8.1138678 1.3271992 0
4.2188883 -7.5761604 2.3669362 0
7.9053688 -4.2799401 0.027553082 0
8.9323502 0.24405712 -0.99083269 0
4.2688932 -7.5183687 2.4658635 0
7.9103408 -4.269382 -0.18702877 0
7.898366 -4.2763534 -0.41439021 0
7.8573594 -4.288857 -0.84952521 0
7.9760957 4.0781059 0.79117203 0
7.9967427 4.1052127 -0.27780509 0
7.8980932 -4.2762136 0.46714664 0
3.6741178 -8.1954823 0.47668719 0
7.999269 4.0897365 -0.43373668 0
8.9404697 0.034650803 -0.98629868 0
3.7901797 7.813168 2.3447144 0
3.8385513 -7.9460168 1.7471414 0
7.9889636 4.0989242 -0.56039464 0
7.8518038 4.1259732 1.5161312 0
7.9975924 4.0888948 0.54784477 0
7.9127083 -4.2837 -0.19433248 0
8.9486599 -0.03577131 -0.98790538 0
7.9135847 -4.2711282 -0.43467665 0
7.7175159 -4.3191652 1.6873589 0
3.9992094 -7.7925339 2.0890534 0
3.673444 -8.1941442 0.69053006 0
4.029788 -7.7592044 2.1634607 0
3.6490417 8.0789223 1.5944531 0
3.738709 -8.0459766 1.5571089 0
3.67699 -8.1834764 0.81810021 0
8.9545212 0.068369329 -0.98643494 0
3.709358 7.9136467 2.1904864 0
7.9823208 4.093554 -0.84494781 0
7.9837127 4.0946789 0.84623802 0
3.8300114 -7.9467292 1.8449159 0
7.7704935 -4.3062344 1.5183234 0
7.9169483 -4.2729387 0.54807782 0
4.4710808 -7.3238583 2.7600393 0
3.7780373 7.8338938 2.3673933 0
3.7481575 -8.0413055 1.5928707 0
7.458447 -4.3891397 2.5213296 0
4.1653738 -7.6456804 2.3335648 0
7.9039984 -4.2792382 0.6855762 0
3.6797726 -8.1938858 -0.7619009 0
8.0047941 4.0925093 -0.68389893 0
7.8399191 4.1244144 1.6820095 0
-3.2849388 8.3387642 -0.98985112 0
3.8483858 -7.9368372 1.8721809 0
7.6896362 4.1694336 2.1895843 0
8.965107 -0.067075074 -0.98850799 0
8.9647961 0.17183805 -0.9861213 0
-3.1657414 8.3903694 -0.98613119 0
7.8574591 -4.2889423 1.1301224 0
7.9178243 -4.2734098 -0.6848948 0
3.590611 8.2792273 0.029580355 0
3.6730406 -8.1933422 0.90407193 0
4.0777988 -7.7042561 2.3405385 0
7.8976755 -4.2759991 0.90407777 0
8.9713421 -0.17113274 -0.98740101 0
-3.1691198 -8.3954897 -0.98710287 0
4.1650515 -7.6159592 2.4808133 0
7.9956069 4.0878983 -0.93407822 0
7.6533875 -4.3527374 2.0001199 0
8.9715576 -0.27560955 -0.98541152 0
4.2100019 -7.5617418 2.5773282 0
7.5877762 4.2047348 2.5137763 0
8.9742775 0.27535576 -0.98594248 0
3.9140286 -7.8654728 2.0990601 0
7.9183736 -4.273706 0.79321706 0
7.9760051 4.0884485 1.1268721 0
8.0700207 4.0600872 0.022867799 0
3.7064226 7.8936782 2.3591714 0
3.8156009 7.7984247 2.5013156 0
3.5920739 8.2850313 0.29366291 0
7.7035346 4.1570501 2.2377574 0
3.63168 8.1796217 1.2413425 0
4.0264277 7.5907068 2.794523 0
7.9942312 4.0872078 1.0375881 0
3.6775317 -8.185503 1.0809498 0
3.6495173 -8.2658625 0.26143193 0
3.6410334 8.1297379 1.5405817 0
8.074152 4.0620561 0.24368787 0
-3.0546322 -8.4534235 -0.98492002 0
8.9803791 -0.37913507 -0.98539388 0
8.0771341 4.063477 -0.20015621 0
3.8407876 -7.950161 1.9601841 0
3.957294 -7.8341255 2.186553 0
7.7124586 4.1628709 2.2420726 0
7.5981016 -4.3647385 2.2512205 0
7.5401859 -4.3866692 2.4024315 0
3.5960464 8.3007946 -0.23752129 0
7.9111972 -4.2698431 1.0385137 0
7.9212513 -4.2752547 -0.93805516 0
3.5937347 8.2916212 -0.50392574 0
7.8978968 -4.2761126 1.1224203 0
4.3715029 -7.4229536 2.7771435 0
8.0792112 4.064467 -0.42398107 0
3.6757743 -8.1987753 1.1177349 0
7.9938855 -4.2525682 -0.00049835443 0
3.6484034 8.0765352 1.8595941 0
-3.0620399 8.4650078 -0.98709774 0
3.7459798 -8.0336027 1.8565764 0
8.9950867 0.37797499 -0.98826158 0
7.853847 -4.2858477 1.4137263 0
3.5947955 8.2958298 0.55793142 0
7.9843416 -4.2446241 -0.57130218 0
7.772799 -4.3075185 1.7671556 0
7.8667183 4.133728 1.76722 0
3.7731736 7.824882 2.5791135 0
7.9962711 -4.2545538 0.2836951 0
7.9964385 -4.254693 -0.28607893 0
8.0852242 4.0673323 0.4636451 0
4.0585232 -7.7107744 2.4953988 0
3.5923162 8.2859936 -0.77254009 0
8.9976501 -0.4821344 -0.98731089 0
7.719831 -4.321207 1.9746947 0
3.651598 -8.2759228 0.59014726 0
7.683013 4.1660409 2.4061773 0
8.9993515 0.48202467 -0.98764241 0
4.0326328 -7.764132 2.3777871 0
3.6357038 8.1191463 1.7527223 0
7.9929581 4.0865688 1.2842696 0
3.6692793 -8.1858683 1.3309562 0
8.1153803 4.0520358 0.0011571646 0
3.738915 -8.0469065 1.8852978 0
3.9192214 7.6830645 2.8112566 0
3.628655 8.1649961 1.5685668 0
3.6774888 -8.1853428 1.3452795 0
3.8310361 -7.9501653 2.1121502 0
8.083293 4.066412 0.68403149 0
7.9969568 -4.2551246 0.56772041 0
4.0010786 -7.798202 2.3578129 0
7.8951778 -4.2747197 1.3408575 0
-2.9520769 -8.5299215 -0.9865216 0
3.7058284 7.8977337 2.5179982 0
8.1194973 4.0552678 0.28420925 0
9.0079584 0.58578676 -0.98815858 0
7.9835062 -4.2439284 0.85119057 0
7.9830594 4.094151 1.4108624 0
7.6487641 -4.3500752 2.2515666 0
9.0105896 -0.58565485 -0.98867059 0
3.8467984 -7.9301357 2.1995823 0
3.5962329 8.3015327 0.82302511 0
4.2685113 -7.517087 2.7931869 0
8.1138039 4.0507984 -0.5687021 0
7.521081 -4.3761802 2.6170897 0
7.8497019 4.1325574 1.9700036 0
8.1279001 4.0407076 -0.44524139 0
8.1154594 4.0520973 0.567101 0
9.0088177 -0.68992358 -0.98745656 0
7.9894266 -4.2488565 -0.86141849 0
3.8401592 -7.9489961 2.1737616 0
8.1289463 4.0626855 -0.28453356 0
9.0119152 0.68981266 -0.98805904 0
8.0822392 4.0659099 0.90407979 0
7.8501024 4.1250887 2.0147181 0
8.1418762 4.047473 -0.19623727 0
8.1440754 4.0485377 0.053016782 0
-2.9603887 8.5433388 -0.98902142 0
7.924222 -4.2768536 1.2875597 0
9.0083151 0.79400754 -0.98677981 0
9.0121174 -0.79392594 -0.98751915 0
7.84974 -4.2823286 1.6993361 0
9.0040436 0.89804018 -0.98566008 0
3.6538632 -8.2868748 0.92002916 0
-2.841476 8.5936184 -0.9860177 0
3.5944605 8.2945013 1.0883534 0
8.1490889 4.0509648 0.301476 0
3.9159689 -7.871654 2.3695636 0
3.6340444 8.1158485 1.9661889 0
3.9516358 -7.8116751 2.5117445 0
4.0245762 -7.7501774 2.5899181 0
-2.8447537 -8.5990839 -0.98702705 0
8.0615788 -4.235043 0.30139983 0
8.0658989 -4.237289 0.052241206 0
8.0783596 4.0640612 1.1240013 0
8.1172009 4.0534654 0.85036409 0
8.0657482 -4.2372108 -0.19773084 0
7.9983807 4.0892906 1.5341623 0
4.1620765 -7.6054344 2.8079658 0
-6.2657757 6.6128578 0.25448489 0
3.6743305 -8.1959057 1.5457644 0
8.1376982 4.0454507 -0.69948423 0
7.5917659 -4.3589873 2.5421345 0
-6.1660805 6.713913 -0.087206721 0
9.0186453 -0.89793569 -0.98849845 0
3.6252589 8.1485758 1.8972712 0
3.6490006 -8.2633638 1.2488241 0
-6.4763069 6.4157085 0.25340044 0
-6.6765652 6.2076802 0.25242937 0
7.7103958 4.1629291 2.5312231 0
3.6784902 -8.1890888 1.6125145 0
8.1231937 4.0581689 -0.85890734 0
3.6501381 8.083025 2.1303067 0
-6.6802053 6.2099533 -0.094759524 0
7.9037685 -4.2791204 1.5605159 0
-6.7791128 6.1036658 -0.096259415 0
-6.5823908 6.3160057 -0.093408346 0
-6.3822279 6.512886 0.28793609 0
9.0033512 1.1058859 -0.98581457 0
-6.3784351 6.5198927 0.25379848 0
-6.2780352 6.6215262 -0.089149714 0
-6.3815098 6.5220013 -0.090619266 0
8.1400585 4.0465937 0.79814935 0
7.9790635 4.0909204 1.6956842 0
-6.5822811 6.3159356 0.25280666 0
-6.4842758 6.4210076 -0.092120409 0
3.7489328 -8.0440474 2.1276779 0
7.9943671 -4.2529688 1.137243 0
8.0556707 -4.2319708 -0.70112419 0
8.1585884 4.0555634 0.55010819 0
7.9179082 -4.2734551 1.5363097 0
7.7855282 -4.3146067 2.0223291 0
-6.3756857 6.5180073 -0.43561679 0
8.0711937 -4.2400417 -0.4499976 0
8.067071 -4.2378983 0.55010808 0
-6.5582619 6.3313708 0.49424255 0
-6.1971922 6.6853085 0.49337971 0
-6.7824459 6.1056809 0.25178683 0
-6.1744995 6.7200489 0.25468814 0
-6.8819408 5.9986892 -0.098077595 0
-6.2038555 6.6930594 0.28676713 0
-6.0698223 6.8167958 0.2551527 0
7.7189531 -4.3204327 2.265192 0
-2.7310266 -8.6574478 -0.98583341 0
-6.6806908 6.2102561 -0.44319636 0
9.0237541 1.0021008 -0.9894917 0
-6.2768583 6.6206937 -0.43365526 0
8.9993382 -1.2097371 -0.98561287 0
-6.4748287 6.4147258 0.59796846 0
3.8158736 7.7995768 2.8350084 0
-6.7346382 6.150866 0.49442053 0
-6.373642 6.5166063 0.59749997 0
9.0258226 -1.0021156 -0.98989367 0
7.6919794 4.1706338 2.6273866 0
-5.9698277 6.9162383 -0.085348725 0
8.073741 4.0618601 1.3439231 0
-6.0697899 6.8167715 -0.42911696 0
-6.3861809 6.5172262 0.49340892 0
-6.4858723 6.4220691 -0.4389084 0
-6.014823 6.8619418 0.49250948 0
3.6176617 -8.3865576 0.29183531 0
3.593945 8.2924547 1.3554311 0
-6.5796213 6.3142214 0.59853792 0
9.0180187 -1.1062007 -0.98866642 0
3.8305907 -7.9486723 2.3826027 0
-6.0218391 6.8705926 0.28539634 0
3.6188388 -8.3912277 -0.24568057 0
-6.3675804 6.5124488 -0.78189445 0
-2.7362494 8.6664448 -0.98748112 0
3.7380395 -8.0429592 2.2162333 0
-6.5900888 6.3209672 -0.44169194 0
9.0082016 1.2100544 -0.98733675 0
-6.8906136 6.0037656 0.25107384 0
8.1422215 4.0476403 -0.95618045 0
-6.0821609 6.8260608 -0.087166369 0
7.8411756 4.1254601 2.2573299 0
-6.9889374 5.8948989 -0.10022312 0
-5.9729304 6.9186387 0.25542033 0
-5.9677658 6.9146438 -0.42720807 0
3.6202202 -8.3967075 0.02323091 0
-6.2780724 6.6215525 0.59717786 0
3.8397424 -7.9482236 2.3887529 0
-6.4718761 6.4127622 -0.78565693 0
-6.7817688 6.1052713 0.59959924 0
-6.9100008 5.969439 0.4943254 0
-6.382247 6.512908 0.69898224 0
-6.2682362 6.6145978 -0.77905178 0
-6.6851225 6.2130241 0.5991466 0
-6.790864 6.1107712 -0.44685161 0
-6.1847744 6.7275367 -0.43256158 0
-6.5629091 6.3361888 0.69910717 0
-6.8897982 6.0032887 -0.44948208 0
8.0689144 -4.2388563 0.79933667 0
-6.5766325 6.312295 -0.78966165 0
3.6731637 -8.1935863 1.7605057 0
-6.1790857 6.7233911 0.59681082 0
-6.9865713 5.8935585 -0.45202923 0
7.9920874 4.086132 1.7847128 0
7.9828615 -4.243392 1.4224656 0
8.1238003 4.0586452 1.135361 0
-6.6778984 6.2085128 -0.79333448 0
-6.2039337 6.6931505 0.69859135 0
-6.07481 6.8205414 0.59635603 0
7.8499699 4.12502 2.2698991 0
9.0053329 1.3140815 -0.98764753 0
3.673964 -8.1721563 1.8788333 0
-5.8770061 7.0207272 -0.084903657 0
-5.8745542 7.0187736 0.25569177 0
-5.8382864 7.0483127 0.28357375 0
-6.5700293 6.3080392 0.94403744 0
8.1457367 4.0493417 1.0480125 0
-6.1727724 6.7187896 -0.77698994 0
-6.3781319 6.5083899 0.90406132 0
9.0087566 -1.3142532 -0.98831391 0
-6.0192432 6.8673925 0.69823408 0
-2.6204104 -8.7209654 -0.98588228 0
8.1286831 -4.2118731 0.28238058 0
-5.8644795 7.0107479 0.5954833 0
3.6361272 8.1199875 2.181819 0
-6.8920679 6.0046167 0.60035539 0
-6.7826996 6.105834 -0.79769707 0
-5.87395 7.0182924 -0.42635125 0
-6.880559 5.99788 -0.80124569 0
-2.6223931 8.7244968 -0.98652375 0
-7.0872364 5.7892156 0.49379086 0
8.136199 -4.2179494 -0.0051142573 0
-6.7468672 6.1628346 0.69895387 0
-5.7739458 7.1165395 -0.08386004 0
-5.8383665 7.0484166 0.49077117 0
7.9067335 -4.2806392 1.7807508 0
-6.2009048 6.6896281 0.90406191 0
-6.3758965 6.5181522 0.94166255 0
-5.7729845 7.1157508 0.25600636 0
-7.1011868 5.7926149 0.24969149 0
-5.9796796 6.9238591 0.59612846 0
-7.1041899 5.7942591 -0.10293424 0
8.0716066 -4.2402563 -0.96070766 0
3.6226215 -8.4062357 -0.5184387 0
-7.0083694 5.9059029 0.25014496 0
-6.1699295 6.7167187 0.93885636 0
3.6221123 -8.4042158 0.5598824 0
-6.8738346 5.9939442 0.94898534 0
8.9708643 -1.6243258 -0.9852761 0
-6.5648241 6.3381734 0.90406144 0
8.1374617 -4.2189698 -0.29363602 0
9.006424 -1.4184314 -0.98901987 0
3.8469825 -7.930912 2.5327487 0
-6.9968491 5.8993788 0.60102391 0
-6.0668926 6.8145962 0.93756557 0
-7.090744 5.7868972 0.60150063 0
4.061471 -7.7218037 2.8308835 0
-6.682663 6.2114882 0.94631124 0
3.6636798 -8.1747398 1.9738979 0
-6.98419 5.89221 -0.80579889 0
-6.4834528 6.4204602 0.94346857 0
8.0675926 -4.2381692 1.0493126 0
3.6191235 -8.3923578 -0.7899133 0
-6.7405024 6.1566048 0.90406132 0
3.591732 8.2836752 1.6235614 0
-6.2788582 6.622108 0.94060242 0
-6.7817678 6.1052709 0.94782186 0
-5.9744525 6.919816 -0.77233803 0
-6.0182486 6.8661656 0.90406239 0
3.5490341 8.4568758 0.25850511 0
-5.7746878 7.1171484 -0.42503494 0
3.6187859 -8.3910179 0.82786143 0
3.646749 8.0703468 2.4005764 0
7.9203033 -4.2747445 1.7892456 0
8.0774403 4.063623 1.5647287 0
9.0121174 1.4187987 -0.99012887 0
-6.0831308 6.8267889 -0.77602756 0
8.9957161 1.5220747 -0.98838437 0
-5.6517639 7.224823 0.28143382 0
-6.9113131 5.9706521 0.9040612 0
-6.5548353 6.3278193 1.1087449 0
-7.1042652 5.7943006 -0.45680058 0
-2.5052056 -8.776104 -0.98470712 0
-7.1968203 5.6799426 -0.45918888 0
8.1335087 -4.2157745 -0.58321655 0
-6.1964836 6.684485 1.1092665 0
8.9829912 1.6254572 -0.9876436 0
8.9642467 -1.7281028 -0.98601401 0
-5.6769533 7.2167673 -0.083313525 0
-6.380023 6.5104661 1.1090641 0
8.1165562 4.052959 1.4205317 0
-6.9282875 5.9863377 0.69872522 0
-2.50705 8.7795019 -0.9853195 0
-7.2102156 5.6870298 -0.10516363 0
8.1412544 4.0471721 1.2984629 0
7.8677778 -4.2977843 1.9934111 0
3.5478427 8.4506693 0.59278452 0
8.9461517 1.8306074 -0.98479605 0
8.2601433 4.0165925 -0.0037074089 0
7.9803319 4.0919461 1.9846292 0
8.9482594 -1.8308651 -0.98520875 0
-6.7337074 6.1499543 1.1087403 0
8.1399927 -4.2210164 0.56927311 0
7.7847905 -4.3141961 2.2785461 0
-5.6738663 7.2141604 -0.42368507 0
-5.7785707 7.1203332 0.59551966 0
8.2607079 4.0170231 -0.29120767 0
3.70825 7.9086514 2.8570504 0
3.7480102 -8.0407839 2.4001329 0
3.6531339 -8.2833481 1.5834062 0
-6.9878922 5.8943071 0.95156002 0
-5.8796105 7.0228019 -0.7709862 0
8.2514534 4.0099702 0.56852877 0
-7.0979986 5.7986031 0.6987052 0
-5.8360271 7.0453563 0.90406322 0
8.9748764 1.7292482 -0.98809195 0
-5.6829062 7.2217951 0.25603068 0
9.0118313 -1.5233459 -0.9915266 0
-7.2027712 5.6830912 0.60236371 0
8.0581341 -4.2332516 1.2995901 0
8.9350243 -1.9339056 -0.98523009 0
-5.6583195 7.2339292 0.48882985 0
8.1292048 -4.2122951 -0.87486279 0
8.1308956 -4.2136617 0.85615671 0
8.2820587 4.0006061 0.047563791 0
-5.8505831 7.0643973 0.69706142 0
-7.3149672 5.5777488 -0.10739243 0
3.5306735 8.4955187 0.019314766 0
-7.2721701 5.6142054 0.49248886 0
-5.9829526 6.9263906 0.93761826 0
8.9406633 1.9346772 -0.98633647 0
-7.2236814 5.6941538 0.24862325 0
7.8984747 -4.2764087 2.0006263 0
-7.3156433 5.578094 0.24813366 0
-7.0928593 5.7941203 0.90406168 0
-6.4731846 6.4136324 1.2889752 0
8.2720394 4.0256596 0.28241932 0
8.2610302 4.0172691 -0.58048236 0
3.8401654 -7.949007 2.6056886 0
-5.7805266 7.1219378 -0.76917744 0
-6.0229855 6.8720064 1.1100295 0
-5.6801739 7.2194877 0.59530687 0
-5.5803428 7.3169699 0.25630915 0
-7.1066198 5.7955894 -0.81316078 0
-5.8804359 7.0234594 0.93653333 0
8.2892456 4.0039592 -0.2062481 0
-7.2691002 5.6116786 0.69847941 0
8.9284143 2.0379744 -0.98684394 0
-7.0822906 5.7849026 1.108933 0
-6.3813477 6.5119209 1.3143811 0
7.8350954 4.1204 2.5493982 0
3.6352718 8.118288 2.3980069 0
7.9988298 4.0895157 2.0415597 0
-5.774653 7.1171198 0.93530798 0
8.9301424 -2.0382361 -0.98718369 0
8.2018299 -4.1913986 -0.20650977 0
-5.6764765 7.2163649 -0.76677537 0
7.7224998 -4.3235607 2.5619102 0
-5.5748467 7.312192 0.59496367 0
3.6214132 -8.4014425 1.098002 0
-6.5831976 6.3165259 1.2923746 0
-2.3963261 8.8429012 -0.9859221 0
8.2511158 4.0097127 -0.87023818 0
-6.1740704 6.7197361 1.2828026 0
-6.9224644 5.980957 1.1092141 0
8.1958494 -4.1883974 -0.46074307 0
-6.7353163 6.1515293 1.3137469 0
-6.2792416 6.6223788 1.2853105 0
-7.4168663 5.4656711 0.24743474 0
3.9545264 -7.823143 2.8499644 0
-5.5919299 7.3270431 -0.083690345 0
-6.3835182 6.5233788 1.2878475 0
3.5338299 8.5088434 0.29010928 0
-6.685277 6.21312 1.2950692 0
8.2966433 4.0074105 0.29947603 0
7.996727 -4.2549329 1.7143228 0
3.630506 8.1739445 2.2367494 0
8.2917204 4.0051136 -0.46153265 0
-6.2036915 6.6928687 1.3152096 0
3.5314612 8.4988441 0.56111121 0
-5.5878048 7.3234572 -0.42418945 0
3.5497165 8.4604311 0.92788219 0
-6.9076414 5.9672594 1.3136482 0
8.9158611 -2.1413183 -0.98758364 0
-7.1090107 5.7968988 0.95462227 0
-7.3257723 5.5832691 -0.4652971 0
-5.665575 7.2440052 0.69627082 0
8.2125368 -4.1967726 0.046363592 0
-5.9677601 6.914639 1.2786074 0
3.5352798 8.5149651 -0.25446093 0
-7.4258308 5.4700904 -0.11005443 0
-6.4655809 -6.5796566 -0.09596175 0
7.9165711 -4.2727356 2.0442238 0
3.5330834 8.5056925 -0.52769089 0
8.2610102 4.0172539 0.85516453 0
3.7374928 -8.040494 2.5517583 0
-7.2166195 5.6904182 -0.81893349 0
8.2118063 -4.1964059 0.29937148 0
-6.5702047 6.34375 1.3146827 0
-7.3227577 5.5817289 0.60340571 0
-5.6577492 7.2331357 0.90406442 0
-5.4862823 7.419179 -0.082731962 0
-5.4794531 7.4130678 -0.42226595 0
-6.9823399 5.8911624 1.3030038 0
-6.7919188 6.1114092 1.2983594 0
8.8974018 -2.2437265 -0.98745024 0
8.0887794 4.0690265 1.7872367 0
8.0540905 -4.2311497 1.5522423 0
-2.4033098 -8.8562164 -0.98830354 0
8.9238396 2.1426435 -0.98915577 0
3.5330417 8.515049 0.46616983 0
-7.4219971 5.4682007 -0.46830547 0
8.8991814 2.2440484 -0.98780179 0
-5.8660641 7.0120101 1.2768691 0
3.5368233 8.5231333 0.24599767 0
3.5299616 8.4925117 -0.80196953 0
-5.4871783 7.4199805 0.25633931 0
8.1172276 4.0534859 1.709106 0
-5.3755364 7.5059462 -0.081490993 0
-6.3746099 6.5045228 1.519398 0
-5.5802984 7.3169317 -0.76584244 0
8.8765926 -2.3456769 -0.98714137 0
8.2080517 -4.1945214 0.5519551 0
-5.6806989 7.2199306 0.93497038 0
-6.5537758 6.3267212 1.5188954 0
8.1521759 4.0524592 1.5534317 0
-7.3149881 5.5777593 -0.82326853 0
8.2912178 4.004879 -0.71868706 0
-7.2755156 5.6169586 0.90406239 0
-6.0857277 6.8287392 1.2822604 0
-5.8322229 7.04038 1.316885 0
-6.0262947 6.8760872 1.3164651 0
8.2864494 4.0026546 0.80409002 0
8.2460232 4.0058317 1.1409922 0
3.5948305 8.2959681 1.8982623 0
-5.4704876 7.4125862 0.69565463 0
3.6186559 -8.390502 1.3678463 0
8.3049259 4.0112748 0.55208337 0
-7.5276804 5.3565049 -0.11226505 0
3.6803527 -8.1960564 2.1573181 0
8.8821201 2.3467584 -0.98823619 0
-6.5817738 -6.4858384 -0.098256588 0
-6.4763575 -6.5870471 0.25172591 0
-5.484108 7.4326959 0.27623045 0
-7.4245644 5.4694662 0.60411501 0
-6.8827772 -6.1663527 -0.10260832 0
-5.852129 7.0664191 1.1111259 0
-6.6843586 -6.3817244 -0.099765956 0
8.1417265 -4.2224178 1.1455157 0
-6.2680225 -6.7882018 0.25266826 0
-6.3764429 -6.6911049 -0.095465958 0
-2.283659 8.9027624 -0.98617446 0
8.06143 4.0559936 2.006289 0
-6.7868719 -6.2765594 -0.10135001 0
-6.2725401 -6.7914944 -0.09411037 0
-7.2216072 5.6930566 0.95723891 0
-5.5773425 7.3143616 0.93407726 0
-5.4817677 7.4292397 0.48608148 0
-6.6786108 -6.3780198 -0.45090574 0
-6.5837746 -6.4871697 0.25114775 0
-7.5318375 5.3584805 0.24644363 0
-6.4599428 -6.5982084 0.48830938 0
-2.2853069 -8.9060163 -0.98675227 0
-5.3798647 7.509932 -0.42151082 0
-7.4618835 5.440609 0.49063456 0
-5.4872656 7.4200587 0.59506261 0
8.8348799 -2.549525 -0.98737144 0
-6.9055271 6.0124946 1.3024764 0
-6.1680622 -6.8905625 -0.092796087 0
8.8634682 2.4492202 -0.98864698 0
8.2109413 -4.195972 -0.72043085 0
-6.4772253 -6.5876427 -0.44638872 0
8.2051134 -4.193047 0.80460107 0
-6.3731995 -6.6888113 -0.44397801 0
-7.091011 5.7925086 1.3145666 0
-6.2682724 -6.788384 -0.44160056 0
-6.468111 -6.6071768 0.27901983 0
3.652359 -8.2796011 1.918463 0
8.8370724 2.5500195 -0.98780823 0
-6.3800735 -6.6936722 0.25204158 0
-5.273807 7.6003647 -0.080973148 0
-6.2771206 -6.7782845 0.48767161 0
7.8973083 -4.2758112 2.2223892 0
7.8673429 -4.2974119 2.28756 0
-6.6903467 -6.3855839 0.25056267 0
-6.4724112 -6.5843415 0.59959054 0
-6.5826635 -6.4864306 -0.44907779 0
-7.4556627 5.4357824 0.697644 0
8.2855473 4.002234 -0.97755444 0
3.5288634 8.5061169 0.90407813 0
-6.7919159 -6.2797089 0.25005555 0
8.8110695 -2.6508083 -0.98733318 0
-7.3204489 5.5805488 0.95911491 0
-6.1710796 -6.8928285 0.25294244 0
-6.2662745 6.6132102 1.6301565 0
8.8698997 -2.4505746 -0.98992491 0
-6.5650702 -6.4747314 -0.79939854 0
-5.660861 7.2374582 1.111671 0
-6.7411194 6.1572089 1.5197144 0
7.982357 4.0935831 2.277863 0
-7.4215269 5.4679685 -0.82891321 0
8.68431 -3.0470278 -0.983706 0
-5.3905501 7.5197725 0.25641739 0
3.5350742 8.5140972 0.83308566 0
-6.8933764 -6.1727619 0.24952412 0
-5.4846244 7.4176955 -0.76521623 0
7.984417 4.0822821 2.2967708 0
-6.0648699 -6.9897542 0.2533915 0
3.6797369 -8.2066488 2.1954587 0
-6.2078409 6.6976962 1.5217872 0
-6.0202065 6.8685803 1.5225501 0
-5.2844496 7.5986147 0.27419472 0
-7.5355988 5.3602681 -0.47313678 0
-6.649538 -6.4259815 0.48812222 0
-5.7804589 7.121882 1.2770877 0
8.7873011 -2.7521183 -0.98759341 0
-6.0702477 -6.9939137 -0.092002153 0
-7.1052856 5.7948594 1.3083024 0
3.5404432 8.5308714 0.68483651 0
8.7568245 -2.8516717 -0.98679531 0
-5.3745699 7.5050564 -0.76242065 0
8.1349545 4.0441222 1.8060112 0
-6.9984379 -6.0668788 -0.10515201 0
-6.2902565 -6.7935643 0.27750146 0
8.8194847 2.6528332 -0.98901546 0
-6.7936249 -6.280776 -0.45484489 0
-5.2762136 7.6026454 -0.42042166 0
3.8454413 -7.924407 2.8693821 0
-6.3777628 -6.6920381 0.59930897 0
-6.477891 6.4167619 1.6379437 0
-7.5325747 5.3588309 0.60497046 0
-6.677103 6.2080164 1.6446195 0
3.5502489 8.4632044 1.2642817 0
-5.3853593 7.5149922 0.59485936 0
8.6577587 -3.1474771 -0.98455691 0
-6.3777018 6.5193901 1.6348014 0
-6.9164734 5.975421 1.5198395 0
-5.4799452 7.4135079 0.93368626 0
-7.2819567 5.6222587 1.1100333 0
8.2726364 -4.1754818 -0.0093202591 0
-6.8956575 -6.1741414 -0.45756584 0
8.7617397 2.8530045 -0.98778522 0
-6.9859686 -6.0595798 0.60225463 0
8.2701283 -4.1735134 0.28086674 0
-6.8305807 -6.2447662 0.48817074 0
8.7939777 2.7538266 -0.98893309 0
-6.4651976 -6.6039772 0.69611812 0
-6.6913433 -6.3862262 0.60085797 0
-5.9656906 -7.0913768 0.25365794 0
-6.1749134 6.7203503 1.628715 0
-6.8917465 -6.1717758 0.60184252 0
-7.4555788 5.4357171 0.90406311 0
-7.4242058 5.4692893 0.96135938 0
-7.642664 5.2475719 -0.11531234 0
-6.6483355 -6.4247351 0.69624639 0
8.73353 2.9531829 -0.98773372 0
-7.2069931 5.6853251 1.3115957 0
8.286109 -4.1630607 0.00052499771 0
8.2743559 -4.1768322 -0.30070668 0
-6.593502 -6.4936376 0.600456 0
-6.9989386 -6.0671716 -0.46054608 0
-6.1808767 -6.9001846 -0.44127065 0
-6.1064558 -6.9749331 0.27600479 0
8.6670971 3.1504452 -0.98646176 0
-6.7832241 6.1061516 1.6491723 0
8.2969332 4.0075459 1.0583901 0
7.9073105 -4.2677507 2.3013656 0
-6.6386585 -6.4147043 0.90406454 0
8.7369204 -2.9541545 -0.98841918 0
-7.0075083 -6.0721879 0.24870968 0
-6.3788652 6.5091953 1.7261419 0
-6.0737944 6.8197784 1.6259937 0
-5.6816177 7.2207069 1.2759726 0
-2.171773 -8.964385 -0.98702097 0
-5.2902517 7.6159492 0.25655067 0
8.2146358 -4.1978259 -0.98171413 0
-6.7849522 -6.2753606 -0.80883121 0
8.1373692 -4.2188954 1.435226 0
-2.1724548 8.9657822 -0.98726714 0
-6.1767168 -6.8970604 0.59858048 0
-6.8282957 -6.2425294 0.6963048 0
-6.5585537 6.3316736 1.7255235 0
-7.1078939 -5.9622607 -0.10738754 0
8.2677383 -4.1716371 0.57048011 0
-5.9742274 -7.0981774 -0.091417909 0
-6.7316093 6.1479011 1.7247312 0
-6.2721806 -6.7912321 -0.7920928 0
8.6349812 -3.2493403 -0.98647928 0
-7.634202 5.2512097 0.48953128 0
-6.5906763 6.3213463 1.6431131 0
-5.9696102 6.91607 1.6229863 0
-6.4828234 -6.5914817 -0.79905236 0
-7.3037014 5.5719934 1.3145287 0
-5.86514 -7.1913466 -0.090041637 0
-5.8633437 7.0098429 1.6198325 0
-6.0711813 -6.9946361 0.59814775 0
-6.6883287 -6.3842835 -0.80597782 0
-7.6499157 5.2508926 0.24536979 0
8.059433 -4.2339272 1.8094406 0
3.640106 8.1278934 2.6181517 0
-5.9151182 -7.1488137 0.27472985 0
-5.3782978 7.5084896 0.93308759 0
-6.2892427 -6.7923846 0.69554877 0
-6.2881002 -6.8028336 0.59916532 0
-6.3699074 -6.6864839 0.94644642 0
-7.1106777 -5.9638376 0.24809265 0
-5.6616659 7.2385764 1.3195672 0
3.531776 8.5123425 1.1228447 0
-5.5758448 7.3130598 1.2742028 0
3.6741753 -8.1729469 2.4290333 0
-7.2748642 5.6164222 1.3157992 0
-6.8048172 -6.2877645 0.60160983 0
3.5350237 8.5138836 1.1057637 0
-5.2862148 7.6013885 0.69433641 0
-6.6795921 -6.3786521 0.95086861 0
8.0023117 -4.2595811 2.008599 0
-5.4866219 7.4364066 0.90406644 0
8.2949924 -4.1672945 -0.22836137 0
-7.1051674 -5.9607172 -0.4639532 0
3.6192331 -8.3927927 1.6413841 0
-6.1085625 -6.9775305 0.48558116 0
-5.9547882 -7.0826917 -0.7827878 0
3.6262136 8.1531925 2.571816 0
-6.4768324 -6.5873733 0.94807673 0
-6.8901014 6.0034657 1.6540031 0
-6.0835829 -7.0042291 -0.44001824 0
-7.2109013 -5.8526864 -0.10931015 0
8.2895069 -4.16468 0.45311022 0
-7.0958862 5.7967606 1.5208292 0
-7.0160933 -6.0674758 0.48760033 0
-6.3861113 -6.6979408 -0.79677737 0
-6.7831249 -6.2742195 0.95251846 0
-5.9679046 -7.0931406 0.59779143 0
8.6075859 -3.3499115 -0.98775983 0
8.2759972 -4.1781201 -0.59401989 0
8.7166557 3.0568001 -0.99027395 0
-7.5399466 5.3623347 -0.83634913 0
-5.2887826 7.6145573 0.59481394 0
8.5313387 3.5435748 -0.98677206 0
-7.0078201 -6.0598307 0.6962074 0
-5.9768476 -7.1002645 -0.43786097 0
-6.8954782 -6.1740332 -0.81387961 0
8.450304 -3.7351198 -0.98592544 0
8.1177053 4.0538607 2.0009027 0
-6.2713642 -6.7906375 0.94543397 0
-6.1038857 -6.9717641 0.69510972 0
8.2205944 -4.2008162 1.0597465 0
-5.1850882 7.7071157 0.25677109 0
-6.206666 6.6963296 1.7285726 0
-7.6514254 5.2515836 -0.47829986 0
-5.4694567 7.4041228 1.2724924 0
-7.5313025 5.3582268 0.96387517 0
-6.4704094 -6.6096992 0.90406525 0
-6.5857897 -6.4885097 0.94990921 0
-5.2983894 7.6205254 0.48332262 0
8.5740967 -3.448477 -0.98808312 0
-5.2816935 7.5942822 0.90406704 0
8.6126728 3.3516901 -0.98880744 0
8.2592325 4.0158987 1.4316046 0
8.5745249 3.4486334 -0.98817158 0
-6.2853527 -6.7878599 0.90406561 0
-5.9174814 -7.1519051 0.48470664 0
-7.2153111 -5.8551006 0.24742043 0
-7.3108425 -5.7402678 -0.11112988 0
-6.8282928 -6.242527 0.90406477 0
-5.8490362 7.0623732 1.5257936 0
3.5463257 8.4427652 1.6000385 0
3.5694127 -8.5630426 0.59478188 0
-6.0719814 -6.995255 -0.78747737 0
8.4548407 3.7370033 -0.98688006 0
-7.2020931 -5.8478632 0.60371649 0
-5.7640324 -7.290309 0.25417709 0
-6.1809702 -6.9002547 -0.79105031 0
8.6525879 3.2552149 -0.99008727 0
-7.1881256 -5.8772149 0.48755836 0
-7.108737 -5.962738 0.60326827 0
-7.6495552 5.2507277 0.60602319 0
-5.4809427 7.4280219 1.1129115 0
-2.054327 -9.0146227 -0.98615003 0
-5.8716254 -7.1966667 -0.43600422 0
-5.1852698 7.707293 -0.42103124 0
-7.0833788 -5.9483781 0.95731091 0
-7.0015173 -6.0540066 0.90406466 0
8.4999466 3.6430178 -0.98811591 0
8.4026909 3.9761765 -0.29899549 0
-5.1936731 7.7154884 -0.082127213 0
-6.916111 5.9750862 1.7260952 0
-5.2881198 7.6139293 -0.76379001 0
8.0668325 4.0585685 2.2302234 0
-6.0240049 6.8732638 1.7303226 0
8.3019285 -4.1705995 -0.45865273 0
-7.6424255 5.2572203 0.69667304 0
8.5420828 -3.5476799 -0.98900771 0
-5.8802161 -7.2037139 0.25358546 0
-7.2141657 -5.8544736 -0.46776247 0
3.5737953 -8.5858746 0.25621223 0
-5.9145365 -7.1480536 0.6946131 0
8.4192982 3.8349466 -0.98794568 0
8.419364 -3.8349752 -0.98795974 0
-7.0926781 5.7879562 1.6626091 0
-6.1749449 -6.8957305 0.94464707 0
3.596108 8.3010378 2.1758895 0
3.5681179 -8.5900345 0.24083424 0
-5.8696842 -7.1950746 0.59757674 0
-7.0007677 5.9015975 1.659538 0
-6.9934368 -6.063951 0.95624816 0
8.5049286 -3.6450033 -0.98915839 0
7.8491311 -4.2818065 2.5801773 0
-6.897048 -6.1749821 0.95488214 0
8.3777847 -3.9304035 -0.98804379 0
7.9622016 4.0772896 2.5684047 0
-6.0690622 -6.9929972 0.94332361 0
-5.7745881 -7.2992234 -0.090011001 0
-7.1026506 -5.9592919 -0.8225143 0
8.3346825 -4.0251575 -0.98809361 0
-6.8211718 -6.2355576 1.1115928 0
-5.7764797 7.118618 1.6199346 0
-7.4686775 5.4458809 1.1108665 0
8.4140415 3.9845726 -0.0091496706 0
-5.2828832 7.6089659 0.93302846 0
8.2755947 -4.1778049 0.86091733 0
-7.7517538 5.1341906 -0.48209798 0
-7.6442719 5.2483087 -0.84203815 0
-5.658947 7.2348003 1.5275571 0
3.6793535 -8.2058868 2.4141297 0
-5.1876974 7.7096605 0.59469247 0
8.4121227 3.9831536 0.28090954 0
3.5675399 -8.5888004 0.46237934 0
-6.2815742 -6.7834649 1.1123087 0
8.292099 -4.1201954 -0.98854792 0
-5.7705483 -7.2958117 -0.43475658 0
8.2092733 -4.1951346 1.3139873 0
7.9017668 -4.2780948 2.4465866 0
-5.0841293 7.8020301 -0.081235826 0
8.2755013 -4.177732 -0.8895756 0
-7.1895657 -5.8784704 0.69588006 0
-5.9645791 -7.0904913 0.94217134 0
8.3205605 -4.1794782 0.22460556 0
8.4024124 3.975971 -0.59131968 0
8.3013315 -4.1703148 0.67841578 0
-7.32652 -5.7485623 0.24659252 0
-7.7677774 5.1412516 -0.11901015 0
-6.1075602 -6.976295 0.90406644 0
8.40481 3.9777439 0.57033157 0
-2.0620337 9.0309887 -0.9890151 0
-5.6607485 -7.3868718 -0.43264568 0
8.3053265 4.0114617 1.3147762 0
-7.1791945 -5.8694248 0.90406489 0
8.3875284 3.9347804 -0.99012005 0
-6.5575943 6.3306794 1.9324071 0
-7.7670069 5.1409116 0.24429214 0
-7.8495817 5.0143552 0.24384534 0
-5.8400517 7.0506215 1.7327077 0
-5.7292137 -7.3323941 0.48318136 0
8.1363602 4.0448027 2.065475 0
-5.8693099 -7.194767 -0.78327715 0
-6.3655005 6.5110226 1.9830222 0
3.534488 8.5181408 1.3421471 0
-6.4726439 -6.6121526 1.1122699 0
-6.6535492 -6.4301386 1.1120586 0
-5.6705036 -7.3953519 -0.089146793 0
-5.6741133 7.2143688 1.6177955 0
-6.1980343 6.6862888 1.9348378 0
-5.7361908 -7.3420854 0.27133238 0
-7.0937014 5.7948551 1.7271917 0
-7.4297075 5.4720016 1.3204575 0
-7.2087097 -5.8514862 -0.82745183 0
-7.4258862 -5.6344151 -0.11392015 0
-7.0197058 -6.0793276 -0.82104242 0
-5.9150295 -7.1486983 0.90406692 0
-6.1626043 6.7113805 1.9751024 0
-6.47019 6.4116411 1.9879541 0
3.5586424 -8.6135969 -0.26332891 0
-5.102973 7.7986813 0.26894319 0
-7.4583893 5.4378982 1.3172872 0
-6.368701 -6.6856308 1.2948959 0
3.5670249 -8.5876989 0.68337786 0
-5.4803143 7.4270945 1.3219314 0
-5.7735186 -7.2983203 0.59743953 0
-7.2026796 5.683043 1.6683969 0
-6.3850689 6.5160055 1.9344201 0
3.5590498 -8.6153173 0.28819931 0
8.3947935 3.9703348 0.85929489 0
-7.8601885 5.0188494 -0.12091124 0
7.9815006 -4.2422595 2.2994802 0
-5.6737695 -7.3981915 0.25414824 0
-1.9393923 9.0700798 -0.9864856 0
-5.5622735 -7.4871764 -0.088076055 0
-6.0146132 6.8616824 1.9368334 0
-6.6723223 6.2050309 1.9971373 0
-1.9397199 -9.0708027 -0.98661125 0
-6.4764662 -6.587122 1.297708 0
-7.3300838 -5.7504478 -0.47237915 0
3.6168175 -8.3832073 1.91575 0
-7.6500702 5.2509632 0.96713912 0
-6.7389231 6.1550598 1.9327734 0
-5.1918764 7.7137361 -0.76376438 0
-7.6502895 5.2629681 0.90406466 0
8.3513908 -4.1488981 0.29755282 0
3.6531601 -8.2834749 2.2584906 0
-7.0078173 -6.0598283 1.1119227 0
-5.8679833 -7.1936789 0.94163418 0
-6.6829739 -6.3808322 1.3027596 0
-5.0914416 7.8093686 -0.42147642 0
8.3555679 -4.1509204 -0.21700829 0
3.5376143 8.5248213 1.3815045 0
8.4388905 3.9578543 -0.47554725 0
-6.274538 6.6190534 1.9809771 0
3.561758 -8.6267509 0.012246966 0
-5.10355 7.7996497 0.48098183 0
8.2690086 -4.1726346 1.1515119 0
-7.7665882 5.1407275 0.60709977 0
-7.2886295 5.6277499 1.5234742 0
-7.3282261 -5.749465 0.60484111 0
-6.7854595 -6.2756777 1.3054028 0
-6.6452827 -6.4215708 1.3197231 0
-5.5604491 -7.4855437 -0.43177491 0
8.3600655 -4.1530972 0.040440679 0
-5.770627 -7.2958784 -0.7819066 0
-6.0671797 6.8148112 1.9726942 0
-5.0983162 7.816268 0.25650787 0
-7.7515144 5.1340852 -0.84830236 0
-7.3672848 -5.6924787 0.6955229 0
-6.1061058 -6.9745011 1.1131053 0
8.4014215 3.9752376 -0.88599682 0
8.2880135 4.0033846 1.5695271 0
8.4538002 3.9645524 0.040166616 0
8.3046999 -4.1719198 0.90408683 0
-5.5764279 7.3135662 1.6166124 0
-6.8230553 -6.2374005 1.3194692 0
-6.5873814 -6.4895678 1.3009734 0
8.1460667 -4.2259259 1.7296968 0
8.4530125 3.9641984 -0.21782738 0
-5.2934427 7.6127491 1.1141121 0
3.5593143 -8.6164331 0.5632205 0
-6.2821445 -6.7841282 1.3208191 0
3.7403293 -8.0532827 2.8967459 0
3.5725346 -8.5793076 0.93422604 0
-6.5847187 6.3175063 1.9949644 0
-7.3813801 -5.7040777 0.48590446 0
-5.3919663 7.5210772 1.2743502 0
-5.1895237 7.7114415 0.93322337 0
-5.4722605 7.415204 1.5304265 0
8.2577 4.0147305 1.722949 0
-5.6735845 -7.3980308 0.59724736 0
-7.4417095 -5.642499 0.24566257 0
8.351965 -4.1491761 0.55385828 0
-7.1815205 -5.8714538 1.1120021 0
-5.092485 7.8104157 0.5947479 0
-5.7363167 -7.3422599 0.69345593 0
8.4550667 3.9651208 0.29726899 0
-7.2173386 -5.8562112 0.96109462 0
-6.4710789 -6.6104345 1.3205922 0
3.5676825 -8.5891047 0.90408075 0
8.202816 -4.1918936 1.5703907 0
-5.0851469 7.8030515 -0.76216114 0
-7.8306704 5.0765157 0.48677468 0
-5.5731759 -7.496932 0.25432503 0
3.5311422 8.5109873 1.561224 0
-5.9697218 6.9161563 1.9701471 0
-6.8943701 -6.1733632 1.3088341 0
-7.4376192 -5.640409 -0.47628534 0
3.5612516 -8.6246138 -0.5426966 0
-6.2823029 -6.7986088 1.2945194 0
-7.6463623 5.260098 1.1115696 0
3.6690996 -8.1855106 2.6303043 0
-5.9167471 -7.1509447 1.1136057 0
-5.5447063 -7.5221667 0.26867604 0
-4.9908681 7.9047284 -0.081650496 0
-6.9214058 5.979979 1.9341273 0
-5.104949 7.8019938 0.69257665 0
-7.2732267 5.6150751 1.7291303 0
8.2938786 -4.1667633 1.1295657 0
-5.7715044 -7.2966194 0.9411993 0
8.0723763 -4.2406564 2.0725558 0
-7.3278217 -5.7492509 -0.83438039 0
8.3640499 -4.1550269 -0.47745579 0
-7.5443182 5.3644128 1.3253813 0
-7.4355183 -5.6393356 0.60561597 0
3.5579376 -8.6106224 -0.82119393 0
-7.3186016 -5.7443728 0.96298981 0
-7.8278046 5.0745444 0.69561398 0
-7.5429258 -5.5278139 0.24498153 0
-5.4764242 7.4103575 1.6152649 0
-7.3679905 -5.693059 0.90406585 0
-5.2874222 7.6032872 1.3238621 0
-5.2868772 7.6127515 1.2731071 0
3.5582476 -8.6119308 0.83835483 0
-6.1827583 -6.901597 1.2928762 0
-5.9656105 -7.0913129 1.2880039 0
-7.4232512 -5.633069 -0.8381958 0
-6.4578619 -6.5959239 1.528048 0
-5.7336435 -7.3385477 0.90406823 0
-1.8237419 9.1241131 -0.98685837 0
-5.0995035 7.7928662 0.90406907 0
-6.1021004 -6.969563 1.3220749 0
-6.0759764 -6.9983449 1.2905767 0
-5.6749711 -7.3992357 -0.78124535 0
-7.0969019 -5.9560361 1.314522 0
-7.5500154 -5.5089917 0.48544145 0
-6.8917093 6.0044069 2.0104299 0
-5.8401585 7.0507612 1.9415836 0
-7.4613981 5.4402323 1.5247269 0
8.4587975 3.9667969 0.55420232 0
-7.0029011 -6.0694909 1.3123477 0
8.4862385 3.9479842 -0.0080775023 0
-7.5325842 -5.5227156 0.60621715 0
-7.0922527 5.7935915 1.9344325 0
-1.8250308 -9.1270666 -0.9873687 0
-7.5501623 -5.5313816 -0.11731911 0
-7.5396748 -5.5262113 -0.47978395 0
-5.5464745 -7.5247779 0.48070955 0
-4.9929447 7.9068732 -0.42152351 0
-7.3247805 5.5827622 1.6760187 0
-6.7983332 6.1152883 2.0066996 0
-5.4725127 -7.5952535 -0.088400126 0
-5.6672592 7.246345 1.737772 0
-7.1759844 -5.8666248 1.3198223 0
3.534338 8.5109882 1.6563768 0
8.3998108 3.9740455 1.1500819 0
8.450983 3.9632864 -0.7389524 0
-6.3799562 6.5103927 2.1419027 0
-6.1967745 6.6848226 2.1432004 0
-7.6393824 -5.4095964 0.24436522 0
-7.0127125 -6.0643516 1.3203168 0
8.4881201 3.9488156 -0.23822296 0
8.2800407 -4.1601691 1.3545752 0
-5.7252617 -7.3269057 1.1142399 0
-4.9896007 7.9034195 0.59464753 0
-5.7684107 7.111999 1.9645352 0
-7.6394262 5.2550278 1.3188996 0
-5.5773635 -7.500679 0.59717298 0
-7.8858843 5.029736 -0.48924506 0
-7.643424 5.2479205 1.3289299 0
-6.8206673 -6.2350636 1.5275021 0
-7.8798122 5.0271635 0.60812759 0
-7.7691479 5.1418552 0.97048855 0
-5.5427141 -7.5192261 0.69265997 0
-5.0015593 7.9157696 0.25645232 0
-7.8233633 5.0714898 0.90406549 0
8.3582058 -4.1521974 0.81085098 0
3.5702574 -8.5674438 1.2735679 0
-5.4757519 -7.5982366 0.2543956 0
-5.8804941 7.0235062 1.9695296 0
3.5951543 8.2972536 2.4559515 0
-6.6478786 -6.4242611 1.5283782 0
-7.6479721 -5.4136791 -0.11924517 0
-7.2025995 -5.8481407 1.3180087 0
-7.4255733 -5.6342554 0.96530163 0
-5.4722214 -7.594985 -0.4324953 0
-7.0894175 5.786171 2.020647 0
-5.0931907 7.8111238 0.93330848 0
8.453558 3.9644432 0.81121933 0
-5.6749926 -7.3992548 0.94085836 0
8.1276712 4.0616841 2.2995148 0
-6.7375174 6.1536832 2.1407135 0
-5.7570395 -7.2844033 1.2846096 0
-6.2832575 -6.7854223 1.5298815 0
8.3686237 -4.1572404 -0.74011946 0
8.4891891 3.9492881 0.44884467 0
8.2692871 -4.172853 1.4443724 0
-6.9996252 5.9009509 2.0170665 0
-7.365983 -5.6914072 1.1125696 0
-7.4258776 5.4701138 1.6809087 0
-5.5739384 -7.4976144 -0.7799319 0
-5.8702321 -7.1955237 1.2872465 0
-7.5525579 -5.5109649 0.69479239 0
8.0837355 4.0666227 2.4580026 0
-6.3671179 -6.6845117 1.6453211 0
-7.8715439 5.0236602 -0.85645258 0
3.5494864 8.4592314 1.9431791 0
-7.8134155 5.0646472 1.1121106 0
3.5717604 -8.5978222 1.1250443 0
8.4127722 -4.1329155 -0.30793482 0
-7.9873028 4.9094138 0.24232769 0
7.9062176 -4.280375 2.672739 0
8.5021286 3.9550045 0.21961617 0
-7.863616 5.0203013 0.97250617 0
-7.0007915 -6.0533361 1.5278721 0
-7.4504061 5.4317036 1.7313657 0
8.1332197 -4.2155409 2.0228438 0
-6.5711288 6.3447084 2.1432905 0
-7.2670603 5.6100001 1.9361501 0
-1.7059171 9.1732044 -0.98666525 0
-5.5685992 -7.492837 0.9399209 0
-5.1902256 7.7121263 1.2730367 0
-7.9933758 4.9118853 -0.12520778 0
-6.0981941 -6.9647455 1.5312128 0
-5.6720185 7.2125998 1.9629946 0
-6.7793293 -6.2718492 1.6594172 0
-5.6557884 7.2304134 1.9456079 0
-5.3719859 -7.6934109 -0.088062108 0
-5.4752088 -7.5977364 0.5969913 0
8.4185982 -4.1373553 0.27920294 0
-5.3521566 -7.7050347 0.26537693 0
-1.7071054 -9.1760378 -0.98715186 0
8.4233246 -4.1409578 -0.014459968 0
-5.360548 -7.6825705 0.59653974 0
-5.1033478 7.7993107 1.1154897 0
8.3524265 -4.1493998 1.0681028 0
-5.924264 -7.1607771 1.3239491 0
-4.9968133 7.9108682 -0.76400506 0
-7.6464386 -5.41295 0.60717106 0
-7.7472734 5.1322165 1.3330696 0
3.5637419 -8.5806799 1.3453655 0
8.1435308 4.048274 2.3309829 0
-6.2714109 -6.7906713 1.6433759 0
-7.7509727 -5.297163 -0.12155521 0
-6.9173603 5.9762402 2.1418436 0
-7.6537943 -5.4164467 -0.48458624 0
3.5592961 -8.6163568 1.1149769 0
-5.3738742 -7.6952004 0.25453973 0
8.200779 -4.1908717 1.8301005 0
8.5030804 3.955425 -0.47172952 0
-6.5840969 -6.4873834 1.653604 0
3.533283 8.5155649 1.7818568 0
-6.4817381 -6.5907378 1.6502905 0
-5.3888755 7.5182304 1.6162083 0
-6.6864834 -6.3830943 1.6571083 0
-6.0264215 6.8762441 2.1485076 0
3.6271863 8.1578941 2.9178019 0
-5.2903509 7.6078901 1.5347111 0
-4.989831 7.903657 0.93297219 0
-7.5469418 -5.5297933 -0.8460815 0
8.4162121 -4.1355371 0.57214463 0
8.2535419 4.0115619 2.0167575 0
-6.6408825 -6.4170098 1.7365985 0
-7.5387287 -5.5257444 0.96805096 0
-6.4606533 -6.598989 1.7374859 0
8.0590458 -4.2337255 2.3330405 0
8.3948898 3.9704063 1.4415708 0
8.4989691 3.9536085 0.67634141 0
8.4536543 3.9644866 1.0692887 0
-5.2647419 -7.7847991 -0.087329805 0
-5.3759418 -7.6971598 -0.43244261 0
-5.4761729 -7.5986242 -0.77938008 0
-5.262826 -7.7829309 0.25487566 0
8.4179621 -4.1368709 -0.60470927 0
3.6490202 -8.2634602 2.5978122 0
-8.013834 4.8889275 0.48452544 0
-7.3212662 -5.7457824 1.3229063 0
3.4695473 8.7324448 -0.2717216 0
-7.5360413 5.3604789 1.6872182 0
-5.4846592 7.4335103 1.7423387 0
-5.2815247 7.6076784 1.6140742 0
-7.1814175 -5.8713636 1.5287702 0
-8.0038548 4.8824768 0.69468617 0
-5.666049 -7.3914795 1.2846601 0
8.3036652 4.0106864 1.8328404 0
-7.6435213 5.2580214 1.5272355 0
-5.0866842 7.804594 1.2722867 0
-5.577271 7.3142996 1.96208 0
-8.0030031 4.9158025 -0.49488544 0
-5.732831 -7.337419 1.3252444 0
-8.0936584 4.789526 -0.12771565 0
-5.9157858 -7.1496873 1.5334835 0
-6.8974428 -6.175221 1.6655612 0
-6.1797895 -6.8993678 1.6422689 0
-7.2121153 5.688035 2.0303924 0
-7.5639133 -5.5197759 0.90406704 0
-7.9988222 4.9141011 0.60928929 0
-7.0940628 5.7951708 2.1433225 0
-5.5554962 -7.5380983 0.9040699 0
-5.8084359 7.0757923 2.1711166 0
8.5078115 3.957515 -0.70569491 0
8.5477448 3.9343684 -0.013263166 0
-5.4734845 -7.5961485 0.93986917 0
-1.5881522 -9.2224216 -0.9867835 0
-6.4743824 6.4144287 2.3439846 0
-5.5442734 -7.5215282 1.1155436 0
3.4726744 8.7465429 0.007171154 0
-5.3613997 -7.7195621 0.47785783 0
-6.2838974 -6.7861676 1.7396379 0
-7.7691059 -5.3054657 0.24308169 0
-5.1014929 7.7962012 1.3269708 0
-7.7414579 -5.3296065 0.48334634 0
-1.5886712 9.2237101 -0.98700356 0
-5.3549109 -7.709363 0.69136095 0
-6.6734056 6.2057076 2.3545246 0
-7.8204088 5.0694575 1.3207774 0
-5.3702664 -7.6917815 -0.77768636 0
-6.5763655 6.3121223 2.3496776 0
7.9875593 -4.2473025 2.6025505 0
-7.0005093 -6.0680914 1.6697111 0
-6.078577 -7.0003567 1.6399012 0
-7.3763809 -5.6999636 1.3219275 0
-6.8296423 -6.2438478 1.7375429 0
-5.2702947 -7.790215 -0.43142188 0
-7.0978794 -5.9565897 1.6732409 0
-5.4700241 7.411901 1.9505689 0
