# .PCD v0.7 - Point Cloud Data file format
VERSION 0.7
FIELDS x y z intensity
SIZE 4 4 4 4
TYPE F F F F
COUNT 1 1 1 1
WIDTH 1379
HEIGHT 1
VIEWPOINT 0 0 0 1 0 0 0
POINTS 1379
DATA ascii
0.56015694 -6.1098413 -0.99275994 0
-1.9031804 5.8428097 -0.98310733 0
5.4929314 -2.7594922 -0.98756969 0
-5.0587192 3.4933805 -0.98590076 0
5.4944 2.7609451 -0.98812318 0
0.63588166 -6.1180539 -0.99051464 0
-5.0661573 -3.4961617 -0.98744428 0
-5.0059566 3.5843577 -0.98263204 0
0.71188343 6.1237292 -0.98787916 0
5.5449572 2.7047946 -0.98731673 0
-1.918961 -5.8639836 -0.98920393 0
-1.8336444 5.8956923 -0.98344743 0
5.5485291 -2.7082286 -0.98864436 0
0.70998633 -6.1332445 -0.99047887 0
-5.0261374 -3.5922346 -0.98684287 0
0.78744924 6.1303015 -0.98579168 0
0.78579152 -6.1392841 -0.98823929 0
-1.8432109 -5.9089189 -0.987216 0
5.5987215 2.651737 -0.9879936 0
-4.9807911 -3.6860673 -0.98540807 0
5.6007996 -2.6536787 -0.9887557 0
-4.9831247 3.687017 -0.98589778 0
5.6420498 2.589088 -0.98516202 0
-4.9290738 -3.7769947 -0.98290229 0
0.86015594 6.1524739 -0.98824358 0
-1.7699983 -5.9570732 -0.98646319 0
-1.7714188 5.9590974 -0.98703408 0
5.6495752 -2.5959189 -0.98788524 0
-4.939033 3.7812142 -0.98500466 0
0.85826623 -6.1636052 -0.99126887 0
0.93629944 -6.1542954 -0.98545444 0
0.93512881 6.1618447 -0.98750138 0
5.6951194 2.535413 -0.98616862 0
-1.6939623 6.0009441 -0.9848156 0
5.6980491 -2.537997 -0.9872154 0
-1.6956215 -6.0033822 -0.98549652 0
-4.8983483 3.8767922 -0.98511517 0
5.741374 -2.4757364 -0.98503101 0
-4.9038658 -3.8792238 -0.98628724 0
1.009951 6.1718278 -0.98721695 0
1.0093809 -6.1758866 -0.98831522 0
-4.8432336 -3.9658048 -0.98243296 0
-1.6210833 -6.0492616 -0.98471582 0
5.7574883 2.4895442 -0.99071705 0
1.0850921 6.1791601 -0.9865067 0
-4.8593273 3.9731734 -0.98587358 0
-1.6294119 6.0618849 -0.98820734 0
1.0843176 -6.1853123 -0.98816824 0
5.7960019 -2.4231677 -0.98712575 0
5.8001184 2.426594 -0.9885608 0
-4.8077064 -4.0637131 -0.98422134 0
1.1595589 6.1919985 -0.98757231 0
-1.5535717 -6.1059837 -0.98720729 0
1.1594008 -6.1934185 -0.98795509 0
5.8420229 2.3633335 -0.98649156 0
1.236509 6.1805553 -0.98238683 0
-4.8158965 4.067606 -0.98598397 0
5.8436818 -2.3646743 -0.98706305 0
-1.5566993 6.1108747 -0.98854756 0
-1.4749498 6.145391 -0.98523808 0
-4.7620945 4.1569676 -0.98413956 0
-1.477824 -6.1500306 -0.98649812 0
5.8914165 2.3062129 -0.98730659 0
1.2340721 -6.2057009 -0.98915613 0
5.901 -2.3137362 -0.99057126 0
1.3101351 6.202858 -0.98657668 0
-4.779604 -4.1655989 -0.98793411 0
-1.4001381 6.1907101 -0.98518169 0
5.9372468 -2.2462482 -0.98718953 0
1.309212 -6.2140508 -0.98958588 0
5.9397182 2.2481315 -0.98802209 0
-4.7198162 -4.2519355 -0.98507512 0
-1.3166616 -6.2211256 -0.98143423 0
-1.4070933 -6.2023053 -0.9883033 0
1.3854024 6.2078729 -0.98640263 0
5.975503 -2.1806765 -0.9848367 0
-4.7295704 4.2569184 -0.98720419 0
1.3850846 -6.2125416 -0.98765647 0
-1.3249993 6.2354875 -0.98526824 0
-4.6728377 -4.3445964 -0.98528194 0
5.9915786 2.1925685 -0.99019468 0
-4.6736135 4.3450069 -0.98545253 0
1.4604837 6.2162948 -0.98743212 0
6.0240259 2.1227653 -0.9862057 0
1.4603376 -6.2190123 -0.98816133 0
-1.2459941 -6.2734389 -0.98383236 0
-1.246012 6.2734704 -0.98384082 0
6.0343757 -2.1301947 -0.98961937 0
1.5361112 6.2140298 -0.98588359 0
6.0627327 2.0578213 -0.98462784 0
1.5360458 -6.2156935 -0.98632967 0
-4.6236753 4.436121 -0.98529935 0
-4.6339264 -4.4417334 -0.987571 0
6.1088567 1.998071 -0.98576546 0
-1.1730523 6.3222232 -0.98555195 0
6.0875654 -2.0751138 -0.9927361 0
-4.5716963 -4.5260773 -0.98497903 0
1.6869407 -6.2101283 -0.98382616 0
1.6110809 -6.232039 -0.99005997 0
1.6110758 6.232245 -0.99011517 0
-4.5762062 4.5286312 -0.98598659 0
-1.1787481 -6.332715 -0.98830807 0
1.6868527 6.218327 -0.98602319 0
6.17838 -1.8636305 -0.9816196 0
6.1309843 -2.0130141 -0.9929198 0
-1.0969641 6.3655062 -0.98609757 0
-4.5198903 4.6161056 -0.98498392 0
6.1621051 -1.9428213 -0.98944938 0
6.1658626 1.9452813 -0.9906528 0
4.7755337 4.3601441 -0.98602355 0
-4.5260353 -4.6197023 -0.98636794 0
1.7622728 -6.2225423 -0.98708045 0
4.777297 -4.3632321 -0.98684454 0
6.1934257 1.8731759 -0.98639393 0
1.7622883 6.2268586 -0.98823702 0
-1.103138 -6.3772774 -0.98916614 0
-4.4624019 4.7027225 -0.98398948 0
1.8377627 6.2234721 -0.98754668 0
-1.0211127 6.4094462 -0.98709214 0
4.8510008 4.3158302 -0.98592329 0
-1.0243144 -6.4157696 -0.9887284 0
1.9128526 -6.2099624 -0.98443174 0
1.8379657 -6.2348185 -0.99058735 0
1.9129597 6.2132878 -0.98532331 0
6.2423673 1.8147237 -0.98922193 0
6.2446408 -1.8161209 -0.98993695 0
-4.4817681 -4.7144337 -0.98838866 0
-0.93813086 -6.4391122 -0.9846921 0
6.2699308 1.7431829 -0.98562253 0
6.2705727 -1.7435646 -0.98582256 0
-0.93972659 6.4423785 -0.98553145 0
4.8619928 -4.334456 -0.99091637 0
-4.4136653 4.7946577 -0.98527467 0
4.9274831 4.2731705 -0.98656023 0
-0.85887241 6.476028 -0.9844625 0
6.3131218 -1.6810651 -0.98720241 0
1.9888561 6.2229018 -0.98869765 0
-4.4302058 -4.804986 -0.98906517 0
-0.86050534 -6.479496 -0.98534739 0
1.9890355 -6.2267561 -0.98973143 0
4.9371853 -4.2890859 -0.99086344 0
2.0635905 6.2072549 -0.98558533 0
-4.3565297 4.8814297 -0.98493242 0
5.000792 -4.225287 -0.98607528 0
-4.3636527 -4.8860207 -0.98657954 0
6.329905 1.6907284 -0.99239159 0
6.3509994 1.615778 -0.98741388 0
5.0055294 4.2328138 -0.98812842 0
6.3552771 -1.6181602 -0.9887259 0
2.0646834 -6.2251968 -0.99040174 0
6.3773699 -1.5442538 -0.98440778 0
2.1393907 -6.2099848 -0.98769498 0
2.1394644 6.2109628 -0.98795772 0
-0.78474879 6.5242405 -0.98738658 0
-4.3015561 4.9696045 -0.98538005 0
2.2135184 -6.1913733 -0.9843576 0
6.4082484 1.4754181 -0.98309565 0
-0.78669095 -6.5285225 -0.9884721 0
6.3936801 1.5530329 -0.98937094 0
2.2141976 6.1989465 -0.986395 0
5.0801172 -4.1867428 -0.98844433 0
5.0813403 4.1886258 -0.98896277 0
-4.3124828 -4.9768701 -0.98793066 0
6.4194026 -1.4812176 -0.98646426 0
-0.70098019 6.5513029 -0.98523295 0
-0.70241714 -6.5545955 -0.98606229 0
-4.2371464 -5.0514135 -0.983904 0
5.1480341 -4.1306152 -0.98626375 0
2.2901292 6.1998992 -0.98861158 0
2.2902708 -6.2012587 -0.98897791 0
2.3635535 6.1775756 -0.98484457 0
6.4611721 1.4177861 -0.98869872 0
-4.2565093 5.0646925 -0.98846793 0
-0.62119508 6.5872173 -0.98560953 0
6.4625993 -1.4185023 -0.98912656 0
5.1578102 4.1452036 -0.99031794 0
6.4816618 -1.3437707 -0.98485398 0
-0.62261748 -6.5906081 -0.98645842 0
6.4836454 1.3447313 -0.98544455 0
5.2226167 -4.0845766 -0.98716414 0
-4.1865549 5.1427526 -0.98598003 0
5.2236505 4.0860724 -0.98758399 0
5.2859249 4.0224895 -0.98382592 0
6.5193839 -1.2782316 -0.98644447 0
-4.1967306 -5.1499476 -0.98840249 0
2.3670635 -6.2071643 -0.99282849 0
-0.54154515 -6.6236405 -0.98639572 0
2.4403708 6.1836615 -0.9890337 0
5.2905226 -4.0289426 -0.98565507 0
-0.4528439 6.6369467 -0.98173928 0
-4.1198297 -5.2227392 -0.98451018 0
2.4411287 -6.1893539 -0.99057245 0
-4.1231484 5.2251577 -0.98530841 0
-0.5458951 6.6344419 -0.98908389 0
6.5471749 -1.2080278 -0.98538399 0
6.5326729 1.2844317 -0.99037373 0
2.5146744 -6.16957 -0.98806381 0
6.5548353 1.2114689 -0.98763406 0
-0.45846343 -6.6514983 -0.9853406 0
2.5161836 6.1797838 -0.9908303 0
2.5882559 -6.1515822 -0.98632252 0
2.5891271 6.1569467 -0.98777866 0
-4.0597711 -5.307488 -0.98492181 0
-4.0617509 5.3089743 -0.98540306 0
6.5864015 1.1428721 -0.98796225 0
5.3671017 -3.9854076 -0.98787248 0
5.3681445 3.9868276 -0.98827922 0
6.5882182 -1.1436572 -0.98849249 0
2.6624055 -6.1377773 -0.98600125 0
2.6624434 6.1379924 -0.98605978 0
-0.37658954 6.6822958 -0.98530817 0
5.4287281 3.9216206 -0.98456669 0
5.4330063 -3.9272759 -0.98620391 0
-0.38108015 -6.694438 -0.98829699 0
6.619256 -1.0747554 -0.98894799 0
6.6208916 1.0754347 -0.98942244 0
2.736891 6.1258249 -0.98647368 0
6.6375613 -1.00071 -0.98601341 0
2.738342 -6.1333847 -0.98853636 0
-0.29419923 6.7116752 -0.98521638 0
6.6437964 1.0031953 -0.98781192 0
-4.0050297 5.3964524 -0.98694122 0
-4.0081477 -5.3988647 -0.9877075 0
6.6640906 0.93012565 -0.98575866 0
2.8821681 -6.084208 -0.98343778 0
2.8120275 6.1166935 -0.98801076 0
-0.29981518 -6.7275553 -0.98910511 0
2.8130131 -6.1214581 -0.98931444 0
2.8834689 6.0900726 -0.98504734 0
5.5078425 -3.8809149 -0.98823631 0
-3.9365482 5.4748788 -0.98588371 0
5.5118022 3.8859961 -0.98972344 0
6.6787791 -0.93573803 -0.989972 0
6.6917038 0.85995048 -0.98610353 0
-0.21314001 6.7450171 -0.98637867 0
-3.9412212 -5.4786019 -0.98704505 0
6.6964626 -0.86169106 -0.98746133 0
2.9571047 6.0740223 -0.98526561 0
5.5722609 3.8211396 -0.98663676 0
6.7159314 -0.78853613 -0.98577166 0
6.7164392 0.78871363 -0.98591578 0
-0.21772099 -6.758585 -0.98968482 0
-3.8654675 5.5509992 -0.98444092 0
2.9600551 -6.0864792 -0.98869574 0
-0.12906837 6.7695255 -0.98567545 0
3.0312824 6.0599637 -0.98632586 0
3.0320535 -6.063024 -0.98717141 0
5.5864658 -3.8388402 -0.99187636 0
5.6389074 3.7643445 -0.98618519 0
-3.8790789 -5.5621648 -0.98786294 0
6.7465434 0.71927291 -0.98753405 0
6.7476811 -0.71965235 -0.98785532 0
-0.13464332 -6.7868528 -0.98987758 0
5.6455851 -3.7724259 -0.9886055 0
6.7642269 -0.64568704 -0.98593295 0
-0.045737982 -6.7962198 -0.98579407 0
6.7658286 0.64619619 -0.98638332 0
3.1059036 6.0470672 -0.98800635 0
-0.046385288 6.7983346 -0.98630464 0
3.107039 -6.0513134 -0.98918414 0
5.7069006 3.709192 -0.98651338 0
-3.810854 -5.6407762 -0.98744571 0
-3.8108716 5.6407914 -0.98745024 0
5.7085161 -3.7110908 -0.98708892 0
3.2470913 5.9921079 -0.98412681 0
6.7928181 0.57555932 -0.98768747 0
0.038801312 -6.8188686 -0.98522699 0
3.1800582 -6.0318022 -0.98933101 0
6.7958975 -0.57648963 -0.98854935 0
3.1806197 6.0337877 -0.9898839 0
-3.7340589 5.7118845 -0.98510408 0
0.036145091 6.8280139 -0.98742568 0
6.8121791 0.50257546 -0.98714232 0
5.7730885 -3.6518877 -0.98648214 0
-3.7403789 -5.7173786 -0.98673177 0
6.8154726 -0.50351924 -0.98806024 0
5.778893 3.6585166 -0.98851633 0
0.12368238 -6.8400774 -0.9846077 0
3.2545848 -6.0172348 -0.99115252 0
-3.6592903 5.7843714 -0.98352444 0
6.8322005 0.42981488 -0.9870733 0
3.3930311 -5.9538164 -0.98604846 0
3.3260796 -5.9923077 -0.99037182 0
-3.6667633 -5.7910585 -0.98547375 0
3.3937206 5.9559083 -0.98663867 0
6.841414 -0.43231302 -0.98963106 0
3.3268926 5.9948983 -0.99109924 0
5.8408637 -3.5963242 -0.98728418 0
5.841713 3.5972664 -0.98757708 0
6.8533249 -0.35732824 -0.98759818 0
0.11745203 6.8627338 -0.99003255 0
6.8551664 0.35779923 -0.98810744 0
3.4654803 -5.9325981 -0.98687172 0
0.20582795 6.8715868 -0.98673809 0
0.2054354 -6.8730989 -0.98709869 0
6.8709688 0.28393024 -0.98744833 0
-3.5937467 -5.8650665 -0.98463404 0
6.87293 -0.28440219 -0.98798883 0
3.5352154 -5.9035726 -0.98576927 0
5.903667 -3.5352275 -0.98665822 0
3.5358493 5.9053249 -0.98626864 0
3.469712 5.9448419 -0.99034274 0
-3.60008 5.8708992 -0.98630774 0
5.9111953 3.5433438 -0.98921394 0
0.29222298 -6.8868995 -0.98529148 0
6.8973446 0.21250254 -0.98998678 0
6.9010839 0.13601559 -0.98659945 0
6.8988519 -0.21284252 -0.99040067 0
0.28944278 6.8982735 -0.98799467 0
3.675313 5.8478637 -0.98507917 0
-3.5236864 5.9417357 -0.98485661 0
5.9692388 3.4771178 -0.98726189 0
3.6118798 5.893168 -0.99028015 0
3.6774058 -5.8531699 -0.98660755 0
-3.5280776 -5.9458976 -0.98603272 0
3.613277 -5.8968639 -0.99133885 0
5.9770141 -3.4852636 -0.98986173 0
6.9180017 -0.13957781 -0.99123192 0
0.37654424 6.9105325 -0.98611391 0
0.37577033 -6.9139075 -0.98691332 0
6.9247937 0.063788831 -0.98897338 0
3.7472334 5.8246264 -0.98650277 0
6.9269876 -0.064218104 -0.98957241 0
6.0328364 3.4168656 -0.98748243 0
3.7500806 -5.831553 -0.98850942 0
6.9368935 0.087380588 -0.98495519 0
-3.4542074 6.0190473 -0.98553598 0
6.9398274 0.010280311 -0.98926067 0
-3.4548864 -6.0197096 -0.98572028 0
3.8184295 5.7992711 -0.9876169 0
0.46216154 -6.9286909 -0.98592651 0
6.0426126 -3.4268186 -0.99070334 0
3.8202229 -5.8034625 -0.98883843 0
6.9483166 -0.085483313 -0.98805785 0
0.46077597 6.9351559 -0.98745298 0
6.9505262 -0.0083456039 -0.99217379 0
6.0931811 3.3533323 -0.98692572 0
6.9544301 0.16093165 -0.9865061 0
6.0959344 -3.356056 -0.98781979 0
3.8887873 5.7717013 -0.98838663 0
3.8898935 -5.7741871 -0.9891156 0
6.9611015 -0.15992147 -0.98831403 0
-3.378685 6.0904655 -0.98486352 0
0.54729915 6.9492269 -0.98658836 0
3.9568963 5.7390318 -0.98795259 0
6.9674182 -0.23528779 -0.98710883 0
3.958611 -5.7427425 -0.98904788 0
-3.3872213 -6.0990324 -0.98721433 0
0.54538727 -6.9588161 -0.98884571 0
4.0238209 -5.7039666 -0.98709214 0
6.1579494 3.294122 -0.98808646 0
6.9802103 0.23353767 -0.99056828 0
6.9781575 -0.30999929 -0.98739111 0
6.1588964 -3.2950323 -0.98838973 0
4.0273294 5.7112803 -0.98926568 0
6.9860268 0.30903721 -0.9895153 0
6.2087526 3.2216437 -0.9850893 0
0.63312185 6.9666023 -0.9867928 0
6.981039 0.46132588 -0.98381412 0
-3.3104649 -6.1693134 -0.98650515 0
6.9910579 0.38452381 -0.98854363 0
-3.3116078 6.1704941 -0.98682451 0
6.9965935 -0.38392729 -0.99003553 0
4.2216849 -5.5940261 -0.9847616 0
4.1605959 -5.6399441 -0.98805463 0
4.160645 5.6400385 -0.98808312 0
0.63061178 -6.9802041 -0.98998618 0
4.0987263 5.6851153 -0.99136353 0
6.2211223 -3.2331994 -0.98899734 0
4.1010275 -5.6897416 -0.99274814 0
7.0013132 -0.4594343 -0.98927009 0
0.71938825 6.9816217 -0.98673332 0
0.71914744 -6.9830408 -0.98706555 0
4.2278261 5.6055346 -0.98825681 0
6.995801 0.61124444 -0.98459852 0
4.2893324 5.5606813 -0.98555732 0
4.2899551 -5.56181 -0.98590291 0
7.0034647 -0.53507733 -0.98810613 0
-3.2313538 6.2369704 -0.98540032 0
6.2799821 -3.168185 -0.98882532 0
7.0132995 0.53430164 -0.99074948 0
4.3552027 5.5240226 -0.9856348 0
4.3552699 -5.5241404 -0.98567104 0
-3.2412653 -6.2475047 -0.98821187 0
0.80631816 6.9924326 -0.98597932 0
6.2858806 3.1735399 -0.99066448 0
7.0022163 -0.76175284 -0.98429596 0
7.0172615 -0.6098603 -0.99036086 0
-3.1526237 6.3048353 -0.9846648 0
7.0177364 -0.6855678 -0.98932695 0
7.0185843 0.6855253 -0.98955452 0
7.0128555 0.76137197 -0.98714852 0
4.4253912 5.4946346 -0.98826706 0
0.80373394 -7.0090961 -0.98987246 0
6.3376818 3.1021521 -0.98858666 0
6.3383403 -3.1027334 -0.98878956 0
4.4857645 -5.4485745 -0.98600447 0
0.89323246 7.0028124 -0.98541677 0
4.4278622 -5.4988213 -0.98956966 0
-3.1605368 -6.3134899 -0.98694432 0
4.4881496 5.452487 -0.98723245 0
7.0182343 0.83673865 -0.98801112 0
4.5508213 5.4103818 -0.98648477 0
0.89140761 -7.0158033 -0.98844552 0
7.0138268 0.91228288 -0.98654068 0
7.0164094 -0.91226441 -0.98723257 0
7.0258474 -0.83657515 -0.99005163 0
6.3946452 -3.0355039 -0.98841643 0
4.613893 5.3690095 -0.98624969 0
7.0111318 0.98769778 -0.98581851 0
6.3959446 3.0366173 -0.98881137 0
-3.0777922 -6.3769569 -0.98534048 0
-3.0779901 6.3771796 -0.98539841 0
4.5589032 -5.4232216 -0.99054992 0
6.439136 -2.958478 -0.98478997 0
7.0168405 -0.98773867 -0.98734808 0
0.97902167 7.0217128 -0.98712766 0
4.734704 -5.2785449 -0.98413336 0
0.97869992 -7.0242677 -0.98772228 0
4.6215363 -5.3807764 -0.99000931 0
4.6795716 5.3315449 -0.98756254 0
7.0045886 1.138332 -0.98493195 0
4.7389517 5.2846923 -0.9861356 0
7.0183668 1.0632643 -0.98804677 0
-2.99365 6.4384761 -0.98356199 0
4.6840572 -5.3382387 -0.98972166 0
7.0219741 -1.0633416 -0.98901355 0
6.4567356 2.9731266 -0.9900763 0
1.0661069 -7.0310545 -0.98690093 0
6.4974608 -2.8931904 -0.98564112 0
4.8604598 -5.1953716 -0.98553419 0
7.010468 1.2140677 -0.98737705 0
7.0228534 -1.1389859 -0.98982918 0
4.8050709 5.2475348 -0.9881618 0
7.0109015 -1.2140895 -0.9874934 0
4.8052063 -5.2477245 -0.98822415 0
7.002955 1.289217 -0.98651934 0
-3.0079241 -6.4550142 -0.98780859 0
1.1543659 7.0281806 -0.9841305 0
4.8666124 5.2037516 -0.98831987 0
4.9232106 5.1533794 -0.98656034 0
1.1538084 -7.0339336 -0.98546481 0
6.9963908 -1.3643646 -0.98620474 0
1.0640755 7.0492945 -0.99113798 0
4.9258437 -5.1568599 -0.98772967 0
6.9865022 1.4391838 -0.98528433 0
7.0192418 -1.2902673 -0.99089253 0
6.9916992 -1.4396687 -0.98668301 0
6.5183425 2.9100714 -0.99184036 0
-2.9241529 6.5170879 -0.98644805 0
6.5585704 2.8299322 -0.98757625 0
6.5597363 -2.8308473 -0.98791838 0
4.9886541 -5.1146393 -0.98900604 0
6.9846678 1.5147876 -0.98682141 0
7.0150852 1.3658392 -0.99122941 0
6.985816 -1.5149114 -0.987131 0
1.2409955 7.0410991 -0.98531437 0
-2.9294205 -6.5233703 -0.98804164 0
6.9742007 -1.5895169 -0.98632288 0
5.0486374 5.0686531 -0.98931062 0
5.1046367 -5.0177703 -0.98821342 0
5.1577621 4.9636655 -0.9862498 0
5.1074448 5.0211682 -0.98939455 0
6.9672422 1.6646881 -0.98706126 0
5.2140818 4.9135046 -0.98593509 0
5.0002632 5.1295366 -0.9940666 0
5.2147799 -4.9143014 -0.98621881 0
6.6123333 2.7607505 -0.98762202 0
-2.8405652 6.5791035 -0.98539114 0
6.9702287 -1.6650968 -0.98786891 0
6.6135092 -2.7616465 -0.98796332 0
6.9884367 1.5912573 -0.99016583 0
5.1641045 -4.9711218 -0.98887265 0
5.0573893 -5.0795588 -0.99305737 0
5.2696657 4.8625536 -0.98562026 0
1.2391777 -7.0631394 -0.99041998 0
6.9596601 -1.7398603 -0.98792338 0
-2.848947 -6.589396 -0.98797131 0
5.2754545 -4.8689766 -0.98793709 0
6.9646049 1.740609 -0.98926353 0
6.9504824 -1.8148766 -0.98864627 0
6.6626453 -2.6889868 -0.9869622 0
1.3273141 -7.0610108 -0.98840249 0
6.952373 1.8151906 -0.98915982 0
5.332006 -4.8189139 -0.98826218 0
5.3322806 4.8192101 -0.9883703 0
1.3271236 7.063808 -0.98904967 0
6.9364514 1.8891091 -0.98834133 0
6.6670518 2.6922464 -0.98822761 0
6.9174452 1.9623508 -0.98696697 0
5.3868484 4.7669883 -0.98819947 0
5.4371238 -4.7103996 -0.98667741 0
1.4154792 7.0540247 -0.98555517 0
6.9422741 -1.8901621 -0.98992693 0
6.7058496 2.6121993 -0.98458266 0
6.9029517 2.0364089 -0.98711085 0
1.4152906 -7.0575352 -0.98636675 0
5.4902654 4.6568542 -0.98656476 0
5.539907 4.5999393 -0.98543954 0
5.3924747 -4.772882 -0.99038267 0
6.9284472 -1.9645035 -0.9899708 0
6.8172741 2.3257675 -0.98292935 0
5.4933686 -4.6599245 -0.98773444 0
-2.765696 6.651927 -0.98732269 0
6.8887901 2.1105731 -0.98763692 0
6.7144203 -2.6183515 -0.98701835 0
5.446866 4.7203178 -0.99040246 0
5.595078 -4.5483332 -0.98665762 0
6.915699 -2.039093 -0.99060142 0
1.5030544 7.0534968 -0.98449326 0
6.8958821 -2.1121726 -0.98958492 0
5.5971317 4.550252 -0.98741066 0
6.8295403 -2.3290935 -0.98633468 0
6.8535376 2.2573826 -0.98765695 0
5.5511198 -4.6107192 -0.98960733 0
6.781251 -2.4720645 -0.98444963 0
6.8065858 -2.4009724 -0.98558319 0
6.879056 -2.1858764 -0.98967719 0
-2.7748466 -6.6634984 -0.99019027 0
6.8567777 -2.2582114 -0.98855305 0
-2.6757979 -6.7056789 -0.98482347 0
6.7598743 2.5432844 -0.98558152 0
5.7452364 4.379046 -0.98639393 0
5.7908416 4.3188725 -0.98532665 0
6.7872982 2.4738915 -0.98614228 0
5.6522465 -4.4983444 -0.98885214 0
5.8370829 -4.2593398 -0.98478937 0
6.8861036 2.1875725 -0.99161959 0
6.7645264 2.5457821 -0.98601711 0
-2.6811419 6.7126389 -0.98652911 0
5.702322 4.4417658 -0.98874199 0
5.8398972 4.2616148 -0.98575902 0
5.6562204 4.5019512 -0.99029005 0
6.7398434 -2.6170373 -0.98564136 0
6.0548167 -3.9523089 -0.98204315 0
5.7034788 -4.4427857 -0.98915529 0
5.7504497 -4.3835135 -0.98823357 0
1.5904788 7.0544543 -0.98406446 0
6.7422962 2.6178558 -0.98633432 0
6.7701726 -2.5475767 -0.9876045 0
1.5021632 -7.0761304 -0.98972273 0
6.7705512 -2.5507197 -0.98858535 0
-7.173583 0.95002365 -0.98660922 0
6.8242164 2.4060249 -0.99049747 0
5.8897624 -4.2049146 -0.98674321 0
5.9336667 4.1435199 -0.98598337 0
1.5903043 -7.0614233 -0.98567379 0
6.7197633 2.6898758 -0.98685932 0
-7.1587582 -1.0774443 -0.98440576 0
6.1860437 3.7684925 -0.98405135 0
5.8949652 4.2089987 -0.9885155 0
6.5115652 3.1745839 -0.98413265 0
5.9820433 -4.0855145 -0.98701656 0
6.6968412 -2.7618294 -0.98756933 0
5.9824786 4.0858364 -0.98716164 0
6.810154 -2.4716697 -0.98580384 0
6.1080627 3.8975348 -0.9855088 0
6.6713734 -2.8329084 -0.98784769 0
6.7004762 2.763159 -0.98860645 0
6.5803409 3.0402532 -0.98619318 0
6.6117258 2.9716287 -0.98676324 0
6.7297087 -2.6933529 -0.98968232 0
6.0704241 3.9631772 -0.98713911 0
6.2303743 -3.7073538 -0.98545015 0
-2.5949402 6.7709799 -0.98546422 0
6.6744294 2.8340762 -0.98872435 0
-7.1719971 1.0776339 -0.98650277 0
6.0309606 -4.0277429 -0.98849285 0
6.1543875 -3.8377688 -0.9869777 0
6.486186 3.2459612 -0.98620081 0
5.9460773 -4.1529784 -0.99016452 0
6.6467352 -2.9043665 -0.98865962 0
6.0322299 4.0286541 -0.98891163 0
5.8134518 -4.3376923 -0.99320912 0
6.453362 3.3138664 -0.98635709 0
6.5211601 -3.1790605 -0.98696971 0
6.19561 -3.7745616 -0.98708713 0
6.8193288 2.4778655 -0.98835969 0
6.6181631 -2.9743018 -0.98863089 0
-2.5982776 -6.7754583 -0.98654985 0
6.3129673 -3.5809765 -0.98715472 0
6.5567427 3.1123259 -0.98819435 0
1.677796 -7.0621104 -0.98547113 0
6.4220653 -3.3826022 -0.98726845 0
-7.1581163 -1.2048988 -0.9847374 0
6.4222288 3.3826873 -0.98731792 0
6.5895152 -3.0442176 -0.9888711 0
6.1593823 3.8410387 -0.98857737 0
6.351902 -3.5162809 -0.98769081 0
6.5587182 -3.1132133 -0.98877466 0
6.388361 3.45017 -0.98775244 0
6.2785568 3.6483152 -0.98831201 0
6.2404747 3.7135608 -0.98862672 0
-7.1619263 1.2050079 -0.98534119 0
6.6551332 2.9077137 -0.99108195 0
6.1227884 -3.9074795 -0.99027002 0
6.3925676 -3.4524341 -0.98903239 0
6.4972806 -3.251332 -0.98950362 0
6.3568401 3.5190306 -0.98920524 0
6.3228273 3.5866532 -0.99020314 0
1.6776561 7.0751491 -0.9884814 0
6.4684949 -3.3214614 -0.99089408 0
6.288507 -3.6542351 -0.99141431 0
1.7652596 7.0569434 -0.98420596 0
-7.1543016 1.3323032 -0.98485565 0
-2.5114479 6.8328366 -0.98555124 0
6.8705397 -2.4066164 -0.98909676 0
6.8762202 2.4103355 -0.99066436 0
1.765308 -7.0704885 -0.98733306 0
6.912858 2.3295965 -0.98767602 0
-7.1729841 -1.3331059 -0.98781729 0
-7.1494007 -1.4596928 -0.98509073 0
-2.5227532 -6.8484678 -0.98930097 0
6.916255 -2.3317516 -0.98860478 0
-7.1581869 1.4601964 -0.98648453 0
-7.1323118 -1.5862775 -0.98368001 0
1.8529582 7.0726795 -0.98805606 0
-7.1378632 1.5866754 -0.98456168 0
6.9564657 2.2535546 -0.98691726 0
-2.4314365 6.8997126 -0.98711443 0
1.853085 -7.0797663 -0.98969245 0
1.9401618 7.0576639 -0.98509479 0
6.964118 -2.2582569 -0.98899078 0
1.9402434 -7.0601954 -0.98567951 0
-2.4351339 -6.9049821 -0.98836565 0
6.9937158 -2.1738183 -0.98475063 0
-7.1250515 1.7134787 -0.9841181 0
-7.1267385 -1.7136239 -0.98438632 0
7.0019765 2.1787331 -0.98696971 0
-2.3447943 6.9572926 -0.98674738 0
-2.3464255 -6.9596896 -0.98731101 0
-7.1147547 -1.8404803 -0.98436308 0
7.0445805 2.1022103 -0.98653388 0
2.0281098 7.0661511 -0.98785174 0
-7.1207571 1.8410838 -0.98531842 0
7.0487099 -2.1045876 -0.98763394 0
2.1150212 -7.0517006 -0.98559678 0
2.0287189 -7.0792365 -0.99087596 0
-7.0985146 -1.9668694 -0.98395038 0
2.1155899 7.0610375 -0.98775625 0
-2.2594829 -7.01683 -0.98712993 0
-7.105793 1.9677064 -0.98511064 0
7.0894637 -2.0269978 -0.9869945 0
-2.2607675 7.0187774 -0.9875834 0
2.2017798 7.0387063 -0.98396432 0
7.0974269 2.0314322 -0.98909879 0
7.1302099 -1.9494731 -0.98665023 0
-7.0942383 2.0947592 -0.98573637 0
-2.1724129 -7.0737615 -0.98719072 0
-7.060586 2.2187679 -0.9831177 0
2.2038431 -7.066113 -0.9903096 0
2.2896242 7.0398822 -0.98590207 0
7.1399779 1.954731 -0.98921132 0
-7.1011934 -2.09566 -0.98684704 0
-2.1755686 7.0786958 -0.98832917 0
-7.0718899 -2.220397 -0.9849267 0
7.1733971 -1.8732457 -0.98723352 0
-2.0799627 7.1220641 -0.98556435 0
7.1789193 1.876117 -0.98867047 0
2.2913315 -7.0589175 -0.99031436 0
-2.0824237 -7.1260371 -0.98647273 0
7.2110476 1.7941387 -0.98666537 0
2.3776586 7.0403891 -0.98797917 0
2.3779023 -7.0427299 -0.98852241 0
2.4640539 -7.0247421 -0.98659682 0
-7.0647106 -2.3483212 -0.98683596 0
7.223865 -1.8005714 -0.98997629 0
7.2482395 -1.7148676 -0.98627484 0
-7.0699825 2.349158 -0.98768139 0
-1.9939191 7.180625 -0.98657811 0
-1.994221 -7.181128 -0.98669219 0
-7.0327396 -2.4723217 -0.98505867 0
7.2556572 1.7184587 -0.98817754 0
2.4657393 7.038949 -0.98989975 0
-7.0392532 2.4734516 -0.98610568 0
2.5510423 7.0147123 -0.98680794 0
-1.8983383 7.2230959 -0.9842453 0
2.5519733 -7.0217042 -0.98843646 0
7.2898598 1.6376965 -0.98730528 0
-7.0089474 2.5975618 -0.98488045 0
-7.0119467 -2.5981264 -0.98536384 0
2.6373408 6.9997101 -0.98614931 0
-1.9049432 -7.2344732 -0.98680246 0
7.3017511 -1.6432443 -0.99033463 0
2.6387448 -7.009213 -0.98836708 0
2.7224588 6.9778385 -0.98417115 0
7.3295155 -1.5594831 -0.98811233 0
-6.9831467 -2.7223876 -0.98466635 0
7.3324547 1.5608034 -0.9888562 0
-6.9922695 2.7242405 -0.98614085 0
-1.8132071 7.2835178 -0.98623919 0
7.361783 1.4779484 -0.98733878 0
2.7263322 -7.0016861 -0.98974895 0
7.3918853 -1.3955989 -0.98632097 0
-6.9640055 -2.8486526 -0.98582041 0
2.8114777 6.9792905 -0.98794162 0
7.3951178 1.3969409 -0.98712897 0
-1.7192736 -7.3283849 -0.98504782 0
-6.9672365 2.8493574 -0.98634422 0
-1.8239105 -7.302578 -0.99048829 0
2.8119917 -6.9821911 -0.98862183 0
7.3801861 -1.4859009 -0.99196708 0
2.8954864 -6.9520655 -0.98528016 0
2.8962121 6.9558454 -0.98616886 0
7.421535 1.3131855 -0.98549044 0
-6.9322672 -2.9722226 -0.98522317 0
7.4270415 -1.3153801 -0.98685896 0
-6.9325275 2.9722831 -0.98526549 0
-1.7280281 7.3445115 -0.98861456 0
-6.8926983 3.0937641 -0.983634 0
-1.6289375 7.3797793 -0.98559439 0
2.9839501 -6.9479198 -0.98833501 0
7.4606252 1.2344701 -0.98728991 0
-6.9002914 -3.095649 -0.98487306 0
7.4764066 1.1469727 -0.9836278 0
5.3432398 5.3543625 -0.98544848 0
3.0668693 6.916945 -0.98535407 0
-1.6335297 -7.388535 -0.98751616 0
2.9853349 6.9546156 -0.98991358 0
5.3464422 -5.3599701 -0.98670363 0
7.4785128 -1.2413046 -0.99171078 0
-6.8679867 -3.2189505 -0.98475659 0
3.0713954 -6.9373517 -0.9901799 0
7.5166597 1.0684929 -0.98627615 0
-6.8770466 3.2213376 -0.98624051 0
3.2356229 6.8707314 -0.98395169 0
3.1547277 -6.9083481 -0.98795342 0
7.5057683 -1.1577122 -0.99084568 0
5.4361372 -5.307344 -0.98661041 0
-1.5431552 7.4403925 -0.98842824 0
3.1558931 6.9132681 -0.98912072 0
5.4380436 5.3105745 -0.98733962 0
-1.5447152 -7.4434729 -0.9890995 0
-6.8309374 3.3409338 -0.9841491 0
7.5435238 0.98518115 -0.98592734 0
7.53122 -1.0735836 -0.98983717 0
3.2391877 -6.8848763 -0.98731947 0
-1.446254 -7.4792438 -0.98680115 0
-6.7876549 3.4609957 -0.98279774 0
7.5579472 -0.98999351 -0.98943758 0
-1.4485881 7.4840217 -0.98783481 0
-6.8518476 -3.3467648 -0.98758733 0
7.5764985 0.9038381 -0.98734987 0
3.3256631 6.8691769 -0.9888289 0
5.5323906 -5.2654605 -0.98925292 0
-1.3499196 -7.5187864 -0.98563266 0
3.4077539 -6.8372164 -0.9867394 0
7.5854702 -0.90668947 -0.98952329 0
5.5345201 5.2689543 -0.99004829 0
3.3284211 -6.8794951 -0.99129474 0
-6.8120546 -3.4681776 -0.9868263 0
-1.3522885 7.5238166 -0.98671341 0
3.4112842 6.8497033 -0.98973536 0
5.6152344 5.2015018 -0.98716438 0
-6.7639227 3.586889 -0.98496652 0
-1.253356 -7.5574589 -0.98458111 0
7.6154623 0.82410139 -0.99049222 0
5.6193156 -5.2079864 -0.98865366 0
3.493897 -6.8196855 -0.98839986 0
-6.7728567 -3.589658 -0.98644793 0
7.6204872 -0.82561952 -0.99170411 0
7.6303797 -0.73704964 -0.98812127 0
3.5741086 -6.7825112 -0.98561239 0
3.4949293 6.8231478 -0.98923409 0
-6.7148523 3.7049685 -0.98322403 0
-1.2572963 7.5661464 -0.98643541 0
5.6971264 -5.1366043 -0.98511207 0
7.6487813 -0.65122849 -0.98689163 0
5.7017274 5.1436872 -0.98675382 0
7.6549425 0.65289921 -0.98836541 0
3.6581264 6.7579288 -0.9861511 0
7.6483679 0.74220461 -0.9924413 0
3.6595535 -6.7622576 -0.98720348 0
-1.1598561 -7.6028175 -0.98524833 0
3.5816936 6.8066759 -0.99145961 0
-6.7378426 -3.7124567 -0.98705375 0
-1.1625307 7.6089463 -0.98654819 0
7.6762905 -0.56787652 -0.98813021 0
3.7403188 -6.7278047 -0.98563194 0
-6.6851187 3.8293488 -0.98499179 0
5.7887301 5.0867028 -0.98682189 0
5.790504 -5.0893502 -0.98744142 0
7.6884046 0.57097572 -0.99101698 0
7.7017994 -0.39395207 -0.98446095 0
3.7449651 6.7412486 -0.9889158 0
-6.6287489 3.9445691 -0.98258698 0
7.6981997 0.48300034 -0.98831844 0
3.8237758 6.7013135 -0.98628998 0
7.7002125 -0.48348469 -0.98879647 0
-6.7008162 -3.8347116 -0.98761928 0
7.7134013 0.39656895 -0.98720682 0
3.9037747 6.6653924 -0.98491824 0
-1.0674698 7.6511407 -0.98681939 0
3.8278732 -6.7126412 -0.98907101 0
-6.6448469 -3.9503272 -0.98529482 0
7.7257605 0.30966157 -0.98572004 0
-1.0717328 -7.6613035 -0.98896158 0
7.7326455 -0.31111127 -0.98734438 0
5.8801718 -5.0360866 -0.98868823 0
-0.96900463 7.6850452 -0.98563778 0
5.8834667 5.0408549 -0.98981488 0
5.9542398 4.9605742 -0.98494267 0
3.9129667 -6.6897101 -0.99092019 0
3.9902201 6.6462293 -0.98798108 0
4.0663962 6.6010385 -0.98487329 0
3.9908333 -6.6477842 -0.98836708 0
-0.97244263 -7.6935821 -0.98742676 0
7.7601538 -0.2272349 -0.98971403 0
4.071908 -6.6144462 -0.98821998 0
-6.6135941 4.0747638 -0.98741639 0
4.1482468 -6.5700431 -0.9855839 0
-5.4741387 -5.6017332 -0.024309516 0
-5.5578322 -5.50911 -0.32738006 0
-0.87220931 -7.7228503 -0.98557019 0
-5.7350202 -5.3273597 -0.33241761 0
-6.6182652 -4.07651 -0.98820615 0
7.76929 0.22902244 -0.99186325 0
4.1497231 6.5734925 -0.9864502 0
7.774528 -0.051747262 -0.98576951 0
5.9690604 -4.9813771 -0.98990762 0
7.7738276 -0.14053982 -0.98911369 0
-5.3893423 -5.6929297 -0.023209274 0
-5.9193163 -5.145514 -0.032139301 0
-5.5691566 -5.5161815 0.27521813 0
4.2274628 6.532865 -0.98503196 0
-6.5580111 4.1901436 -0.98571515 0
-5.4812474 -5.6063147 0.27567112 0
-5.746594 -5.3341346 0.27421212 0
-5.5755391 -5.5201669 -0.026506841 0
-5.4807143 -5.6059713 -0.3262226 0
-5.3900638 -5.6934094 -0.32377732 0
-5.2987843 -5.7794766 -0.32137328 0
-5.6611624 -5.4276276 0.27465916 0
6.0444822 4.9079862 -0.98694015 0
6.0445585 -4.9080896 -0.98696506 0
-5.6671319 -5.4312372 -0.0281564 0
-5.4709101 -5.5996523 0.5755142 0
-5.8348541 -5.2413712 -0.33623332 0
-5.8376603 -5.2429605 0.27362859 0
7.788919 0.054137528 -0.98913741 0
4.2310057 -6.5408268 -0.98704386 0
-6.0934324 -4.9536901 -0.035504103 0
-5.3831506 -5.6888127 0.57508492 0
-5.9250469 -5.1486516 0.2730968 0
-5.5242691 -5.5709486 0.37700796 0
7.7909937 0.14364415 -0.99314106 0
-5.3990097 -5.699358 0.2759825 0
-5.8457775 -5.2475567 -0.031373978 0
-6.0079422 -5.050951 -0.34151566 0
-5.3119993 -5.7885394 -0.022654414 0
-6.5705595 -4.1950412 -0.98784864 0
-5.5676608 -5.5152473 0.57615089 0
-0.88125038 7.7462611 -0.99044824 0
-5.7629714 -5.3437204 -0.030127764 0
-0.77476835 7.7589417 -0.98543561 0
-5.3106408 -5.7876081 0.27639866 0
-5.3722343 -5.7256927 0.3759501 0
-5.5671282 -5.5149145 -0.6325438 0
-5.1243753 -5.9547868 -0.31776845 0
-5.6724529 -5.4344549 -0.33250421 0
-5.4789157 -5.6048121 -0.62931097 0
-5.9309716 -5.1518955 -0.33977175 0
-5.2209706 -5.8741326 0.27682006 0
-5.2253919 -5.8772588 -0.021586657 0
-6.017766 -5.0561485 0.27243698 0
-5.6581049 -5.4257789 -0.63633072 0
-5.7495432 -5.3358607 0.5772475 0
7.8027644 0.032474518 -0.98915923 0
-5.3020282 -5.7817016 0.57481885 0
-6.5079203 -4.3074546 -0.98522496 0
-5.0377626 -6.0418425 -0.018719316 0
-6.0239506 -5.0594201 -0.034829497 0
-0.77734256 -7.7659025 -0.98687816 0
-5.2080116 -5.8649697 -0.61962032 0
4.3120241 6.5073733 -0.98773599 0
-6.0069408 -5.0504212 0.57874918 0
-5.2245107 -5.8766356 -0.32089835 0
-5.3942819 -5.6962142 -0.62676382 0
-5.8398967 -5.2442265 0.57781613 0
-5.9247069 -5.1484656 0.5782963 0
-5.5281181 -5.5751753 0.55273151 0
-5.8268557 -5.2624063 0.55355465 0
-5.6798925 -5.4209185 0.55313838 0
-5.1375146 -5.9643617 -0.020507276 0
-5.3733025 -5.7269349 0.55221701 0
-5.2196274 -5.881392 0.37443304 0
-5.9220686 -5.1470208 -0.6473428 0
7.8102889 -0.031335175 -0.99091613 0
-6.10783 -4.9610453 0.27180791 0
-5.2158346 -5.870501 0.57447004 0
-5.0400896 -6.0435901 0.27762973 0
-6.1060219 -4.9601216 -0.34546322 0
-5.8404751 -5.2445545 -0.64441621 0
-5.8202858 -5.2559757 0.72909832 0
-5.3078928 -5.7857232 -0.62412405 0
-6.5178375 4.3114901 -0.98692071 0
-5.2076616 -5.8666368 0.72819173 0
-5.6740236 -5.4354048 0.577003 0
-5.6625547 -5.4029474 0.90402436 0
6.1306896 4.8495412 -0.98784494 0
7.8144951 -0.20774877 -0.98635709 0
7.8162022 -0.11916333 -0.98937523 0
-5.1397786 -5.966012 0.27703619 0
-5.3687096 -5.7215924 0.72838032 0
-6.0123777 -5.0532975 -0.65165257 0
-5.5638022 -5.5128379 0.87718153 0
-5.9773235 -5.1075878 0.55344558 0
4.3175497 -6.5193276 -0.99077642 0
-5.7599773 -5.3419681 -0.64181864 0
-5.5261126 -5.5729723 0.7285428 0
-5.6461415 -5.4185443 -0.94203925 0
7.8193655 0.11873055 -0.99011219 0
-5.21982 -5.8816295 0.55126882 0
6.1337829 -4.8536305 -0.98884153 0
-5.0469365 -6.0487309 -0.31720972 0
7.8204231 0.20702398 -0.98773587 0
-5.1312995 -5.9598327 0.5741806 0
-5.6800404 -5.421072 0.72867179 0
-5.8294163 -5.2382922 0.88178849 0
-5.656951 -5.4250808 0.87893283 0
-5.0639935 -6.0354738 0.37270141 0
-0.67794228 -7.7967772 -0.98594952 0
-6.2062035 -4.8688598 -0.038792133 0
-5.8160524 -5.2518325 0.90402436 0
-5.1319761 -5.9603257 -0.61886358 0
-5.7464471 -5.3340483 0.88052416 0
4.3950863 6.4779382 -0.98975801 0
-4.956214 -6.1322007 -0.31532347 0
-6.458806 -4.4251113 -0.98518753 0
-0.6795342 7.8012781 -0.98687744 0
-5.4841819 -5.6082063 0.87633562 0
-6.1239786 -4.9490304 0.55329669 0
-5.3950429 -5.6967206 0.87496793 0
-6.4625053 4.4266787 -0.98582387 0
-6.2054806 -4.8685031 -0.34964478 0
4.5428491 6.3816066 -0.98503792 0
-6.2876396 -4.7671189 0.27048945 0
-6.1127682 -4.9635682 0.57968879 0
-6.1938915 -4.8627901 0.58016527 0
4.3975701 -6.4831166 -0.99108398 0
-5.3052788 -5.7839308 0.87362719 0
-5.9783592 -5.1085448 0.72879732 0
4.6164389 6.3337502 -0.98314476 0
-4.9640317 -6.1382475 0.27768421 0
-6.2129087 -4.8721652 0.27086461 0
-6.2966776 -4.7714148 -0.040834725 0
-5.065774 -6.0378032 0.54999328 0
-5.0485888 -6.0499716 0.57395566 0
7.8332644 -0.29376948 -0.98839307 0
4.4728727 -6.437294 -0.98920953 0
-4.9694686 -6.1424532 -0.019068837 0
-5.4857006 -5.6091852 -0.93647695 0
7.8349447 0.2935884 -0.98878324 0
-6.1139574 -4.9641757 -0.65767074 0
-5.3966632 -5.6977978 -0.93236566 0
-5.7513232 -5.3369026 -0.94974434 0
4.4741321 6.4398265 -0.98986256 0
-5.9296389 -5.1511655 0.88415599 0
-5.5779748 -5.5216875 -0.94139385 0
-4.8712878 -6.2195311 0.27808142 0
-5.049614 -6.0507417 -0.61733592 0
-6.1225367 -4.9477735 0.72880018 0
-4.8756695 -6.2230215 -0.017809272 0
6.2138839 4.7869787 -0.9880476 0
-5.2199836 -5.873435 0.87263942 0
-4.9570498 -6.1328473 0.57356167 0
-5.214674 -5.8752837 0.90402603 0
-6.0076189 -5.0507798 -0.96316504 0
6.2149253 -4.7883153 -0.98837698 0
-6.0161848 -5.0553117 0.88576889 0
-5.3755932 -5.7296 0.90402567 0
-5.6681366 -5.4087329 1.078979 0
-4.9073677 -6.1909175 0.37049878 0
7.8376517 -0.38140351 -0.98737729 0
-5.5334234 -5.5809989 0.90402555 0
-5.3125024 -5.7888846 -0.92939293 0
-5.5194445 -5.5656524 1.079277 0
-5.0646896 -6.0363851 0.72714746 0
-6.3866873 -4.6725016 -0.042917907 0
7.8427315 0.38092953 -0.98855519 0
-4.8663549 -6.215601 0.57320833 0
-4.8783984 -6.2251954 -0.31499219 0
-6.2748079 -4.7934408 0.55262172 0
-5.8477969 -5.2487006 -0.95601594 0
-5.9785852 -5.1087546 0.90402496 0
-6.4089499 4.5424623 -0.98531199 0
4.5529041 -6.4011164 -0.99010503 0
-4.9635692 -6.1378899 -0.61541915 0
-4.9068527 -6.1902032 0.54870403 0
7.842834 0.46886653 -0.98683739 0
-5.935008 -5.1541052 -0.96079481 0
-5.1367545 -5.9638076 0.87185788 0
-0.58149457 7.8360353 -0.9870379 0
-4.7849312 -6.3052425 0.27831316 0
-4.7888584 -6.3084641 -0.017086327 0
-5.8236914 -5.2593093 1.079062 0
-6.386405 -4.6723723 -0.35657561 0
-5.1338873 -5.9617186 -0.92209661 0
-6.2124004 -4.8719144 -0.66339242 0
-5.3705959 -5.7237868 1.0797381 0
-0.5827291 -7.8396921 -0.9877882 0
4.6277418 -6.3549314 -0.98868752 0
4.6993771 6.3032727 -0.98609662 0
6.2907562 -4.7164564 -0.9865638 0
-6.3114729 -4.7784467 -0.35455835 0
-5.2303467 -5.8807621 -0.92703056 0
-6.3930759 -4.675427 0.26949823 0
-5.5675354 -5.5151691 1.179781 0
-5.0420418 -6.0450559 -0.91825151 0
6.291553 4.7174492 -0.98681128 0
-6.3001995 -4.7730885 0.58115315 0
-6.4751892 -4.5716519 -0.04498297 0
-6.1252432 -4.9501338 0.90402496 0
-5.6574612 -5.4253893 1.1823714 0
-0.47723603 -7.8516116 -0.98356819 0
-6.4194736 -4.5471001 -0.9871335 0
-6.2969456 -4.7715416 -0.66736603 0
-5.0634384 -6.0347476 0.90402687 0
-5.746242 -5.3339286 1.1849551 0
-6.1177845 -4.9661307 0.88833714 0
-5.6654577 -5.4059567 1.2539437 0
-6.1099758 -4.9621415 -0.97107267 0
-5.8126383 -5.2484918 1.2535686 0
7.8557453 -0.46784809 -0.98982739 0
-5.0526352 -6.0530105 0.87109399 0
-5.3942757 -5.6962099 1.1756196 0
-5.9755945 -5.1059904 1.079165 0
-6.2781487 -4.7961903 0.72831798 0
-5.0530472 -6.0211558 1.0804598 0
-6.3494663 -4.6554594 -0.98405218 0
-4.9083843 -6.1923299 0.72640109 0
-6.3869524 -4.6726227 0.58178401 0
-6.2033205 -4.8674383 0.89002359 0
7.8537683 -0.55590951 -0.9879185 0
4.7757664 6.2605515 -0.98613191 0
-0.4802525 7.8609867 -0.98548245 0
-6.3518133 4.6565337 -0.98446083 0
7.8565845 0.55572784 -0.98856997 0
-6.1173239 -4.9432263 1.0790887 0
-6.4223766 -4.6340423 0.55188751 0
-4.8833218 -6.2291174 -0.6145854 0
-5.8404169 -5.2445211 1.1881924 0
-5.2216797 -5.8839226 1.0803785 0
-6.0096283 -5.0518432 1.1930823 0
-4.7060924 -6.3968391 -0.016715467 0
4.7080631 -6.3190031 -0.9902451 0
-5.3106165 -5.7875915 1.1740284 0
-5.4934888 -5.6142044 1.1789522 0
-5.3667192 -5.7192779 1.2553644 0
-4.9656506 -6.1394997 0.87021565 0
-4.7036676 -6.3947911 -0.31258315 0
-5.9299579 -5.1513405 1.1910706 0
-4.8039989 -6.3208842 -0.3151933 0
-6.205246 -4.8683877 -0.97789812 0
-6.4185209 -4.6310511 0.72816539 0
-4.707643 -6.3981485 0.27831256 0
-6.2752209 -4.7937803 0.90402544 0
-5.1292768 -5.9583588 1.169699 0
-6.4917383 -4.5789447 0.26861751 0
-5.2237763 -5.8761163 1.1722195 0
-5.2107763 -5.8704777 1.2561154 0
-6.4900675 -4.5782084 -0.36147267 0
6.3720222 4.6515608 -0.98675704 0
-4.7947979 -6.3133364 -0.61263347 0
-5.969965 -5.1007891 1.254138 0
-5.5289202 -5.576055 1.2553754 0
-4.7981577 -6.3160925 0.57338536 0
-6.2988758 -4.772459 0.89236212 0
7.8652072 0.64307928 -0.98940349 0
4.7845454 -6.2759261 -0.99021935 0
4.8548059 -6.2222772 -0.98765171 0
7.8664179 -0.6430186 -0.98968351 0
-5.0398736 -6.0434279 1.1678369 0
-4.8778386 -6.2247491 0.86935449 0
-6.2642956 -4.7847891 1.0793149 0
-6.4830999 -4.5751381 0.58261764 0
-4.7605457 -6.3643799 0.36643362 0
7.8609524 0.73101312 -0.98755074 0
-4.8756328 -6.2229919 -0.91464627 0
4.857461 6.2267766 -0.98885775 0
-6.4025364 -4.6797585 -0.67435062 0
-5.5139608 -5.5596323 1.4299736 0
-4.9742537 -6.1461544 -0.91941833 0
-4.912612 -6.1982026 0.90402806 0
7.8655047 -0.73085016 -0.9886024 0
-4.6164012 -6.4789577 -0.3115769 0
-6.5829287 -4.4776998 -0.048212886 0
-6.2969751 -4.7715559 -0.98429239 0
-4.7060637 -6.3968148 0.57305121 0
7.8490534 0.90630573 -0.98393512 0
-4.7587185 -6.3616824 0.54610765 0
4.9293308 -6.1762009 -0.98737967 0
-4.7509098 -6.3501525 0.72548914 0
4.9294405 6.1763811 -0.98742831 0
-6.5813484 -4.4770303 0.26788735 0
-4.7063646 -6.397069 -0.61086512 0
6.3821168 -4.6637778 -0.98983753 0
-4.7841086 -6.3045678 -0.91149592 0
-6.115037 -4.9647269 1.1977487 0
-6.302351 4.7741113 -0.98523521 0
-6.4196033 -4.6318908 0.90402567 0
-4.6222916 -6.4840784 0.27846789 0
5.0005498 6.1249022 -0.98597026 0
7.864696 0.81856334 -0.98783624 0
-0.3831172 7.8986464 -0.98681247 0
-4.9554868 -6.1316381 1.1666429 0
-5.7724414 5.4949193 -0.034606099 0
-5.3649101 -5.7171726 1.4313171 0
7.8571272 -0.90624791 -0.98579919 0
7.8665085 -0.81852448 -0.98825467 0
-6.4896336 -4.5780172 -0.67898655 0
-6.393445 -4.6755958 0.89470732 0
-4.7918029 -6.3108797 0.86868584 0
-5.593926 5.6789365 -0.031778157 0
-5.7379918 -5.3290992 1.4900906 0
-4.5901537 -6.5073457 0.36461651 0
6.449707 4.5823793 -0.98615408 0
-5.4049397 5.8522773 -0.33263481 0
-5.6746025 -5.4154358 1.4303 0
-5.8642058 5.4029765 -0.036275268 0
-5.7696958 5.493259 -0.34244645 0
-4.6135969 -6.4765196 -0.60856318 0
5.0727139 -6.075346 -0.98530686 0
-5.4090304 5.855083 0.27431631 0
-5.5919313 5.6776509 -0.33779866 0
-5.8238688 -5.2594824 1.429915 0
-5.6558037 -5.4243875 1.4874005 0
-6.5896931 -4.480566 -0.36608499 0
6.452795 -4.5860085 -0.98708022 0
-5.4147739 5.8590217 -0.029185474 0
-5.5079179 5.7717772 -0.030671954 0
-4.6346502 -6.4948225 -0.017213583 0
5.0062199 -6.1339102 -0.98842764 0
-4.9113255 -6.1964154 1.0817721 0
-5.9693642 -5.1002331 1.4296131 0
-5.6863208 5.5893421 -0.34063298 0
-5.8316479 -5.2395558 1.4945705 0
-0.38666725 -7.9102468 -0.98917055 0
-5.0659227 -6.0379982 1.2580731 0
-4.7510481 -6.3503575 0.90402901 0
7.8589792 0.99376529 -0.9862268 0
-6.1321039 -4.9561176 1.2552567 0
-5.7809114 5.5000415 0.27221656 0
-6.6776209 -4.3765054 -0.050762236 0
-5.326128 5.9484835 -0.02805233 0
-4.7028918 -6.394136 0.86789584 0
-5.5752606 -5.5199928 1.4851208 0
5.0779381 6.0833883 -0.98752093 0
-4.7003002 -6.3919473 -0.91014731 0
-5.2130432 -5.8685274 1.471777 0
5.1462426 6.0279412 -0.9855206 0
-6.5860529 -4.4850764 0.54997301 0
-4.62571 -6.4870505 0.57301104 0
-5.2337561 6.0344963 -0.02674824 0
-5.6991844 5.5973744 -0.034146369 0
-4.5938816 -6.5132046 0.54442263 0
-6.2942858 -4.7702775 1.2042933 0
-5.1346021 6.1145577 0.27556682 0
-6.0062943 -5.0500789 1.5022073 0
-5.6157246 5.6713567 0.36751318 0
-5.4570293 5.8243294 0.36685658 0
-4.5414953 -6.5737758 -0.016289234 0
-5.6968846 5.5959387 0.27258968 0
-6.4877214 -4.5771747 0.89710057 0
-6.1151476 -4.941328 1.4297752 0
-5.4915013 -5.6129236 1.4825492 0
-4.539094 -6.5716271 0.27854621 0
-5.2187319 -5.8802872 1.433522 0
-5.6103535 5.6654601 0.54704618 0
-0.28279829 7.9261246 -0.98635817 0
-5.2323551 6.0334754 -0.32945776 0
-6.2731113 -4.7920446 1.2553277 0
-5.6090355 5.6886749 0.27301741 0
-5.4531717 5.8198419 0.5465132 0
-6.247613 4.8892727 -0.98537934 0
-6.683239 -4.3787918 0.26690245 0
5.1504507 -6.0342212 -0.98726594 0
-6.220541 -4.8759274 1.2025137 0
-6.6797876 -4.377387 -0.36990261 0
-4.541121 -6.573441 -0.31210542 0
-6.4244595 -4.6356587 1.0800614 0
-4.6111641 -6.4744048 0.86698258 0
-6.5816736 -4.4818759 0.72722197 0
-5.879725 5.4120603 0.27151942 0
-5.3318033 5.9524965 0.27445078 0
-5.2981014 5.978158 0.36572325 0
-5.5974932 5.6812358 0.57814288 0
-5.8776116 5.4108233 -0.34687269 0
7.8613153 1.081364 -0.98705542 0
-5.4058704 -5.7039204 1.4798725 0
-5.5201049 5.7798805 0.27344418 0
-5.0575409 -6.0270338 1.4346113 0
-5.9306364 -5.1517119 1.4999421 0
-5.3314328 5.9522347 -0.33235478 0
-5.3153992 -5.7908711 1.4766417 0
-5.5188913 5.7790737 -0.33731258 0
6.5285578 -4.5146313 -0.98619926 0
-6.5907259 -4.4810033 -0.68565559 0
-5.2394075 6.0386147 0.27488434 0
7.876534 -0.99389094 -0.99027967 0
6.5299826 4.5162578 -0.98661959 0
-6.0608816 5.2230239 -0.040597677 0
-5.1315541 -5.9600182 1.4701996 0
-5.9756794 5.3211169 -0.039197564 0
-6.6011448 -4.4854178 0.58388782 0
-5.9700813 5.3179469 -0.34982932 0
-5.689466 5.5913062 -0.65025294 0
-4.7507944 -6.3499823 1.0825644 0
5.2888055 5.9265323 -0.98497188 0
-5.3252678 5.947876 0.57680941 0
-5.0482845 6.2034183 -0.3255071 0
-5.5083904 5.7720909 -0.64358938 0
7.8443418 1.2558746 -0.9845804 0
7.8576932 -1.1688702 -0.98679781 0
-5.9752345 5.3208647 0.27086902 0
7.8707323 -1.0815662 -0.98923016 0
5.2237759 5.9862537 -0.98763502 0
-4.9114132 -6.196537 1.2597163 0
-5.8748107 5.409184 0.57978106 0
-0.28697014 -7.9404883 -0.98926544 0
-5.8218994 -5.257555 1.6058445 0
-5.5233612 -5.569952 1.6074836 0
-4.4520764 -6.6555166 -0.015698791 0
-5.1536374 6.1288505 -0.026313424 0
-5.6980443 5.5966625 0.57883406 0
-5.775775 5.5203032 0.5467093 0
-5.6757212 -5.4165945 1.6067662 0
-4.8899732 -6.234416 1.1676867 0
-5.8714328 5.4072065 -0.65767562 0
-4.5405836 -6.5729599 0.57288861 0
-5.6045442 5.68578 -0.6476624 0
-5.517252 5.7779837 0.577896 0
-6.6740437 -4.3750501 -0.69011438 0
-6.3915424 -4.6747246 1.2084699 0
-4.5977764 -6.5193262 0.72415519 0
-5.4207611 5.8631277 -0.64092839 0
-6.6827335 -4.3785858 0.58448792 0
-5.0451775 -6.0474105 1.4680545 0
7.8638358 1.16909 -0.98821688 0
-5.1405888 6.1356678 0.36388445 0
-4.7947688 -6.3133125 1.1655488 0
-6.5810003 -4.4813838 0.90402687 0
5.3596745 5.8752918 -0.98497522 0
-6.0680733 5.2269621 0.27025056 0
-5.0611858 6.2133975 -0.02514565 0
-5.1356754 6.12924 0.54463506 0
-5.1541905 6.1292663 -0.32894409 0
-6.7788143 -4.2763257 -0.053744793 0
-4.4534721 -6.6568022 -0.31132966 0
5.2288923 -5.9936566 -0.98971248 0
-4.6231341 -6.4848108 -0.91043663 0
-6.4735355 -4.5709233 1.211292 0
-6.5875759 -4.4796686 0.89987731 0
-5.3741045 -5.7278681 1.6092908 0
-6.7772293 -4.2757072 0.26604462 0
-6.1132126 -4.9637952 1.5089679 0
-5.2378659 6.0374913 -0.63495135 0
7.8577232 -1.2565454 -0.98767364 0
-0.18309927 7.9556847 -0.9866153 0
-0.18315601 -7.9558902 -0.98665667 0
-5.7973204 5.509964 0.57951808 0
-4.4575844 -6.6605892 0.27855587 0
-6.1897001 5.0028715 -0.98525214 0
-5.7925868 5.5071015 -0.65562737 0
-5.9737306 5.3200135 0.58050084 0
-5.3350902 5.9548206 -0.63872981 0
-6.0720015 5.2291126 -0.35383862 0
-5.2160435 -5.8769722 1.6105182 0
-6.1605043 5.1316657 0.26961827 0
-5.4348164 5.8727665 0.57762945 0
-5.2453108 6.0429168 0.57664299 0
7.8475895 1.3436919 -0.98648894 0
-4.9699893 6.2981601 -0.024129152 0
-5.9709682 5.318449 -0.66282928 0
-5.2999258 5.9804068 0.72478604 0
-5.4637213 5.8321137 0.72499168 0
-4.5500422 -6.5814233 -0.61123097 0
5.4310141 5.8246422 -0.98544157 0
-4.5957422 -6.5161285 0.90403056 0
-5.309701 5.9924607 0.54462564 0
-5.1473513 6.1241307 -0.63234293 0
-5.5068736 5.7710824 0.88200617 0
-5.9382067 5.371387 0.54630113 0
-5.0672374 6.2180781 0.2754066 0
6.6079288 4.4474187 -0.98667872 0
-6.0841312 5.206285 0.54667532 0
-6.5740385 -4.476295 1.0806115 0
-5.9285717 5.3619566 0.72557545 0
-6.7389851 -4.3256412 0.54845893 0
5.3017645 -5.9447222 -0.99012816 0
-5.7791214 5.5237718 0.72535384 0
-4.436204 -6.6811347 0.35991931 0
-6.066246 5.2259612 0.58111298 0
-4.9687858 6.2972016 -0.32510257 0
-6.430027 -4.6399784 1.2566164 0
-5.1539974 6.1291208 0.57625651 0
-5.6258326 5.6824536 0.72509968 0
-6.1708698 5.1371503 -0.043540418 0
-6.2045555 -4.8680472 1.5137186 0
-4.7093263 -6.39957 1.1646311 0
-4.3662314 -6.7402344 -0.015442252 0
-5.6485219 -5.4199839 1.7938797 0
-4.4546981 -6.6579313 0.57277548 0
7.856111 -1.3442416 -0.98846042 0
-6.7864218 -4.279295 -0.37539148 0
-5.6661291 -5.4066529 1.7822731 0
-5.9834204 -5.1132216 1.6074862 0
-4.9804888 6.2924767 0.36175001 0
-4.3646331 -6.7387199 0.2788105 0
-5.4210076 5.8632965 0.88098145 0
-6.1222897 -4.9475574 1.6068006 0
-6.282093 -4.7994356 1.4322696 0
-6.2544489 5.0359502 0.26893413 0
7.8442616 -1.431246 -0.98716795 0
-4.9683309 -6.141573 1.4675584 0
-6.7343178 -4.3224306 0.72647142 0
-5.0597811 -6.0299644 1.6127155 0
-6.2591085 5.0383306 -0.04525435 0
-5.6177216 5.6735492 0.90402913 0
-4.8765235 6.3803768 0.27624524 0
6.6148663 -4.4551158 -0.98869288 0
-5.3292112 5.9506636 0.87965012 0
-5.2966423 5.9763575 0.90402973 0
-5.7803078 5.4996762 -0.96687222 0
-4.7546692 -6.3557038 1.2616155 0
-6.0685463 5.2272205 -0.66784716 0
-4.9618273 6.2916579 -0.62690949 0
-5.0635519 6.2152271 0.57591188 0
-6.1713219 5.1373892 -0.3576867 0
-4.3673186 -6.7412648 -0.31086642 0
-6.1601019 5.131453 0.58177364 0
5.3743238 -5.8952436 -0.99068964 0
-5.609889 5.6892247 0.88417339 0
-6.7816133 -4.2774181 0.58543742 0
-4.88375 6.3863044 -0.023518503 0
-5.7014132 5.5987663 0.88568401 0
-0.081657648 -7.9787683 -0.98585796 0
7.8496671 1.4316725 -0.98841977 0
-5.4621773 5.8303175 0.90402949 0
-4.459754 -6.6625872 -0.60972095 0
-6.4164629 -4.6294537 1.4321892 0
-4.9139404 -6.2000465 1.4383461 0
-5.7761078 5.5206485 0.90402901 0
-5.7919922 5.506742 0.88720334 0
-5.3650799 -5.717371 1.7854304 0
-5.3909216 -5.6939802 1.7826736 0
-0.082262039 7.9810958 -0.98632538 0
-4.4385042 -6.684989 0.5414089 0
-6.0859127 5.207931 0.72539246 0
-5.6064038 5.6869783 -0.95922101 0
-5.8734837 5.4084072 -0.97216344 0
-5.4223461 5.8642144 -0.95048857 0
-4.9697928 6.2980037 0.5755167 0
5.5067577 5.7795224 -0.98782873 0
7.8373909 1.5185721 -0.98731685 0
-5.964056 -5.0953288 1.7817068 0
-5.0659399 6.2170744 -0.63131011 0
-5.2348695 6.0353074 -0.9418869 0
-4.9836416 6.3090363 0.27557409 0
-5.8221693 -5.2578192 1.7827785 0
-5.2107606 -5.8669138 1.7746313 0
-4.8718476 6.3765411 0.57504904 0
7.8389354 -1.5187162 -0.98767495 0
-4.5480957 -6.5796819 0.86815333 0
-6.0571575 5.2209849 0.89177513 0
-5.2425723 6.0409207 0.87871981 0
-5.5249596 -5.5717072 1.7850642 0
-5.9723301 5.3192201 0.89039576 0
-6.266099 -4.7862735 1.6073105 0
-6.1621962 5.1325612 -0.67246389 0
-4.5462127 -6.5779967 -0.91106248 0
-4.8851032 6.3874145 -0.32437086 0
5.5096316 -5.7832103 -0.98890817 0
-5.7012682 5.5986757 -0.96441603 0
7.80756 -1.6914034 -0.98474407 0
-4.6235232 -6.4851494 1.1638024 0
-5.7506585 -5.3365135 1.8010223 0
-6.2427816 5.0526547 0.54595757 0
-5.1483965 6.1458807 0.723943 0
