# .PCD v0.7 - Point Cloud Data file format
VERSION 0.7
FIELDS x y z intensity
SIZE 4 4 4 4
TYPE F F F F
COUNT 1 1 1 1
WIDTH 1434
HEIGHT 1
VIEWPOINT 0 0 0 1 0 0 0
POINTS 1434
DATA ascii
0.45457745 4.9555874 1.3971515 0
0.20013189 5.1228833 0.65886784 0
0.27178228 5.0705242 0.96793389 0
2.7163701 4.3916264 0.23826301 0
2.7627516 4.3680425 0.11364555 0
-3.8795671 -2.9913809 1.6520162 0
2.5362115 4.4153214 0.90020108 0
1.6041365 4.6092577 1.7095563 0
2.7179852 4.3973389 -0.14170384 0
2.5626278 4.4086185 0.86211467 0
0.20430911 5.1115885 -0.76320839 0
1.552655 4.6223917 1.7320371 0
1.2619311 4.668716 1.8407145 0
2.2652485 4.4815898 1.2498837 0
2.3131909 4.4580712 1.2462144 0
1.998679 4.5339189 1.4928184 0
2.413336 4.4401898 1.116508 0
1.1240684 4.7062478 1.8387961 0
1.9961536 4.5323415 1.506043 0
2.6681309 4.4093781 0.48820364 0
2.6204388 4.3962097 0.77913415 0
-3.8822556 -2.7907901 1.9854085 0
2.1640253 4.4956546 1.3824158 0
2.2993898 4.4614091 1.2704742 0
0.11250973 5.1730218 0.18845034 0
0.11391521 5.1693826 -0.2906872 0
2.7638512 4.3717299 -0.26836348 0
1.6839216 4.5914097 1.7051067 0
0.70611358 4.7928138 1.8327246 0
2.149786 4.5029526 1.3894386 0
-3.8906212 -3.337023 0.74637377 0
-3.8797545 -2.7815385 2.0103264 0
0.11480796 5.1670709 0.34679234 0
0.37218606 5.0113573 1.2589273 0
-3.8838906 -3.3607981 0.68012202 0
2.7147131 4.3857651 0.48802185 0
0.1097306 5.1802177 0.02896452 0
0.29272521 5.0520411 1.1148295 0
-5.0177517 0.92990005 0.90394306 0
2.2318561 4.4958234 1.2916949 0
2.7118185 4.3755264 0.6122601 0
-1.9809411 4.687706 -0.98812449 0
2.7669158 4.3820062 -0.14153337 0
-4.7500381 0.66188532 1.9703233 0
-3.8773766 -3.2370892 1.1707888 0
2.4600701 4.4315882 1.0923083 0
2.7638969 4.3718839 0.36337125 0
2.6669903 4.4051108 0.61313212 0
0.17990744 5.1402922 0.66271544 0
0.84794021 4.7753878 1.8361826 0
2.6915646 4.4023824 0.52058053 0
2.7665091 4.3806424 0.23808289 0
2.7656169 4.3754802 0.33104658 0
0.4469837 4.9485264 1.4918761 0
-3.8891182 -3.432059 -0.11280519 0
2.5150471 4.429019 0.99011278 0
2.3073578 4.4653363 1.2880421 0
-3.8898425 -3.4323781 0.10308123 0
-3.8970728 -3.3397563 -0.76504016 0
2.2141819 4.4851747 1.3813081 0
0.20062137 5.1215596 0.81482315 0
1.7631773 4.5751934 1.7012975 0
0.48633444 4.9158921 1.5918002 0
2.7858367 4.36097 0.39693928 0
2.5619519 4.4057651 0.98818326 0
2.7167416 4.3929415 -0.53298914 0
0.17869544 5.1304016 0.78363359 0
2.8149757 4.363966 -0.013645828 0
-3.9237928 3.2559757 -0.98683774 0
0.11265552 5.1726441 -0.45417947 0
-3.8857651 -3.1748593 1.3407309 0
-5.0282388 0.95001793 -0.89057124 0
2.0766323 4.5213876 1.491199 0
-3.8821535 -3.359098 0.79215169 0
-3.8923745 -3.1497128 1.3839006 0
2.8152742 4.3649173 0.11256218 0
2.6651568 4.3982525 0.737975 0
1.8418741 4.5532446 1.6964254 0
2.4590564 4.4306846 1.1508687 0
-5.0120459 0.92873842 1.0123212 0
-3.8891377 -3.4320676 -0.33005899 0
-3.8900957 -3.0564206 1.5947835 0
2.8118806 4.3541055 -0.39800292 0
0.57812512 4.8712716 1.7223396 0
2.7651157 4.3759704 0.48810303 0
2.6898189 4.3925276 0.71004891 0
2.4124689 4.4356718 1.2451203 0
2.7676883 4.3845959 -0.40174842 0
0.37851679 4.9926062 1.4107666 0
2.8171027 4.3707428 -0.14215368 0
1.855042 4.5805998 1.624753 0
2.7865503 4.3619323 0.52409363 0
0.3146894 5.0383072 1.2603614 0
2.3831742 4.4429684 1.2858503 0
-3.8793044 -2.9611418 1.8043404 0
0.45757723 4.9462643 1.5505574 0
2.4660306 4.4438376 1.1192064 0
0.2053932 5.1086569 0.97011948 0
0.16044641 5.1463633 0.75579107 0
1.4104303 4.6559134 1.8484707 0
-3.8763971 -3.3534644 0.90394688 0
-3.8775854 -2.6727483 2.2175498 0
2.1456146 4.4957275 1.5108256 0
2.6141653 4.4111013 0.90088141 0
2.2649558 4.4796085 1.3817236 0
2.6630368 4.3903213 0.86294937 0
0.37825871 5.0030565 1.3930435 0
-3.8993468 -3.4365664 0.31806648 0
2.7661743 4.3795195 -0.53322995 0
0.10885 5.1824985 0.50489616 0
2.7141502 4.3837743 0.73789012 0
2.6273453 4.4060979 0.90396345 0
1.9943376 4.5289764 1.6273708 0
2.6179504 4.4199758 0.86508226 0
-1.9254291 4.7389359 -0.98749411 0
2.6124465 4.3981385 0.98890901 0
-3.8816519 -3.3332229 -0.9846921 0
2.7672443 4.3839588 0.52050412 0
-1.9262552 -4.739789 -0.98781228 0
1.1973281 4.6848578 1.9426265 0
2.8189232 4.3765426 0.23748446 0
2.3671329 4.4709668 1.2512341 0
-3.8865018 -3.4309061 0.53308845 0
1.5508659 4.6182618 1.8520916 0
-5.0050077 0.92730564 1.1204824 0
0.17866445 5.1301484 0.90395761 0
2.8188148 4.3761969 -0.27232033 0
-3.884335 3.3343596 -0.98536479 0
-3.886632 -3.4309633 -0.54874831 0
2.8413639 4.3585329 0.33107805 0
2.8660331 4.3552761 -0.014550328 0
-3.8896656 -3.3366179 0.96093655 0
2.765656 4.3777823 0.61316061 0
2.5372849 4.422585 1.0925324 0
2.5150669 4.4291086 1.1184042 0
2.1544154 4.5095592 1.4899321 0
1.8431864 4.5570402 1.742548 0
-3.8802338 -3.1697476 1.44994 0
2.8385682 4.3450146 0.5200808 0
2.866348 4.3562317 -0.14235479 0
0.27125847 5.0726676 1.1869602 0
-3.8883014 -2.9989996 1.7634211 0
0.77302885 4.7656693 1.9791212 0
2.8657672 4.3544698 0.23783374 0
2.4556201 4.4254503 1.2742195 0
2.8192382 4.3775458 0.36299407 0
2.2303913 4.4794917 1.4853213 0
-4.8590002 0.76657259 1.7469726 0
0.58352327 4.8675394 1.7952168 0
2.8150897 4.3643289 -0.53317344 0
1.9205608 4.5492339 1.6959548 0
2.5100756 4.4066057 1.2431128 0
2.5631714 4.410913 1.1170468 0
2.8684862 4.3627176 0.11131942 0
0.94346869 4.745153 1.9666886 0
2.8649039 4.351851 0.36317682 0
2.7906151 4.3674102 0.65062857 0
1.0281537 4.7314415 1.9600513 0
2.8132281 4.3583994 0.61291885 0
1.4432623 4.6368594 1.9248507 0
1.1123484 4.7158771 1.9532521 0
0.85780573 4.7604346 1.9740946 0
2.8176489 4.3724828 0.4883132 0
0.048098922 5.2149358 0.31409621 0
1.36147 4.659368 1.9322033 0
2.6891136 4.3885465 0.90003347 0
1.6930017 4.5813637 1.856751 0
0.10715997 5.1868744 -0.62286675 0
2.8675237 4.3597975 -0.2721858 0
0.28992629 5.0599556 1.2730792 0
0.31360102 5.031136 1.3790891 0
0.57538998 4.8583121 1.8393307 0
-3.8785057 -3.3555276 1.0156238 0
2.3096609 4.478076 1.3950946 0
2.464992 4.4388161 1.2482033 0
-4.9971514 0.92570633 1.2284856 0
2.7145305 4.3851199 0.86400998 0
0.1073786 5.1863079 0.66369593 0
1.2786011 4.685174 1.9407654 0
2.4602022 4.432579 1.2857416 0
2.9159284 4.3425465 0.1116637 0
2.6123409 4.399868 1.0911884 0
2.9147177 4.3390436 0.23777902 0
2.7673273 4.3843913 0.71036673 0
2.8635283 4.3476787 -0.53290194 0
-3.8800235 -3.4280512 -0.76880646 0
2.3174403 4.4842329 1.3851035 0
2.8653884 4.3533206 0.48825002 0
1.9986007 4.5322356 1.6927423 0
-3.8861103 -3.0303247 1.7658563 0
2.7669194 4.3820181 0.73903036 0
-1.869132 4.7892556 -0.98683178 0
2.6289694 4.4084234 1.0291395 0
0.1615231 5.1422167 0.97637367 0
2.1426244 4.4905481 1.632818 0
2.3069749 4.461659 1.4833069 0
0.038234234 5.2208614 0.41436684 0
-3.8863025 -3.4308183 0.74811602 0
2.3659465 4.4642701 1.3820052 0
2.8689251 4.3640485 -0.40422213 0
0.17917085 5.1342812 1.0243728 0
0.44973469 4.9637036 1.6130433 0
2.917964 4.3484364 -0.14380014 0
2.6657467 4.4004583 0.99138629 0
0.015615702 5.24018 0.02106297 0
-3.8886018 -2.8740034 2.020417 0
-5.1343694 1.0484629 0.065214872 0
-3.8509603 -3.4152441 -0.98569942 0
1.5236013 4.6317167 1.9224732 0
2.9196846 4.353415 -0.016441107 0
2.7632031 4.362905 0.89900362 0
-5.1271772 1.04836 0.30576146 0
0.01533699 5.2408719 -0.14227283 0
2.7918608 4.3690891 0.77731693 0
-3.8540483 3.416605 -0.98647857 0
-1.875721 -4.796258 -0.98940802 0
0.68162012 4.8037901 1.9934516 0
2.9627476 4.3209538 -0.27109587 0
2.9169397 4.3454728 0.36299181 0
1.6040332 4.6133733 1.9168668 0
2.9184895 4.3479648 0.33097637 0
0.17714834 5.1177778 1.1441436 0
2.7648263 4.374999 0.86453915 0
-3.8691058 -3.0485723 1.8090632 0
2.6153336 4.4095931 1.119205 0
2.9192152 4.352057 -0.27397454 0
-5.1252337 1.0483321 -0.41774738 0
2.5357065 4.4119043 1.2841623 0
2.4152548 4.4501858 1.3806918 0
0.015966773 5.2393084 -0.30668259 0
2.3020852 4.4657826 1.5171938 0
0.10687459 5.1876135 -0.79149508 0
-5.1401572 1.0485458 -0.17659408 0
2.9145269 4.3384924 0.48827922 0
0.016443372 5.2381253 0.34500861 0
-3.8844748 -2.909554 2.0011785 0
0.20012712 5.1228962 1.1303718 0
0.10820007 5.1841812 0.82280707 0
2.0763972 4.5175285 1.6903152 0
2.7144747 4.384922 0.99106002 0
0.038512111 5.2238326 0.53702152 0
-3.8882256 -3.5285378 0.10109329 0
0.37685704 4.9975224 1.5703738 0
0.012066126 5.2489939 0.18281484 0
2.8669636 4.358099 0.61376643 0
1.6838921 4.594151 1.911334 0
1.9964106 4.5328178 1.7506628 0
1.8414979 4.5536847 1.8642766 0
2.9185567 4.3501511 -0.40484756 0
2.6255977 4.4035959 1.1541767 0
0.044592857 5.2276859 0.53753448 0
0.037646294 5.2145739 0.65998816 0
2.9896302 4.3113399 0.33132195 0
2.6105618 4.3906608 1.2448781 0
-3.8931322 -3.1500084 1.6018281 0
3.013176 4.3092637 -0.015247822 0
2.4599371 4.4320259 1.3990004 0
2.9695361 4.3397207 -0.016896725 0
2.3836303 4.4468131 1.4820886 0
2.7894144 4.3657923 0.90396523 0
2.9696865 4.340137 0.11029434 0
2.9693937 4.3393273 -0.14515591 0
2.5651538 4.4192834 1.2488079 0
-3.888258 -3.5285525 0.31758499 0
2.8434577 4.3686547 0.710338 0
-3.8993297 -3.2460217 1.3905721 0
0.015809774 5.2396984 -0.47321212 0
2.1532743 4.4944024 1.6861942 0
2.9661026 4.3302288 0.36295652 0
-3.8991628 -3.5335455 -0.11724532 0
-1.8146193 4.841445 -0.98715127 0
2.6895757 4.3911533 1.0917208 0
-3.8126507 3.4939344 -0.98507643 0
0.27288556 5.066011 1.4065931 0
-3.8966274 -3.3395677 1.1777976 0
-3.889082 -3.3658788 1.1281116 0
2.7636862 4.3711762 0.99114335 0
-1.8160107 -4.842967 -0.98770368 0
0.28984857 5.0601754 1.4321978 0
-3.8814468 -3.4286785 0.96347165 0
-5.1336327 1.0484524 0.54575109 0
0.020123482 5.2289872 -0.63928449 0
-3.8952465 -3.1836205 1.5633264 0
2.4663379 4.445323 1.3820903 0
-3.8949261 -3.5316055 -0.33571571 0
2.9713907 4.3448482 0.23650193 0
2.6112807 4.3933401 1.2830911 0
-4.7555537 0.6707626 2.1686933 0
1.8419338 4.5565801 1.9014175 0
0.44847953 4.956779 1.7320337 0
2.5135474 4.4222579 1.3786979 0
-3.8185539 -3.4966373 -0.98657537 0
2.9671335 4.339406 0.38825989 0
2.6673081 4.4062996 1.1211245 0
2.8678293 4.3607249 0.73989689 0
1.7632198 4.5870776 1.9093628 0
-5.0142908 0.92919558 1.3388495 0
2.8173916 4.3716631 0.8660363 0
3.0138359 4.3110094 0.36298215 0
3.0180957 4.322279 0.11029053 0
2.9210033 4.3592992 0.52062619 0
0.0120579 5.2490144 0.50659621 0
-3.8824282 -3.5258832 -0.55430186 0
0.10964668 5.1804352 0.98252046 0
3.0183964 4.3230748 -0.14543378 0
3.0135341 4.3102107 -0.40363497 0
-4.8428836 0.76139885 1.9468842 0
2.9673338 4.333632 0.48850656 0
2.840291 4.3533444 0.89950204 0
0.3770777 5.0082068 1.6139178 0
2.8242817 4.3936143 0.74146914 0
2.9216983 4.359241 -0.54082334 0
2.9701571 4.3414378 -0.40692312 0
0.20375526 5.1130857 1.2884886 0
2.9195428 4.3530045 0.61439502 0
2.4596236 4.4282341 1.4803505 0
0.017377138 5.2358065 0.66784 0
2.9646931 4.3363066 0.51795244 0
3.0180554 4.3221726 -0.27504724 0
-4.7450643 0.66065067 2.2170405 0
-3.8898888 -3.5292993 0.53384614 0
0.48242903 4.9341159 1.8149962 0
1.9201947 4.5378709 1.8969312 0
3.0191913 4.3251777 0.23659992 0
-5.1152992 1.0481899 0.78518546 0
2.6623881 4.3878942 1.247267 0
2.7158408 4.3897548 1.1205251 0
-3.8854971 -2.7929454 2.2369647 0
2.9159651 4.3426533 0.73974609 0
0.3172816 5.0553865 1.5017121 0
-5.1356101 1.0484806 -0.66393816 0
2.3010206 4.4640555 1.6410306 0
-3.8838811 -3.3607888 1.239989 0
2.9687896 4.3376565 -0.53957778 0
2.8140221 4.3609285 0.99192429 0
0.044328332 5.2286472 0.76152873 0
2.7644579 4.3694415 1.0907676 0
-4.9988337 0.9260487 1.4466207 0
2.9191804 4.3510809 0.71026897 0
2.2311316 4.4877439 1.6861396 0
2.627965 4.4069853 1.2799125 0
-3.7740879 3.5724387 -0.98467124 0
3.0681305 4.3085108 0.10983717 0
2.8679056 4.3609562 0.86668444 0
0.03935194 5.2328134 0.78161395 0
2.7949624 4.3732691 1.0307353 0
2.7638786 4.3718219 1.119782 0
0.58517408 4.8592601 2.0129204 0
3.068716 4.3099957 -0.14637256 0
-3.887857 -2.9642007 2.0282054 0
-3.7783051 -3.5744431 -0.98574924 0
3.0180023 4.3220315 0.48862338 0
3.0678484 4.3077955 -0.27592719 0
3.0686145 4.3097372 0.23642159 0
-1.7619064 -4.8957348 -0.98850107 0
3.070749 4.3151493 -0.018468797 0
2.8625994 4.3448615 0.99185848 0
2.9143271 4.337913 0.8658272 0
2.1530931 4.5086803 1.7597578 0
2.6878071 4.3811703 1.2832196 0
0.038145542 5.2199121 0.90395975 0
2.9708395 4.3433237 0.61481297 0
3.0667963 4.3051276 0.36274493 0
0.15740097 5.158092 1.2005479 0
1.9983454 4.5267525 1.8947783 0
2.9962559 4.3393126 0.5205797 0
1.9981506 4.5360413 1.8749743 0
-1.7645328 4.8986912 -0.98956072 0
2.9696405 4.3425894 0.64648438 0
-3.8850956 -3.5271046 0.75012612 0
2.5670824 4.4274254 1.3832538 0
0.4468987 4.9480581 1.8512657 0
0.11113739 5.1765752 1.1433084 0
-3.883532 -3.5263886 -0.77726173 0
-3.8958607 -3.1841879 1.6751893 0
2.7135911 4.3817964 1.2490439 0
2.9676018 4.3343735 0.74056935 0
-5.1208401 1.0482693 -0.90870786 0
0.18105674 5.1496716 1.2668114 0
2.3080857 4.4723248 1.6843104 0
-1.6945984 4.9333591 -0.98420429 0
2.8136628 4.3597832 1.1203763 0
3.0695319 4.3120637 -0.40869164 0
-0.071795464 5.2996497 0.31210387 0
0.012914777 5.2468867 -0.81550801 0
-3.8872728 -3.2411158 1.6073272 0
2.96521 4.3369632 0.77546227 0
0.047168255 5.2183204 0.98538983 0
0.31607628 5.0474453 1.6215718 0
2.7610054 4.3621879 1.2477498 0
0.013282537 5.2459736 0.83088326 0
2.5376143 4.4248147 1.4818008 0
-3.8821096 -3.4289706 1.1805158 0
3.1198816 4.2984996 0.10895824 0
3.0200031 4.3273253 0.61492038 0
2.4711061 4.4490366 1.5261519 0
-1.6980972 -4.9374132 -0.98563921 0
3.0688305 4.3102851 0.48875177 0
2.9946332 4.3324614 0.71020174 0
2.6247563 4.4023914 1.4053421 0
3.0725911 4.3238659 0.33076572 0
0.28930414 5.0617151 1.5942945 0
-0.087304831 5.3144174 0.011632204 0
-0.077924013 5.2920537 -0.48955244 0
2.6626732 4.3889613 1.3795192 0
3.023989 4.3378701 -0.54476196 0
2.7941217 4.3721361 1.157577 0
2.6170988 4.4165978 1.3836179 0
-3.8873138 -3.6262543 -0.1197353 0
2.841733 4.3603172 1.0915241 0
2.9195523 4.3527584 0.90090513 0
2.9655762 4.3287735 0.8668673 0
-3.8923712 -3.1569827 1.7812023 0
2.3837585 4.4478955 1.6806388 0
3.1220713 4.3038259 -0.14862311 0
-5.0013046 0.92655182 1.5568163 0
2.2988801 4.4605818 1.7652483 0
3.1231291 4.3063993 -0.019874871 0
-0.08807373 5.3162508 0.17755938 0
3.0699811 4.3135099 0.52044773 0
3.1204996 4.3000026 -0.27834541 0
2.4547331 4.4240999 1.6478922 0
2.0764723 4.5187635 1.8937635 0
0.20278084 5.1157207 1.4510946 0
-0.089007378 5.3184767 -0.15595734 0
-3.8858094 -3.1471505 1.8207889 0
-3.8914938 -3.5671971 0.67305303 0
2.8626916 4.3451409 1.1205859 0
-0.085904121 5.3110781 0.34315157 0
-3.7429051 -3.6545451 -0.98645103 0
0.038478374 5.2234716 1.0260878 0
-3.8857117 -3.625493 0.31690991 0
3.1228409 4.3056984 0.23555624 0
-3.9036012 -3.3425224 1.3970585 0
-3.8863306 -3.6257873 -0.33964872 0
3.0714388 4.3168979 -0.54410028 0
-3.8960562 -3.6304097 0.098464012 0
-3.8862939 -3.1753476 1.7853389 0
2.963069 4.3342443 0.9039675 0
2.7114754 4.3743134 1.3792021 0
0.18002796 5.1412764 1.3875866 0
0.27250159 5.0675817 1.6298339 0
-3.897635 -3.3742499 1.3543692 0
2.6129923 4.4038787 1.4800248 0
3.1210923 4.3014445 -0.41086447 0
3.0702939 4.3139954 0.61521816 0
2.1485176 4.5007553 1.8829825 0
-5.1724033 1.1033546 0.67803919 0
2.786098 4.3613224 1.2837849 0
2.1535187 4.4976492 1.8895216 0
-3.8931193 -3.0352805 2.0194039 0
3.0222526 4.3332763 0.74213791 0
-4.8789544 0.79487509 2.0067682 0
3.1245375 4.3098249 0.36229229 0
-3.8850837 -3.5270991 0.96729052 0
-1.637337 -4.9822755 -0.98424625 0
-0.074291468 5.3082438 0.5394522 0
3.1731691 4.2913208 -0.020544231 0
-0.092630148 5.3271132 -0.32608515 0
-0.086702824 5.3129826 0.50828445 0
3.1729202 4.2907395 -0.14982712 0
-0.10593867 5.3223734 0.40598094 0
0.16120923 5.1434255 1.4228058 0
3.0692582 4.3106422 0.71001959 0
0.31465447 5.0380769 1.7416062 0
2.4601252 4.4320021 1.6792006 0
2.993917 4.3294373 0.9003706 0
-5.2147865 1.1492507 0.060887933 0
3.1224227 4.3046803 0.48901045 0
2.9212894 4.358058 0.99681246 0
-5.1348462 1.0484698 1.0275292 0
0.012803793 5.2471623 0.99450541 0
-3.7590432 3.6625006 -0.990605 0
0.37858534 5.0016322 1.8354056 0
3.1476781 4.3033438 0.33078301 0
2.8150389 4.3641677 1.2518375 0
-3.886507 -3.6258709 0.53450537 0
-3.6967897 -3.7292905 -0.98467624 0
3.0181441 4.3224072 0.86837304 0
2.7675877 4.3857474 1.2862258 0
3.1214809 4.3023901 -0.54550362 0
-0.082226515 5.3023105 -0.66392589 0
0.10941935 5.1810236 1.3073254 0
-3.8965082 -3.5723948 0.78839684 0
3.1442895 4.2906671 0.52038789 0
3.1758838 4.2976651 0.10713029 0
-5.1998615 1.1097699 0.56280696 0
0.038350821 5.2221074 1.1482842 0
2.960983 4.3315954 1.0323138 0
3.1396284 4.2987771 0.51228654 0
-3.8859034 -3.5614021 0.90395129 0
3.175837 4.2975554 0.23487544 0
3.1749425 4.295465 -0.28162563 0
3.1731291 4.2912273 0.36226356 0
-5.1742239 1.1037798 0.79101157 0
2.915765 4.3420739 1.1233213 0
3.1479497 4.3087425 0.37985134 0
2.6252005 4.4030271 1.5318024 0
-0.070357323 5.2946982 0.76649499 0
-3.7050724 3.7335219 -0.98682344 0
-5.0012465 0.9265399 1.667429 0
-0.08541584 5.3099146 0.67348051 0
3.0139101 4.3112059 0.99482393 0
-3.8948865 -3.6298537 -0.56305259 0
3.0729494 4.3207278 0.74271166 0
-3.8936939 -3.3703928 1.4672506 0
2.5353608 4.4095645 1.6764867 0
-0.10555124 5.3283658 0.5305295 0
0.48327518 4.9301672 2.0370567 0
0.047191143 5.2182369 1.2111771 0
2.9713044 4.3446097 0.99744558 0
0.17967939 5.1384315 1.5091474 0
2.9206429 4.3576751 1.0932374 0
-5.2306108 1.1497039 -0.18469614 0
-1.6525245 5.0003901 -0.9905802 0
3.2242498 4.2781711 -0.15125436 0
-3.8916564 -2.9144795 2.2565582 0
-0.1061399 5.3192606 0.65565681 0
2.2315867 4.4928193 1.8899512 0
2.8656034 4.3539734 1.2531729 0
3.1764846 4.2990689 -0.41530555 0
3.1258233 4.312953 0.61625469 0
2.6904795 4.3962564 1.4810853 0
0.20481873 5.1102104 1.6142147 0
3.1404059 4.2997084 0.64302707 0
-3.9025445 -3.0610752 2.0408182 0
0.037343502 5.2113366 1.2700214 0
-1.5797892 -5.0308719 -0.9844619 0
3.1207457 4.300601 0.7426405 0
3.2228827 4.2750983 0.36217427 0
3.0688801 4.3091421 0.90020299 0
3.2251239 4.2801352 -0.28279603 0
3.1738973 4.2930222 -0.54862159 0
3.2283611 4.2874107 -0.022814751 0
2.7678766 4.3852282 1.3862259 0
2.9575078 4.3271823 1.160538 0
2.8435216 4.3689647 1.2859704 0
-5.2274675 1.1496139 -0.43056452 0
3.1773593 4.3011127 0.48932397 0
-3.6567907 3.8070431 -0.98476374 0
2.3027327 4.4668336 1.8923821 0
-3.6568699 -3.807085 -0.98478448 0
3.1452637 4.2943115 0.71019232 0
-3.8872709 -3.3356035 1.6143708 0
3.2295299 4.2900376 0.10586464 0
3.2229617 4.2835622 0.33076751 0
3.1725702 4.2899213 0.61608934 0
-3.8822422 -3.3591847 1.5790133 0
-3.8876925 -3.563257 1.0192108 0
0.013797164 5.2446957 1.1590023 0
3.2282257 4.287106 0.23427916 0
2.9678845 4.3351545 1.1254311 0
-3.8899007 -3.4324038 1.4007139 0
-4.8472524 0.76127374 2.1923811 0
-3.8923802 -3.6286623 0.7527225 0
-1.5869505 5.0396662 -0.98750079 0
-5.2425113 1.1500447 0.30371058 0
-0.085310459 5.3096628 -0.84107292 0
-3.8897581 -3.6274164 -0.78666162 0
-0.086089373 5.3115201 0.83949292 0
3.2263255 4.2828355 -0.41647291 0
2.7945957 4.3727751 1.4123664 0
-3.8808484 -3.7225461 0.09707737 0
3.0749781 4.3258705 0.87128377 0
2.3828888 4.4405627 1.8802228 0
-0.18674874 5.3729401 0.17279339 0
-3.8844891 -3.5268269 1.1857061 0
-5.1859655 1.1065234 0.9039489 0
-0.18694687 5.373394 -0.1668877 0
-4.9331565 0.85441762 1.9672601 0
0.17791653 5.1240454 1.6296034 0
2.994982 4.3339338 1.0924363 0
2.3087454 4.4786592 1.8881691 0
2.8173535 4.3715415 1.3865991 0
2.917156 4.3460984 1.2552576 0
3.1422415 4.3019061 0.77350259 0
-5.230638 1.1497047 0.54748201 0
-0.19004416 5.3804917 0.0027811527 0
-3.8806596 -3.2729967 1.7927837 0
-3.890131 -3.2422788 1.8298473 0
0.3151989 5.0416636 1.864589 0
2.4676523 4.4437766 1.7778134 0
3.2267008 4.2836795 0.48938954 0
3.2228322 4.2831044 0.52062404 0
-0.10559392 5.3277054 0.77967989 0
-5.1722555 1.1033201 1.0168386 0
3.2244971 4.2787266 -0.55053377 0
3.2742977 4.2621899 0.36200881 0
-4.9997988 0.92624527 1.7786217 0
-3.8885446 -3.7263398 -0.12364763 0
2.6127906 4.4026365 1.6776457 0
3.1729813 4.2908816 0.74362409 0
-5.130826 1.0484122 1.269834 0
-1.5200121 -5.0767117 -0.98401642 0
-3.8848724 -3.560334 1.1344061 0
2.9181828 4.3465829 1.2849822 0
2.6280837 4.407155 1.6595883 0
-0.18984485 5.3800349 -0.33984882 0
-3.8860826 -3.7251263 -0.34493613 0
-5.2111273 1.149146 0.79032016 0
3.2830446 4.2811136 -0.024883986 0
2.7680202 4.3879995 1.4822421 0
3.0673876 4.3032203 1.0908837 0
2.8665628 4.356883 1.3868985 0
3.2970738 4.2597084 0.33080649 0
-3.8745131 -3.7194231 0.53502846 0
3.1258898 4.3131146 0.87216628 0
3.2264414 4.2830963 0.61689067 0
-0.07324481 5.3046398 0.99552321 0
3.2823358 4.2795801 0.2334671 0
-3.8919077 -3.7279978 0.31603289 0
-0.10599899 5.3214374 0.90396225 0
-1.5259724 5.0842485 -0.9865911 0
3.2839997 4.2831802 -0.15588588 0
-0.19218397 5.3853946 0.34122908 0
-5.2321734 1.1497486 -0.67957366 0
3.2852206 4.2858219 0.10418797 0
3.0750632 4.3260865 1.0005121 0
3.1705854 4.2852826 0.87113774 0
3.2825465 4.2800364 -0.2873891 0
-3.8795214 -3.3565221 1.69277 0
-3.6200633 -3.8866198 -0.98600495 0
2.8399124 4.3515143 1.4780195 0
0.016636252 5.2376461 1.324182 0
2.968112 4.3357844 1.2569349 0
-0.19722557 5.3912239 0.30994642 0
3.3293891 4.2562923 -0.024551034 0
0.10316443 5.1972203 1.4768271 0
3.0667238 4.3049445 1.1267314 0
3.3287125 4.2548823 -0.1548481 0
3.1199098 4.2985682 0.99912262 0
-3.8895788 -3.154948 2.0348513 0
3.2953315 4.2538652 0.52048695 0
3.023633 4.3369284 1.1295135 0
0.16043925 5.1463909 1.6500125 0
0.038522959 5.2239485 1.3938448 0
2.9633808 4.33464 1.2898359 0
3.3206074 4.2608638 0.23883843 0
-3.8910174 -3.6280148 0.97149396 0
0.27135265 5.0722818 1.8569837 0
3.3292027 4.2559042 0.23354316 0
-3.8916278 -3.1494215 2.0465353 0
3.2820895 4.2790475 -0.42099416 0
-0.087137938 5.3140197 1.0067639 0
-0.19044566 5.3814116 -0.5141263 0
3.1484568 4.3062568 0.90170848 0
3.2251577 4.2802114 0.74459434 0
3.3326137 4.2630148 0.10422671 0
3.2782378 4.2707138 -0.55452639 0
0.047010064 5.2188954 1.4390249 0
3.2818825 4.2785997 0.48970664 0
2.9169121 4.3453932 1.3882973 0
-3.8878994 -3.726022 -0.56869346 0
0.38034451 4.9939609 2.0597172 0
3.1500478 4.311255 0.90397036 0
3.2254195 4.2922559 0.71120238 0
3.2769189 4.2678604 0.61725616 0
2.4609785 4.4336119 1.9031069 0
2.796936 4.3759289 1.5409653 0
-1.4615583 -5.1242218 -0.98443091 0
-0.19481635 5.391427 0.51028574 0
3.3788338 4.237854 0.1044296 0
3.0188909 4.3243833 1.2585328 0
3.3322301 4.2622151 0.36157751 0
2.4624588 4.4495249 1.8852687 0
-3.8787851 -3.4275055 1.6199431 0
3.3195708 4.2596927 0.50615716 0
3.3276823 4.2688584 0.371737 0
-3.8916631 -3.5673726 1.2506309 0
-3.574348 3.9613047 -0.98517263 0
-3.574472 -3.961375 -0.98520565 0
-5.1899462 1.1074533 1.130698 0
2.9651031 4.327466 1.3880739 0
3.3361232 4.2703309 -0.29011923 0
-5.2220068 1.1494575 -0.92879093 0
2.6244066 4.4018903 1.7865648 0
-3.8865733 -3.030652 2.2732296 0
0.179039 5.1332054 1.7540734 0
2.6917577 4.4034715 1.6808872 0
-3.6433573 3.899374 -0.99213612 0
2.9963479 4.3397007 1.2866869 0
-3.8817496 -3.5255725 1.4055834 0
3.3307939 4.2592211 0.48976433 0
3.1440496 4.3040714 1.0345035 0
-0.19148517 5.3837934 0.67922711 0
2.7634478 4.3641791 1.6749701 0
3.328805 4.255075 -0.55650789 0
-0.19144273 5.3836961 -0.69112015 0
-0.2001009 5.4006195 0.54162502 0
3.1204388 4.2998548 1.1297143 0
-0.10528159 5.3325367 1.028358 0
3.3832746 4.2467813 -0.15748858 0
3.1450112 4.2933669 1.0921082 0
-3.8795819 -3.3323457 1.835573 0
-1.4712446 5.136837 -0.98869264 0
3.3853707 4.2509961 -0.026983976 0
2.9168551 4.3405972 1.4790783 0
-0.19278002 5.3766975 0.77244687 0
3.2228899 4.283308 0.90149927 0
3.2282841 4.2872381 0.8741914 0
-5.177618 1.104573 1.2434947 0
-0.18515158 5.3692799 0.84754848 0
-5.2144618 1.1492414 1.0346825 0
-3.88304 -3.769073 0.54739761 0
0.10789096 5.1849813 1.642139 0
2.5382376 4.4290342 1.8826559 0
3.3385434 4.2753768 -0.42578036 0
-4.884438 0.7963199 2.2622318 0
3.0700099 4.3132753 1.2603922 0
-0.086858273 5.3133531 1.1751218 0
-0.25544572 5.4224176 0.39735413 0
3.1782858 4.303278 1.0033872 0
3.1681902 4.279685 1.1296892 0
3.3236909 4.264348 0.63871241 0
3.3319056 4.2615385 0.61818421 0
-3.884295 -3.6248195 1.1907718 0
2.7906721 4.367487 1.6684194 0
0.038988352 5.2289243 1.5179019 0
3.3847847 4.2498178 0.36136937 0
3.3007598 4.2720671 0.7112875 0
-3.8864431 -3.5619621 1.3660753 0
-1.4015238 -5.1697102 -0.98444664 0
3.3885171 4.2573214 0.23211193 0
3.0694816 4.3115287 1.2851028 0
3.3785198 4.2593794 0.33039606 0
-3.8910017 -3.727551 -0.79536045 0
2.9683297 4.3409247 1.4198589 0
3.2836752 4.2824783 0.74688971 0
3.384336 4.2489157 -0.42493182 0
-1.4038613 5.1728468 -0.98549473 0
-3.8870425 -3.363883 1.8099229 0
3.3747673 4.2474236 0.52078521 0
3.382673 4.2455721 0.4899478 0
-3.8999472 -3.731961 0.75543845 0
3.3798504 4.2398982 -0.5588578 0
-3.5292182 -4.0362329 -0.98477471 0
-0.18929076 5.3787646 -0.86905706 0
3.277276 4.2686334 0.87459576 0
3.39013 4.2605639 -0.29302138 0
2.6127553 4.4024191 1.8786683 0
-0.25540471 5.4235649 0.52440774 0
3.1434996 4.3034129 1.1651385 0
-0.07623601 5.314939 1.2267261 0
-5.1350031 1.048472 1.5152421 0
3.3199682 4.2601414 0.77154493 0
2.9911656 4.3178215 1.4779921 0
3.295608 4.2547927 0.90087795 0
3.3308873 4.2594156 0.74682403 0
3.2193456 4.2707715 1.0918531 0
2.839757 4.3507624 1.6753771 0
3.438498 4.2388992 0.10198987 0
3.0205781 4.3288465 1.3935771 0
3.1410172 4.2784257 1.2828755 0
2.6184573 4.3933725 1.9134693 0
-3.8920746 -3.8290579 -0.1279549 0
-0.10494494 5.3377452 1.1531317 0
-0.29957557 5.4544964 -0.0070300102 0
3.2294812 4.2899284 1.0046926 0
-3.8904657 -3.7772257 0.66595149 0
-3.8954067 -3.8307602 0.093851447 0
-0.2956171 5.4457688 0.33953226 0
3.0662348 4.3037043 1.3916998 0
0.0093967915 5.2556224 1.4973135 0
-3.5415134 4.0434299 -0.98806393 0
-0.29964471 5.454649 -0.18162858 0
2.9583006 4.3281889 1.5479908 0
-0.25545216 5.4222407 0.6512171 0
3.3734891 4.2433515 0.71096396 0
3.4325795 4.227416 0.49005866 0
-3.8887353 -3.8273518 -0.35085762 0
3.3847964 4.2498412 0.61885011 0
-3.8815799 -3.4009635 1.8080039 0
3.4422643 4.2462068 -0.16162831 0
-4.9278417 0.85449374 2.2134342 0
3.4415169 4.2447567 0.2314446 0
3.4514129 4.230906 0.33047938 0
-3.8934989 -3.8297853 0.31521106 0
3.4388192 4.2395225 0.36110353 0
-3.8955746 -3.2444937 2.0569501 0
0.17948127 5.1368151 1.8788776 0
-0.29887509 5.4529519 -0.35742092 0
3.2237709 4.2770944 1.133549 0
-0.084097624 5.3067718 1.3440547 0
3.4331284 4.2284813 -0.56257784 0
-0.10582924 5.3240638 1.2770953 0
2.7849755 4.3598099 1.7963762 0
3.3812313 4.2426734 0.74744129 0
3.4437265 4.2490439 -0.29573017 0
3.3307161 4.259059 0.87632775 0
-0.30519915 5.4668961 0.16577089 0
-1.3436992 -5.2182841 -0.98576796 0
3.4398704 4.2415619 -0.42920935 0
-3.4840178 -4.1110821 -0.98464251 0
3.1149123 4.2864108 1.3922741 0
-0.18969607 5.379694 1.0191317 0
3.44821 4.2577429 -0.031208754 0
3.4494658 4.2249994 0.52081192 0
3.1274891 4.3170052 1.2661486 0
3.1400456 4.2992768 1.2957003 0
-1.3446319 5.219574 -0.98619449 0
-0.19476914 5.3831973 1.0051482 0
-3.8862081 -3.8260608 0.53604591 0
-5.1924286 1.1080334 1.3586721 0
-0.29629612 5.4472656 -0.53418624 0
-3.8968601 -3.7304392 0.97585869 0
-0.25549889 5.4209375 0.7776897 0
0.03913939 5.2305403 1.6423953 0
2.689754 4.3921599 1.8794117 0
-0.29779553 5.4505715 0.51195967 0
-5.3338571 1.2540851 -0.19405013 0
-5.3376093 1.2542462 0.054258108 0
3.4901524 4.223217 0.2312603 0
-3.8919754 -3.5676961 1.4834828 0
-3.4900022 4.1147013 -0.98625708 0
3.2816505 4.2780981 1.0063989 0
0.045448065 5.224576 1.6704671 0
3.1737003 4.2925615 1.2650714 0
3.4935822 4.2296443 0.1004684 0
-5.1699333 1.1027775 1.4705813 0
-3.8904037 -3.2803133 2.0522175 0
0.15890288 5.152308 1.8812442 0
-3.8969059 -3.7842963 0.78479576 0
-5.0269547 0.95001793 1.9887571 0
3.4951668 4.2326136 -0.031154275 0
3.3288379 4.2701645 0.90397286 0
3.4944036 4.2311831 -0.16335684 0
-5.3370838 1.2542237 0.30199575 0
3.2733233 4.2600813 1.1345158 0
-5.02987 0.94998199 1.9894302 0
3.068531 4.3077574 1.4796624 0
-0.32368302 5.4743776 0.30790043 0
0.27088475 5.0741963 2.0873981 0
-3.895144 -3.830626 -0.57715082 0
3.4921827 4.2270217 0.36086416 0
-5.0156426 0.93474334 2.0456769 0
-0.29637909 5.4474487 0.68450987 0
2.9184322 4.3477077 1.6784937 0
3.5064142 4.2204213 0.36384463 0
3.44133 4.2443938 0.61993396 0
3.2980242 4.2628946 1.0936189 0
3.222343 4.2738853 1.2656112 0
-3.8927374 -3.7797194 0.90395594 0
-0.073013783 5.3038449 1.4571438 0
-1.2802217 -5.2590742 -0.9848007 0
3.3215606 4.261941 1.0364561 0
3.5269949 4.2105823 0.33039343 0
-5.3395019 1.2543275 -0.44477212 0
3.3321252 4.2619967 1.0074978 0
2.7649522 4.3720164 1.8777604 0
-3.886189 -3.1524775 2.292182 0
3.4924555 4.2275329 0.49054587 0
3.2208154 4.2759705 1.285852 0
3.4992173 4.2402034 -0.29921854 0
-3.8961368 -3.53216 1.6313565 0
2.959269 4.3294187 1.6785645 0
-3.439002 -4.1860485 -0.98484969 0
-5.2306185 1.1497041 1.2823515 0
3.4516487 4.2316217 0.71163344 0
-0.25530553 5.4263268 0.903965 0
3.3863864 4.2530375 0.87866378 0
-3.8829889 -3.769017 1.022635 0
3.4897413 4.2224464 -0.56819189 0
-5.334394 1.2541082 0.54935706 0
3.5171788 4.231904 0.22586918 0
3.4958186 4.2338347 -0.43362921 0
-0.10567856 5.3263955 1.4023228 0
0.011367202 5.2507296 1.6680179 0
0.038144827 5.2199044 1.765759 0
3.4889841 4.2210274 0.62000942 0
-0.30068827 5.4569497 -0.71682525 0
-3.8980908 -3.6313767 1.4150145 0
-5.3227201 1.2536066 -0.69449449 0
3.1711864 4.2866869 1.3981752 0
-3.8952885 -3.434778 1.8482828 0
-3.8924203 -3.8292346 0.75737262 0
-3.8890977 -3.5647135 1.6002002 0
-0.32445002 5.4767613 0.5435431 0
3.5466881 4.215754 0.2301904 0
3.3795438 4.262641 0.90368366 0
3.1420693 4.3017006 1.4272351 0
-1.2882257 5.2704811 -0.98853445 0
3.5455656 4.2137208 -0.29899281 0
-0.19059849 5.3817616 1.1915472 0
3.3263946 4.2500501 1.1371469 0
3.5504549 4.2225752 -0.033309996 0
-3.4487052 4.1921072 -0.98749065 0
-3.8908782 -3.8284466 -0.80413651 0
3.5424819 4.2081366 -0.43355495 0
-5.1232409 1.0483036 1.7605743 0
3.4425049 4.2466736 0.75017524 0
3.512373 4.2267776 0.4987812 0
3.3827324 4.2456918 1.0086956 0
3.5522695 4.2258615 -0.16698885 0
3.5293279 4.2173328 0.52113104 0
-0.1938138 5.3800759 1.2385163 0
-0.29735827 5.4496074 0.85796022 0
-3.8775868 -3.9238584 0.31470001 0
3.3197992 4.2599506 1.1689599 0
-3.8967929 -3.730406 1.1978021 0
-3.8924842 -3.3378122 2.0657749 0
3.5097141 4.2239413 0.63427103 0
3.5556684 4.2320166 0.097694397 0
3.550334 4.2223563 0.36045146 0
-3.8871555 -3.928921 -0.1316036 0
3.4388804 4.2396417 0.88010824 0
3.1466529 4.2995086 1.4819269 0
-0.25525403 5.4277658 1.0303996 0
3.59955 4.2006564 -0.033914924 0
-0.089113951 5.3187308 1.5194366 0
-1.2206147 -5.3053956 -0.98593128 0
2.9961371 4.3388109 1.6805015 0
-3.893703 -3.932385 0.091473818 0
3.2798114 4.2741189 1.2711406 0
-0.10608792 5.3200631 1.5271897 0
3.5493016 4.2204866 0.49091125 0
-3.8810821 -3.5564051 1.7162738 0
3.5984533 4.1987357 -0.30148673 0
-3.8881669 -3.7747018 1.1418018 0
3.494185 4.2307739 0.75104356 0
-3.8841705 -3.8250196 0.97857833 0
3.452899 4.235414 0.90338182 0
-1.2246895 5.3113832 -0.987872 0
2.8431945 4.3673835 1.8806424 0
-5.1914263 1.1077991 1.5883737 0
3.2256727 4.2813687 1.4027085 0
-0.30190182 5.4596252 -0.90111959 0
-0.41157317 5.5261703 0.16061211 0
3.528883 4.2160449 0.71215475 0
2.7990539 4.3787832 1.9311218 0
-3.8932257 -3.9321322 -0.35728192 0
-0.29316211 5.4403558 1.0311015 0
3.6007719 4.202796 0.36031806 0
3.519969 4.1902537 0.90151536 0
3.3786736 4.2598686 1.0961616 0
-0.32628727 5.4824719 0.77983141 0
3.6069057 4.2135382 0.096909046 0
-5.3454061 1.2545812 0.79755068 0
3.5117979 4.2261639 0.76912534 0
-0.41362524 5.5305281 -0.19595772 0
-3.406703 4.2692623 -0.98884499 0
-0.41037965 5.5227389 0.38830245 0
3.0693309 4.3109312 1.6782613 0
-3.8819828 -3.9261842 -0.58228338 0
3.5987959 4.1993361 0.49101233 0
3.5534225 4.2279496 -0.57762909 0
-3.4088626 -4.2706547 -0.98943818 0
2.9629197 4.3340549 1.810782 0
-0.41729975 5.5383315 -0.018009305 0
3.6086917 4.2166662 0.22855771 0
-0.25528097 5.4270129 1.1569362 0
3.6098714 4.2187319 -0.17047143 0
3.1455774 4.3059015 1.5597613 0
-3.339942 -4.3301773 -0.98365259 0
3.5534782 4.2280507 0.62194562 0
0.038773656 5.2266288 1.8928561 0
0.0459553 5.2227311 1.9036856 0
3.5462701 4.2149968 0.75200462 0
-0.41524839 5.5339751 0.33725858 0
3.6049104 4.2100444 -0.44099617 0
3.3037441 4.2820745 1.2904439 0
3.4428725 4.2473874 1.0132384 0
3.3334389 4.2647352 1.2744555 0
-5.3789101 1.3017827 0.5474174 0
-3.8955412 -3.9333575 0.53705442 0
3.3893423 4.2589803 1.1440775 0
-5.2226477 1.1494758 1.5294642 0
-1.1596498 5.3499064 -0.98674536 0
-0.19365525 5.3887663 1.3670859 0
-0.18829036 5.3620272 1.4711928 0
3.613524 4.2200608 0.32973385 0
3.6539931 4.1875 -0.30501831 0
0.16014516 5.1475234 2.1137023 0
3.6563954 4.1915712 0.22843981 0
-1.1622853 -5.3539004 -0.98802757 0
2.9192486 4.351388 1.8807218 0
3.2798407 4.2741818 1.40695 0
-3.8916955 -3.5391476 1.8261368 0
3.6583366 4.19486 -0.1710555 0
-0.073518991 5.305584 1.6919112 0
3.609709 4.2095146 0.52147019 0
-5.3425398 1.2544582 -0.95293593 0
-0.41877413 5.5414619 -0.37811387 0
3.5002394 4.2421188 0.88387704 0
-0.41031909 5.5311999 0.51711702 0
3.6603246 4.1982288 0.095721006 0
3.5131903 4.2276492 0.90397549 0
-3.3524432 4.3384905 -0.9871186 0
-3.8953853 -3.630091 1.6392727 0
-3.8898702 -3.7269933 1.4204414 0
-3.8908792 -3.4081562 2.0701957 0
3.6612296 4.1997623 -0.037622452 0
3.4363434 4.2347193 1.1439977 0
-0.41502142 5.533493 0.51413202 0
-3.8943763 -3.7815189 1.261693 0
-3.882133 -3.9262636 0.75924015 0
3.6029322 4.2065797 0.62223351 0
3.3745556 4.2467499 1.2883761 0
-0.086009502 5.3113298 1.6929572 0
-5.380187 1.3021201 0.66641665 0
3.5963395 4.195034 0.75262654 0
3.6068892 4.2135091 -0.5812701 0
-3.8967466 -3.5324392 1.8578296 0
3.3349869 4.277113 1.3034167 0
3.4545283 4.2403555 1.0967336 0
3.2277708 4.3005724 1.4863071 0
3.6558433 4.1906352 -0.44302464 0
-0.25541306 5.4233332 1.2835073 0
3.4936824 4.2298317 1.014514 0
3.3273039 4.2519455 1.4069779 0
-0.40953875 5.5218506 0.69053769 0
-0.41034484 5.5276165 0.64646709 0
3.1364448 4.2949643 1.6904936 0
3.6598592 4.1974401 0.35988104 0
-5.3372116 1.2542292 1.0457439 0
-3.8849311 -3.4302139 2.0737391 0
-3.2893963 -4.401454 -0.98319113 0
-0.41735148 5.5384412 -0.56014675 0
3.6556609 4.1903262 0.49137461 0
3.5486515 4.2193093 0.88425183 0
-5.0261035 0.95001793 2.2395802 0
-1.0935409 -5.3865623 -0.98533273 0
-0.29482985 5.4440327 1.2072697 0
-5.0017004 0.93085557 2.3019919 0
-3.8871813 -3.9289343 -0.81250978 0
-0.10506654 5.3358622 1.65556 0
-5.2037964 1.1106893 1.7064307 0
-0.45491338 5.5611186 0.30574524 0
3.6089449 4.2074018 0.71312666 0
-0.4104023 5.5196042 0.77547348 0
-3.8911591 -3.5668499 1.8376095 0
3.297925 4.2625613 1.4830155 0
-3.8910093 -3.2807682 2.3136644 0
3.7080612 4.1728306 -0.30797923 0
3.5115693 4.2259202 1.0388179 0
-0.3285706 5.4895682 1.0175333 0
3.7123303 4.1798334 -0.17341352 0
3.6818542 4.1782894 0.5213958 0
3.3233457 4.263958 1.4356003 0
3.3905058 4.2613196 1.27953 0
-5.0363798 0.94998199 2.2423337 0
3.7058432 4.1857533 0.21444011 0
2.995254 4.3350821 1.8810153 0
-3.8911409 -3.777967 1.3810952 0
-3.8974895 -3.8318243 1.2034645 0
3.1494982 4.3101525 1.6827393 0
3.7158799 4.1856561 -0.039588809 0
3.713861 4.1823449 0.22730529 0
3.6591244 4.1961956 -0.58428514 0
2.9629664 4.3341141 1.9431934 0
-5.430017 1.361146 0.049140692 0
3.7111011 4.1778173 0.35971475 0
-3.8771729 -3.9865918 0.65906167 0
-0.19095969 5.3825893 1.5422413 0
-3.8875394 -3.9986503 0.53516865 0
-1.0254614 -5.4197807 -0.98314846 0
-5.183218 1.1058812 1.8196135 0
-0.31692576 5.4533768 1.2516308 0
-0.25559139 5.4183569 1.4101992 0
-5.1252036 1.0483317 2.0116022 0
3.5284076 4.2146702 1.0966473 0
3.7084215 4.1883502 0.35290623 0
-0.45458221 5.5601382 0.54563653 0
-5.3948135 1.3059831 0.78489864 0
3.438458 4.238822 1.2798977 0
3.6923761 4.2061257 0.32948458 0
3.5491209 4.2201595 1.0173571 0
-0.41891336 5.5417581 -0.74605024 0
3.7211514 4.1943035 0.093277931 0
-0.41039944 5.5199842 0.90396762 0
3.0675931 4.3040352 1.8775365 0
-1.1076183 5.4085779 -0.9923346 0
-3.883297 -3.9268794 0.98262155 0
3.3829179 4.2460647 1.4121032 0
-3.8945503 -4.0369081 0.088838339 0
-3.3136535 4.4180894 -0.98998177 0
-3.8854365 -4.031918 -0.36224693 0
3.6636963 4.2039423 0.62371278 0
-5.4395952 1.3616949 -0.20376116 0
-0.10608077 5.3201728 1.7803254 0
3.6040921 4.208611 0.88643956 0
-0.41269588 5.5285549 0.86846387 0
3.7140994 4.1827354 -0.44837904 0
-3.8960652 -4.0377374 -0.13680226 0
-5.3851452 1.3034296 0.9039557 0
-5.4383039 1.3616209 0.30013728 0
3.6082709 4.2055387 0.905352 0
3.314137 4.253552 1.5679691 0
-1.0326784 5.4314308 -0.98682058 0
3.453958 4.2386255 1.2910032 0
-0.41135216 5.5257015 -0.92949593 0
-5.3222108 1.2535846 1.2940469 0
3.7629442 4.1586161 0.35952306 0
3.5126657 4.2270899 1.1738815 0
-3.2486658 -4.4796219 -0.98578739 0
3.7121146 4.1920695 0.49083138 0
-5.3725872 1.3001128 1.0224779 0
3.5016131 4.2446928 1.1516075 0
3.7178478 4.1888847 0.49191141 0
-3.8986001 -4.0391254 0.3134234 0
-0.41045904 5.5116811 1.0322773 0
3.1370494 4.2956886 1.8239167 0
-3.8883104 -3.774859 1.500864 0
3.7651339 4.1755824 0.13693881 0
3.6620159 4.2010946 0.75597012 0
3.7053239 4.1852303 0.62924457 0
3.7726302 4.174005 -0.042042196 0
3.7723446 4.1735516 0.092462778 0
3.6533399 4.1863933 0.88711619 0
-5.4431148 1.3618968 -0.45813996 0
3.7643332 4.173553 0.32956254 0
3.4917517 4.2262139 1.2830348 0
3.3766928 4.2535582 1.4858227 0
3.7171507 4.1877408 -0.59034038 0
-3.8856826 -4.0320525 -0.59074688 0
-0.29742551 5.4497561 1.3861177 0
-0.52934217 5.6023188 -0.21005082 0
3.2268672 4.2973762 1.6846313 0
-3.8937526 -4.0364709 0.53788006 0
-3.889544 -4.0009823 0.78113592 0
3.7655063 4.1626868 0.49196076 0
-3.8917022 -3.7278965 1.6469121 0
3.7760715 4.1794729 -0.17868155 0
-0.070533991 5.2953067 1.9271259 0
-3.2615399 4.4887242 -0.98942757 0
3.7755895 4.1787071 0.2257638 0
-3.8898163 -3.627444 1.8656535 0
-0.53290939 5.609621 0.15391839 0
3.504169 4.2180262 1.308332 0
3.7107639 4.1772637 0.75637603 0
-0.45619988 5.5649295 0.78606737 0
3.7697701 4.1694613 -0.45254225 0
3.4387813 4.239449 1.417284 0
3.5525417 4.2263546 1.153198 0
3.7204201 4.1931043 0.62475491 0
-0.96716452 -5.4688835 -0.98625207 0
3.6919036 4.2048759 0.71451068 0
3.8218746 4.1497288 -0.042788327 0
-5.4478712 1.3621693 0.55142987 0
3.8229451 4.1513772 0.091712236 0
-0.9698019 5.4732804 -0.98762584 0
-3.8812003 -3.6639049 1.8397961 0
3.2979448 4.2626281 1.6815042 0
-3.1953163 -4.5490146 -0.98512411 0
3.7648816 4.174942 0.52186346 0
-3.8953848 -3.8307488 1.4285936 0
-3.8867002 -3.9976742 0.90396059 0
-0.53488517 5.6136656 0.33510113 0
-3.1989083 4.5516319 -0.98615015 0
3.6125751 4.2234674 1.0227349 0
-0.25512362 5.431396 1.5393181 0
3.7813449 4.187851 -0.31796294 0
-3.8864737 -4.032486 0.762079 0
-0.19026566 5.3809986 1.7211101 0
3.6095693 4.2091284 1.0993285 0
3.8388128 4.1474085 0.13686585 0
-5.2396293 1.1499622 1.7836177 0
3.6860042 4.1892691 0.906376 0
3.6556354 4.1902833 1.0216136 0
3.5313859 4.2232871 1.2926245 0
-3.8880453 -3.5362399 2.0879407 0
-5.3835831 1.303017 1.141659 0
3.1479805 4.3044748 1.8830643 0
0.043051958 5.2332888 2.1440067 0
-5.4443698 1.3619686 -0.71459758 0
-0.54346752 5.6312332 -0.030112028 0
3.7163484 4.1963339 0.76632202 0
-3.8966866 -3.5324118 2.0878341 0
3.6034541 4.2074933 1.1548469 0
3.7732458 4.174983 -0.59534979 0
-0.10569954 5.3260708 1.90939 0
-0.53827763 5.6206098 -0.39760315 0
-0.42146659 5.5471797 1.0496175 0
3.7642207 4.1606445 0.75760281 0
3.8316908 4.1648407 -0.18147492 0
-3.8883109 -4.0334916 -0.8223362 0
3.827239 4.1579871 0.35892773 0
3.549145 4.2202034 1.2881372 0
-0.5319159 5.6075869 -0.58189714 0
3.8287358 4.1602917 -0.31841248 0
-0.45177364 5.5518193 1.0260806 0
3.8401055 4.1505527 0.32944083 0
-3.8934455 -3.9322486 1.2087123 0
-0.19877195 5.3962774 1.7157636 0
3.7754827 4.1785374 0.62562561 0
-0.410321 5.5309134 1.161623 0
3.4543476 4.2398076 1.4879017 0
3.1367664 4.2953501 1.958148 0
-0.53757858 5.6191788 0.51640582 0
-5.4436994 1.3619301 0.80297744 0
-5.373086 1.3002447 1.2600737 0
3.8273735 4.1581941 -0.45751524 0
3.8352227 4.1702776 0.22445226 0
3.7173223 4.1880226 0.89132905 0
-3.888442 -3.9997008 1.026746 0
3.3258107 4.2667437 1.7048423 0
-3.8824611 -4.1357813 0.08687079 0
3.7673631 4.1812339 0.7147795 0
-0.90568852 -5.5132017 -0.98810709 0
-0.25560617 5.4179449 1.6660247 0
-0.585747 5.6360788 0.30376256 0
3.8283749 4.1597357 0.49250853 0
-0.32088685 5.4656873 1.4931474 0
-0.29634953 5.4473834 1.5658 0
-3.8919291 -3.4089687 2.3346829 0
-0.41192651 5.5269213 1.2269683 0
3.7155554 4.1955357 0.90397882 0
-0.90756917 5.5164413 -0.98911083 0
-3.9025888 -3.7905352 1.6246626 0
-5.1674476 1.0841105 2.0888686 0
3.7001288 4.1799974 1.0410993 0
-3.8817492 -4.1353779 0.31286299 0
-0.57136893 5.6398878 0.37725902 0
-3.1497903 -4.6242013 -0.98699749 0
3.2229199 4.2834139 1.8829472 0
3.68399 4.1839399 1.0995975 0
3.5007882 4.2431474 1.425879 0
3.8875494 4.1496382 -0.047220111 0
-0.53735423 5.6187196 0.69801223 0
3.3771296 4.2549505 1.6851592 0
3.6597245 4.1972122 1.1586103 0
3.8305116 4.1630249 -0.60091686 0
-0.83456707 -5.5407796 -0.98507452 0
3.8889322 4.1517015 0.088509083 0
-3.0808611 -4.6816015 -0.98237336 0
3.6045609 4.2094321 1.2922335 0
-5.4398332 1.3617086 -0.97286856 0
-3.8891387 -4.1395626 -0.36907452 0
3.5193779 4.2342496 1.445879 0
-3.8990903 -4.1451979 -0.14160764 0
3.8461185 4.1651807 0.52223516 0
-5.3339186 1.2540877 1.5476696 0
3.9171395 4.1299539 0.13612151 0
-3.8929224 -4.0360165 0.98788869 0
3.717783 4.1887784 1.0264726 0
3.8869743 4.1487803 -0.32277942 0
-3.889389 -3.7760437 1.7435558 0
-0.52888465 5.6013823 0.87860537 0
-3.1606131 4.632328 -0.99012208 0
3.6103599 4.2113142 1.295007 0
3.7655187 4.1765575 0.90784478 0
-0.83819461 5.5472398 -0.98705971 0
-5.3719254 1.299938 1.3792706 0
-0.53705215 5.6181011 -0.77373862 0
-0.58708978 5.6398759 0.54770756 0
-5.4328651 1.3613093 1.0545712 0
3.9030006 4.1397476 0.3430984 0
3.8263965 4.1566901 0.76024199 0
3.8354692 4.1706572 0.62697136 0
3.7749066 4.1776218 0.89396691 0
-0.5715847 5.6499162 0.50873613 0
3.8937573 4.1589022 0.2232604 0
3.5526133 4.2264843 1.4285803 0
3.841753 4.1545606 0.71493936 0
3.8914728 4.1554928 0.35834658 0
-3.8915977 -3.8288143 1.6556935 0
-0.4102428 5.5418348 1.2915645 0
-5.1294107 1.0483919 2.2674499 0
-3.8897858 -4.1399288 0.5386982 0
3.532578 4.2267365 1.4903588 0
3.919301 4.1350045 0.3291564 0
3.9136331 4.1498594 0.20001698 0
-3.896697 -4.0093026 1.1502552 0
-3.8935866 -3.7288253 1.8766356 0
3.8984318 4.1658778 -0.18743378 0
-0.45062971 5.5484314 1.2678556 0
3.4499106 4.2263489 1.68402 0
-0.76595712 -5.5723376 -0.98359036 0
-0.40855598 5.5197635 1.4075336 0
3.8896241 4.1527343 0.49299538 0
3.7135756 4.1818762 1.1614385 0
3.9430637 4.133008 -0.04936707 0
-3.0994225 4.6959586 -0.98779082 0
3.3249776 4.2658024 1.8403342 0
-0.58307624 5.6285267 0.7913897 0
-0.57158566 5.6499562 0.64071739 0
-3.8915792 -3.9312611 1.4354029 0
3.7082193 4.1881461 1.1789045 0
3.6014149 4.2039223 1.4297118 0
-0.25544333 5.4224839 1.7958941 0
3.9088871 4.1453462 0.48328412 0
3.8949356 4.1606603 -0.46658093 0
-0.77016902 5.5800958 -0.98595583 0
3.300909 4.2725677 1.8859849 0
3.9446168 4.1352553 0.22278523 0
-3.8918166 -3.6283948 2.0975256 0
-0.41035843 5.5256948 1.4199119 0
-0.53446579 5.6128068 -0.96480823 0
3.6829522 4.1811948 1.2945209 0
3.6616249 4.2004323 1.297051 0
-0.57138348 5.6405606 0.77263415 0
3.889812 4.1530147 -0.60742891 0
3.888917 4.1516795 0.62768388 0
3.8281965 4.159461 0.89561319 0
3.774755 4.177381 1.02969 0
3.5160773 4.2307286 1.5818982 0
3.9449406 4.1357241 -0.32702065 0
-0.071325064 5.2980299 2.1690378 0
3.9507213 4.1440887 0.086018205 0
3.921423 4.1399641 0.52233768 0
-3.8915482 -4.0033135 1.2731843 0
3.9407644 4.1296806 -0.4666208 0
-0.19407034 5.3809137 1.954217 0
-3.9048676 -4.1484694 -0.60237253 0
-5.2301626 1.1496911 2.0363312 0
-3.0368967 -4.7581797 -0.98530614 0
3.9481821 4.1404147 0.35800719 0
-0.65702128 5.6904273 -0.22671938 0
-0.65930939 5.6949458 -0.039616704 0
-3.8900576 -3.7767773 1.8663263 0
-0.53355479 5.6109419 1.0626292 0
3.7009037 4.180778 1.3160143 0
3.6081443 4.2051888 1.4913075 0
3.7685919 4.1675892 1.1647091 0
3.8882389 4.1506672 0.76278186 0
-0.65727568 5.6909299 0.33294213 0
-3.895998 -4.1434464 0.76534438 0
-3.8940887 -4.0366549 1.2148581 0
-3.8887625 -4.1393495 -0.83242393 0
-0.5713768 5.6402512 0.90397108 0
-5.548645 1.4727484 0.042559862 0
3.9158118 4.1519318 0.62332511 0
-3.0463262 4.7656918 -0.98808956 0
-0.66303706 5.7023072 0.14653182 0
-5.3885946 1.3043405 1.5010872 0
4.0001249 4.1176677 -0.19030929 0
-0.57096481 5.6211038 1.0348547 0
3.8269205 4.1574965 1.0314877 0
3.9596286 4.1569781 -0.19172174 0
3.9500403 4.1431036 0.49344969 0
3.7715096 4.1917467 1.1043632 0
-5.5463562 1.4725844 0.29813039 0
3.848134 4.1700835 0.91001964 0
3.3759577 4.2512169 1.8863993 0
4.3532953 -3.6206825 -0.98460412 0
4.0039921 4.1230955 0.084844708 0
-3.8871717 -3.9982231 1.3962567 0
4.0024014 4.1270452 0.13447404 0
-3.8911972 -3.6721056 2.1082268 0
-5.5548625 1.4731941 -0.21445292 0
-0.41037774 5.5230279 1.5496409 0
-0.30577731 5.4681702 1.7550335 0
3.9110692 4.1474214 0.76388168 0
3.7189159 4.1906366 1.3019152 0
-0.70727777 -5.6225209 -0.98805118 0
-0.32373333 5.474534 1.7375517 0
3.5295894 4.2180891 1.6880977 0
-3.8835773 -3.5326803 2.3533916 0
-0.66245794 5.7011638 -0.41778642 0
-0.65878749 5.6939154 0.51851618 0
3.32356 4.2642002 1.9766424 0
-3.8934569 -3.8105376 1.8598619 0
-0.2555542 5.4193935 1.9255357 0
-3.8805299 -4.2418671 0.3119539 0
4.010458 4.1321712 -0.05403614 0
3.9262714 4.1512947 0.7164948 0
3.9508815 4.1443205 -0.61470962 0
3.9406013 4.1294446 0.76382434 0
4.0055585 4.1252942 -0.33212924 0
-5.4411101 1.3617818 1.3092933 0
3.7610841 4.1653152 1.296633 0
-0.6322372 -5.6414828 -0.98335564 0
3.9042795 4.140964 0.90398157 0
-0.71232724 5.6321487 -0.99096406 0
-2.9858527 -4.8294444 -0.98648524 0
-3.8795714 -3.9249084 1.6622362 0
3.6661248 4.2080574 1.4393756 0
-3.8920946 -4.2486362 -0.14559281 0
-5.5523639 1.4730151 -0.47240478 0
4.0112963 4.1333475 0.22085989 0
-3.8830528 -4.2433438 -0.3747853 0
3.5169611 4.2316718 1.719295 0
4.0032949 4.1221166 -0.47348356 0
3.8420396 4.1552582 1.1034424 0
3.893055 4.1578541 0.89983439 0
-5.3323154 1.2540188 1.8023467 0
-3.8959661 -4.2509022 0.083246946 0
-5.4905829 1.4685861 -0.98405027 0
-0.41266608 5.528492 1.5940647 0
-3.8917418 -4.1410365 0.99226868 0
3.9560714 4.1518307 0.6296705 0
4.0072479 4.1379385 0.32849538 0
-0.66192365 5.7001085 -0.60925484 0
4.365612 3.6422522 -0.99125957 0
-0.53341985 5.6106663 1.2472503 0
3.827991 4.1591449 1.1695466 0
3.6848099 4.1861091 1.4929981 0
3.9209905 4.1389532 0.90997362 0
-3.8830247 -3.9933987 1.5195932 0
3.7718592 4.1727805 1.3048477 0
4.0579243 4.102335 0.22074473 0
-0.59057355 5.6497264 1.0381436 0
4.0148468 4.1383319 0.35736859 0
-3.8926225 -3.8293376 1.8868461 0
-0.63981199 5.6564417 -0.9878484 0
-0.66007471 5.6964569 0.7045244 0
4.009491 4.1308141 0.49387026 0
-3.8892822 -4.240953 0.52208698 0
4.0046787 4.132165 0.52279425 0
-5.1639557 1.0830827 2.3550239 0
-0.45388079 5.5580602 1.513638 0
-5.5604014 1.4735912 0.5535152 0
-5.5428381 1.4723321 -0.73128653 0
-3.0010958 4.8419485 -0.99103701 0
-3.8872147 -3.7256844 2.1077747 0
-5.3942699 1.3058397 1.6227751 0
3.453265 4.2365236 1.8889961 0
4.004703 4.1240931 0.62994456 0
4.4236774 3.5917308 -0.98736358 0
3.8895121 4.1525669 1.0362959 0
3.7178895 4.1889529 1.4421206 0
4.4254007 -3.59465 -0.98827183 0
-0.57134748 5.6388955 1.1667104 0
4.066309 4.1137547 -0.19595051 0
-3.8929095 -4.2491131 0.53969634 0
4.0693436 4.117887 -0.056852341 0
-0.65988135 5.6960754 -0.80248654 0
4.0699635 4.118732 0.081771374 0
4.0641298 4.1107864 0.35725403 0
-2.9306521 -4.8974128 -0.98672891 0
-0.41034412 5.5277066 1.6809862 0
4.0109577 4.1328726 -0.62144506 0
-2.9314642 4.8980985 -0.98697424 0
4.0021925 4.1265769 0.71689904 0
3.71755 4.1975441 1.4562638 0
3.5072615 4.2213249 1.8551104 0
-0.56791615 -5.6812801 -0.98522782 0
-3.8912725 -4.2434068 0.64946282 0
4.0786333 4.1024175 0.32854533 0
-3.8940496 -4.2497807 -0.60889435 0
3.6092255 4.2081776 1.6920705 0
-3.8776264 -4.1330433 1.2188501 0
-0.73188424 5.7429867 0.30114007 0
4.0036278 4.1225839 0.76650023 0
-5.376235 1.3010763 1.7415042 0
