# .PCD v0.7 - Point Cloud Data file format
VERSION 0.7
FIELDS x y z intensity
SIZE 4 4 4 4
TYPE F F F F
COUNT 1 1 1 1
WIDTH 1441
HEIGHT 1
VIEWPOINT 0 0 0 1 0 0 0
POINTS 1441
DATA ascii
0.32102156 5.2526546 0.75920439 0
1.5842637 4.9912138 0.92228246 0
-4.5563369 -2.6098709 -0.84063566 0
0.64282954 5.1778421 1.0271516 0
0.13196898 5.3071909 -0.31009352 0
1.3479378 5.0307317 1.0750513 0
0.13757575 5.2920303 0.5065074 0
1.0387948 5.1002574 1.0924411 0
1.2870948 5.0469213 1.0785999 0
-4.8046098 0.6686548 2.18185 0
0.97517395 5.1130199 1.0961893 0
0.8466748 5.1344223 1.1034937 0
1.8538239 4.9251738 0.77738881 0
-4.5637007 -2.7087204 -0.37825757 0
0.78856027 5.1346068 1.1500082 0
1.8713211 4.9207878 0.77327859 0
0.43046594 5.2401671 0.8182236 0
0.49627519 5.2204609 0.90396154 0
1.2254682 5.064106 1.0824528 0
0.19672012 5.2774901 0.6562804 0
1.7003727 4.9587064 0.91793489 0
-3.741601 -3.6539023 -0.98611546 0
1.9838247 4.8975682 -0.63400614 0
1.9838592 4.8981333 0.63299596 0
-4.5813746 -2.5200174 0.99583888 0
1.7644588 4.9332314 0.94041848 0
1.9827288 4.8795743 0.77012968 0
-4.5640311 -2.3253374 1.4481707 0
1.8469372 4.9104514 0.90396476 0
-3.7433004 3.6547399 -0.98655283 0
-4.56287 -2.6583769 0.67582214 0
-4.5786166 -2.7128797 -0.14850509 0
0.21277487 5.2781148 0.66629291 0
2.2057204 4.8471236 0.082355499 0
1.5449493 4.9925604 1.0291204 0
1.9321606 4.9092994 0.73293161 0
1.1628554 5.0832171 1.0867622 0
2.0953019 4.8733735 -0.48371696 0
-5.1798158 1.0491135 -0.6709404 0
0.57239974 5.2083235 0.96796453 0
1.7022834 4.9677534 0.90396464 0
2.0394251 4.882133 0.63235712 0
1.5262033 4.99297 1.0669661 0
2.150918 4.8631415 0.35702658 0
-4.5703936 -2.4986444 1.1284235 0
0.51438808 5.2142982 0.97561979 0
-4.5799389 -2.6160896 0.76840174 0
1.2405162 5.0544105 1.1522338 0
1.7577113 4.948164 0.91661513 0
0.13835609 5.2899203 -0.64257419 0
0.779019 5.155436 1.1090636 0
0.13943017 5.2870159 0.66803908 0
0.50394225 5.2174058 0.97132444 0
-5.0723124 0.94100744 1.3443797 0
2.0396595 4.8852439 -0.6317277 0
2.2059231 4.8488321 0.21993828 0
2.1803942 4.8546395 0.32409298 0
1.4667239 5.0135131 1.0707865 0
0.20853662 5.2900996 -0.63710165 0
2.2600403 4.8295331 -0.054851413 0
1.1598083 5.072021 1.1685739 0
2.2586904 4.8193955 -0.33307332 0
-4.5805225 -2.7134111 0.31110442 0
0.43508363 5.2250781 0.97464347 0
0.57963693 5.1820059 1.1208644 0
0.9082154 5.1389961 1.1022291 0
2.0138907 4.8962655 0.64863205 0
1.9278897 4.9132175 0.77281153 0
2.1502461 4.8566899 0.49426019 0
-4.5604696 -1.6150389 2.2492917 0
2.0960217 4.8813972 0.49459815 0
-1.6370625 -4.9819484 -0.98413181 0
0.94267619 5.1239409 1.1513112 0
0.28688335 5.2640123 0.8240577 0
2.0150788 4.8862185 0.73189402 0
1.6960411 4.9533458 1.0296302 0
0.11851168 5.3078647 0.53855336 0
0.19653106 5.275948 0.78022432 0
1.8483996 4.9179196 0.93915784 0
2.1506813 4.860867 -0.48207641 0
2.2067423 4.8557382 -0.197245 0
1.0932593 5.0956469 1.1519816 0
-4.5511866 -2.0418682 1.9006186 0
2.0984664 4.8798862 0.5276494 0
1.6427772 4.9667587 1.0620906 0
-4.5711346 -2.3401 1.4579678 0
-1.6388607 4.9840932 -0.98488164 0
1.0699176 5.0968409 1.1727486 0
2.2602663 4.8312302 0.22049785 0
-4.9069109 0.75956535 1.9616723 0
0.21425688 5.2739244 -0.8032068 0
0.97982883 5.1153011 1.1763024 0
2.2074602 4.8617892 -0.057974637 0
2.206218 4.8513193 -0.33795613 0
0.049212813 5.3369222 0.17924237 0
-3.6945782 -3.7281606 -0.98410285 0
0.642277 5.1752238 1.1503513 0
2.1522093 4.8755417 -0.34147346 0
2.1689813 4.8525643 0.5183152 0
0.04788363 5.3403645 0.013945103 0
1.8147774 4.9389319 0.91555691 0
0.49576712 5.2176576 1.0274026 0
1.5407579 4.9820709 1.1538868 0
-5.2087297 1.0495275 0.54706204 0
0.050890684 5.3325777 -0.31839538 0
1.3486843 5.0230293 1.2211244 0
1.584325 4.9896593 1.0660141 0
2.2609904 4.8366671 -0.19532126 0
0.70589387 5.1611066 1.1867852 0
1.871305 4.9202876 0.91344213 0
0.2196641 5.2837448 0.76201427 0
0.34750819 5.2545409 0.90396178 0
0.36306 5.2400184 0.97904205 0
1.2474531 5.062809 1.166486 0
0.7975235 5.1491427 1.1835315 0
-4.5698328 -1.7677672 2.1314554 0
2.0954099 4.874578 0.6322037 0
1.3938549 5.0284934 1.1534581 0
0.047289014 5.3419042 -0.15237349 0
1.4226999 5.0196157 1.1597323 0
2.2066517 4.8549747 0.35706055 0
1.1649083 5.0686016 1.2341323 0
1.527023 4.9777117 1.2097356 0
1.2265003 5.0559068 1.2301059 0
0.88827157 5.1381316 1.1805651 0
-4.5756521 -2.7120531 0.54020715 0
0.21263325 5.2785153 0.82737899 0
2.0957992 4.8789163 -0.63127446 0
-4.561708 -2.2305863 1.6763096 0
1.5091785 4.9979782 1.1565847 0
2.2607121 4.8175397 0.52677667 0
0.70903361 5.1816883 1.1156645 0
2.3152351 4.8198719 0.083454132 0
1.335129 5.0462351 1.1636486 0
0.19553709 5.267837 0.90396154 0
2.1503716 4.8578939 -0.62707829 0
2.2623732 4.8470516 0.081742644 0
2.1668806 4.8486719 0.64730406 0
-3.703711 3.7328265 -0.98647058 0
1.8144686 4.9216766 1.0548515 0
0.32168579 5.2497578 0.98218656 0
-4.5723729 -2.7111385 -0.61278117 0
1.0388826 5.09974 1.2438686 0
2.0977798 4.8686113 0.73120499 0
-5.1882997 1.049235 0.7890116 0
0.41579533 5.2450514 0.98000169 0
2.206399 4.8528428 -0.48165917 0
0.43869305 5.213284 1.1318493 0
2.2063212 4.8521886 0.49429047 0
0.12130284 5.2971153 0.76395357 0
2.0151017 4.8986716 0.77630568 0
2.2613473 4.8393459 0.35721195 0
0.052144766 5.3293304 0.5076437 0
0.048185229 5.32727 0.52975869 0
1.6800513 4.951983 1.150413 0
2.1508591 4.862576 0.63185799 0
1.5948517 4.9798903 1.1540263 0
-4.5759497 -2.666831 0.78958559 0
-4.5706701 -2.498812 1.240989 0
0.91080105 5.1260276 1.2534127 0
2.3690317 4.8018694 0.084289312 0
1.0901939 5.085525 1.2755883 0
2.3157935 4.8236518 0.2204864 0
0.046432972 5.3441205 0.34347951 0
2.1810262 4.8630347 0.52745378 0
2.0401652 4.891964 0.77155256 0
1.4672496 5.0057926 1.2158904 0
1.2397205 5.0520315 1.2765315 0
-4.5639863 -1.9379463 2.0272532 0
2.26034 4.8317828 0.49405479 0
1.9321134 4.9078374 0.9384594 0
0.84581816 5.1384196 1.2583299 0
0.28878021 5.2583942 0.98404074 0
0.13707793 5.2933764 -0.81514275 0
1.8517439 4.9207268 1.0304275 0
2.3163254 4.8272514 -0.19506359 0
0.97420967 5.1182461 1.2496037 0
0.63976192 5.2003951 1.1212189 0
1.7002592 4.9692869 1.0623281 0
1.9280033 4.9156585 0.91314816 0
1.7577182 4.9500952 1.0592561 0
1.2861928 5.0550208 1.2285678 0
-4.5532994 -1.8574357 2.1303229 0
2.0952001 4.8722382 0.77022839 0
2.3170848 4.8323894 -0.056172967 0
-4.5703793 -2.517288 1.2244611 0
0.79117286 5.1454377 1.2741456 0
2.2608688 4.835753 -0.47931522 0
2.2053437 4.8439488 0.63120389 0
0.78027594 5.1499548 1.2632778 0
-4.5717344 -2.6139278 0.99705815 0
0.34669363 5.2491732 1.0275567 0
1.1002221 5.0972996 1.2414889 0
-4.5660152 -2.8070874 0.081012249 0
1.4071677 5.0264449 1.2207704 0
0.51721859 5.2001009 1.1956985 0
2.263535 4.8490133 0.32407165 0
2.3701298 4.8086309 -0.054288387 0
1.9837816 4.8968596 0.91121066 0
1.8710845 4.9134398 1.053772 0
-4.5672159 -2.661186 0.90394998 0
1.5847601 4.9786096 1.209388 0
0.94253898 5.1234365 1.2752855 0
0.13577235 5.2969069 0.8311795 0
-4.5525341 -1.7174621 2.2578533 0
2.0110457 4.8906116 0.90396631 0
0.4955337 5.2163696 1.1509168 0
-4.5688491 -2.8079216 -0.14997435 0
1.6974351 4.956563 1.155596 0
2.3691273 4.8024573 -0.33295417 0
2.3162355 4.8266425 0.35729825 0
0.21582639 5.2694864 0.98825407 0
0.60924685 5.195981 1.1930716 0
2.17993 4.8484735 0.73044455 0
2.2062631 4.8516979 -0.62708604 0
0.050476432 5.3517709 0.40209436 0
0.5023458 5.2229028 1.1304281 0
2.15031 4.857305 0.76939297 0
2.3692727 4.8033533 0.35755813 0
0.64224052 5.1750512 1.2738686 0
0.045788288 5.3457899 -0.4902581 0
-4.569716 -2.7103977 0.76917815 0
1.3926605 5.0252366 1.2783017 0
2.3153455 4.8206201 -0.47760481 0
-4.8316121 0.68213469 2.2409348 0
0.22202158 5.2740998 0.98626876 0
-3.6571269 -3.8072209 -0.9848516 0
2.370959 4.813736 0.22055686 0
2.0152309 4.8894882 0.93714142 0
1.7644867 4.9410043 1.1490278 0
0.98247421 5.0942883 1.3905761 0
0.051453471 5.3311205 -0.65856564 0
2.169338 4.8532248 0.77558494 0
-4.5718184 -2.1865678 1.7829096 0
2.3715181 4.8171773 -0.19482648 0
-1.5859368 5.0384212 -0.98707068 0
1.9274944 4.904727 1.0527444 0
2.3158703 4.8241715 0.49405801 0
-1.5862739 -5.0388355 -0.98721361 0
1.5425395 4.9865294 1.2795238 0
-5.1898413 1.049257 -0.92212164 0
1.8483682 4.9161649 1.1460886 0
1.1606034 5.0638165 1.3826556 0
-4.5686016 -2.8078487 -0.38218921 0
1.0715309 5.0823555 1.3870375 0
-4.5657372 -2.7092884 -0.84745669 0
0.97791934 5.0981431 1.3995423 0
-4.5747142 -2.4226973 1.4532144 0
2.0400641 4.8906212 0.91091585 0
0.36226523 5.2424884 1.1398878 0
-5.0890884 0.94442278 1.4573908 0
0.049124956 5.3373199 0.65424883 0
2.3321345 4.8187885 0.51481581 0
1.6425116 4.9773598 1.2087839 0
0.64354944 5.1858082 1.2763596 0
1.849946 4.9168839 1.1568291 0
1.2487183 5.0474706 1.3788302 0
2.4257154 4.8016658 -0.054587662 0
-4.564497 -2.6594288 1.0179973 0
2.3187027 4.8433394 -0.33930498 0
0.0050463676 5.3714957 0.31126201 0
0.41943359 5.2280736 1.201494 0
2.3455229 4.831811 0.32423246 0
0.34604096 5.2448735 1.1510832 0
2.261627 4.8277397 0.72971356 0
2.4778454 4.7762666 -0.05268234 0
1.7576916 4.9426804 1.2018023 0
2.4772458 4.7731419 0.22168016 0
2.4243357 4.7938771 -0.3331061 0
2.1495957 4.8504448 0.90720367 0
2.2619636 4.8439751 -0.62689722 0
1.164794 5.0694156 1.386076 0
2.2060463 4.8498712 0.76928639 0
2.4258192 4.8022504 -0.19393522 0
1.2263623 5.057003 1.3813591 0
2.3153682 4.8207736 -0.62273109 0
2.2621217 4.8451614 0.63163853 0
2.4258089 4.8021932 0.22067213 0
0.57508242 5.1985683 1.2821927 0
0.28995919 5.2549024 1.1453409 0
0.19744635 5.2834167 1.0278747 0
1.3479072 5.0310488 1.3722968 0
0.70810723 5.1854782 1.2732306 0
1.2394004 5.0510745 1.4012575 0
1.7002875 4.9666514 1.2065017 0
2.3443813 4.8208494 0.52697515 0
2.3156326 4.8225617 0.6308558 0
1.287132 5.0465875 1.3773184 0
0.13726544 5.2928696 0.99423516 0
-4.5634403 -2.1372142 1.9073195 0
-4.5757494 -2.5018916 1.3544612 0
-4.5856099 -2.8128548 0.31054091 0
1.3885988 5.0141597 1.4026132 0
2.4251997 4.7987537 0.35747385 0
2.370965 4.8137727 0.49402606 0
1.3358314 5.0359182 1.3759699 0
-5.1840429 1.0491741 1.0318339 0
1.0388523 5.0999184 1.3974922 0
1.526531 4.9868703 1.3590274 0
2.0981979 4.8754778 0.93630683 0
0.045139432 5.3474703 0.67275 0
1.4076955 5.0200458 1.3685336 0
0.04878366 5.3336692 0.77925873 0
-4.5600567 -2.3338096 1.6808839 0
0.79139638 5.1463642 1.3982561 0
0.12100554 5.2982602 0.99047828 0
-4.5900126 -2.3508191 1.5731571 0
1.1012158 5.0908918 1.3931267 0
-3.6768212 3.8176405 -0.98999548 0
2.0962367 4.8837938 0.91064739 0
0.0067877769 5.3651633 0.54002333 0
0.84662843 5.1346383 1.4137332 0
2.4801824 4.7884407 0.08374989 0
-5.2658191 1.150712 -0.1877777 0
2.4244416 4.7944741 -0.47568452 0
2.3332202 4.8206687 0.64466667 0
-3.6138673 3.8832276 -0.98437417 0
2.4264727 4.8079529 0.32448995 0
1.9320536 4.9059792 1.1450958 0
2.2049444 4.8405824 0.90675235 0
0.50454688 5.2153239 1.2890568 0
2.2612443 4.838573 0.76890898 0
1.9271202 4.896688 1.1936879 0
2.342824 4.8058963 0.72898459 0
0.88867867 5.1352329 1.3989654 0
1.4226015 5.0214477 1.3728466 0
2.4803791 4.7894659 -0.1935122 0
1.5847785 4.9781389 1.3563886 0
2.0156331 4.8997278 1.0316551 0
0.32133901 5.2512698 1.2068827 0
2.3727293 4.8246355 -0.4805513 0
2.5319498 4.7625489 0.22166407 0
-4.5585823 -1.9504638 2.1354549 0
0.050644994 5.3332138 0.83678424 0
2.4250903 4.7981362 0.49391508 0
-4.578238 -2.8106852 0.54072487 0
1.9845564 4.9095812 1.053997 0
2.429332 4.8220801 0.081662893 0
1.0943549 5.0992641 1.4014337 0
1.8468006 4.9101591 1.2830853 0
1.466624 5.0149817 1.3663464 0
2.1802001 4.8520622 0.93475032 0
2.3708417 4.8130136 -0.62295449 0
0.049425006 5.3363729 -0.8342241 0
-3.6194754 -3.8862979 -0.98585021 0
0.90917325 5.134192 1.4107077 0
-5.0821447 0.94300914 1.5684149 0
1.8148651 4.9438415 1.2021472 0
1.5949152 4.9773617 1.3647947 0
2.1741624 4.862164 0.90396774 0
-1.5285671 -5.0875297 -0.98771191 0
0.34536278 5.2404051 1.2746634 0
0.94525409 5.1334257 1.4006553 0
-0.050513506 5.4043827 0.0055758953 0
0.64345586 5.1808095 1.3983469 0
1.5422508 4.9858069 1.4052737 0
-4.5668797 -2.0492492 2.0387235 0
1.5088525 5.0062571 1.3698082 0
2.0149682 4.8838434 1.1427803 0
-4.5787144 -2.3285391 1.6834679 0
-4.5693808 -2.7103043 0.99906611 0
-1.5303087 5.0897322 -0.98846436 0
2.0403557 4.8944931 1.0522132 0
-5.2587185 1.1235216 0.55858147 0
2.3715334 4.8172722 0.6310308 0
0.79586756 5.1598206 1.4049668 0
0.43318367 5.231287 1.2959948 0
1.7028039 4.9689546 1.2826986 0
1.8715835 4.9289303 1.1995258 0
0.703812 5.1733694 1.4094226 0
-4.569169 -2.6624484 1.1324277 0
-0.050890684 5.4053197 0.17398286 0
0.49842429 5.2323165 1.2758641 0
2.0382679 4.8667598 1.1891942 0
2.5067525 4.7821317 0.32476211 0
-4.5612555 -2.9041607 -0.15177357 0
0.7777822 5.1608291 1.4230785 0
0.0095499754 5.3551183 0.76840281 0
-4.5691347 -2.4978805 1.4671061 0
2.4247713 4.7963352 -0.62096727 0
0.61098075 5.1865849 1.4140484 0
0.71195996 5.1697164 1.4285777 0
2.0956302 4.8770313 1.0501766 0
2.48177 4.7967124 -0.33567417 0
-4.575563 -2.6149366 1.2280498 0
2.3332653 4.8207469 0.77438593 0
0.64562201 5.1778264 1.4341364 0
2.1674829 4.8497877 1.0322592 0
2.0103066 4.889143 1.1589301 0
-4.9526143 0.81428319 2.0243545 0
1.0879753 5.0781994 1.5242453 0
2.0971756 4.8586912 1.140238 0
2.5002382 4.7873235 0.37892199 0
0.21012497 5.2856078 1.154068 0
2.53613 4.7827606 0.083280087 0
-5.2818747 1.1511718 0.30302322 0
-0.050379992 5.4040513 0.34188628 0
1.6799122 4.9649487 1.3625884 0
-4.5689564 -2.5169349 1.4558201 0
-4.5689664 -2.9065509 0.079356551 0
2.5358977 4.7816372 -0.1940155 0
-4.5670099 -2.8073802 0.77044201 0
1.7576925 4.9428954 1.347537 0
2.5346441 4.7755752 -0.33365434 0
2.4272346 4.8143749 0.52702284 0
1.1658012 5.0622454 1.5383871 0
-4.5649981 -1.8298962 2.2728703 0
-0.054842472 5.415132 -0.16533923 0
2.5876558 4.7563806 -0.19182175 0
0.049558759 5.3419576 0.90396321 0
2.2613726 4.8395376 0.90749049 0
-5.2768426 1.1510277 -0.43662947 0
1.7003167 4.963933 1.3524413 0
1.9838988 4.8987837 1.1946869 0
2.3178029 4.8372502 0.76948261 0
2.5885305 4.7603254 -0.053518295 0
2.4830456 4.8033571 0.35721159 0
-4.5894222 -2.813977 -0.61986434 0
0.49477851 5.2122035 1.3985519 0
0.36049449 5.247992 1.3033245 0
1.6423665 4.9831514 1.3571172 0
2.150975 4.8636889 1.0489187 0
2.478451 4.7794209 0.63005483 0
-4.5451269 -2.040817 2.1358652 0
2.5376539 4.7901282 -0.055787444 0
2.4984496 4.7844214 0.51092124 0
2.4817691 4.7967067 -0.47859329 0
2.4815331 4.7954774 0.49404824 0
0.19880557 5.294508 1.1524429 0
2.4790995 4.7827997 -0.62004232 0
0.22037482 5.2808371 1.2132728 0
1.2265681 5.0553684 1.5344112 0
2.2627563 4.8403306 0.93432117 0
2.2053304 4.8438354 1.0467465 0
2.3296537 4.8144917 0.90396869 0
2.4926515 4.775013 0.64268887 0
2.425251 4.7976542 0.72903347 0
0.57525563 5.1979384 1.4428172 0
1.5370879 4.9728866 1.5299993 0
-5.3013401 1.1517292 0.056349993 0
-4.5645709 -2.8066623 -0.85245311 0
-5.2746396 1.1509646 0.54825032 0
0.64108253 5.1695647 1.5216103 0
1.1022969 5.083921 1.5466204 0
1.7645152 4.9489746 1.3600101 0
-5.26651 1.1253419 0.67354012 0
-4.5641203 -2.6591849 1.2465563 0
0.28836167 5.259634 1.3098638 0
2.5904973 4.7691917 0.083444118 0
1.8484693 4.9218111 1.3558509 0
2.507462 4.7874622 0.52673173 0
2.3725195 4.8233433 0.76901388 0
-0.05659461 5.4194822 -0.33744657 0
0.049223065 5.3368959 1.0031142 0
2.4282908 4.8162031 0.63147342 0
0.79278266 5.1521111 1.5235314 0
1.814767 4.938354 1.3466301 0
0.42035425 5.2237782 1.4257302 0
-0.051590681 5.4070573 -0.50828242 0
1.0388751 5.0997844 1.5535407 0
-4.57658 -2.9089108 0.31020689 0
0.34491205 5.2374353 1.3985777 0
1.2867106 5.0503712 1.531183 0
0.51373291 5.2175841 1.4217739 0
0.048785806 5.3336926 1.0286679 0
-4.5810671 -2.8413985 0.67038929 0
0.94377053 5.1279674 1.5251827 0
-1.470489 -5.1358533 -0.98836029 0
-3.5808344 -3.9649777 -0.98689353 0
2.5909209 4.771101 0.22057819 0
1.5849056 4.9749131 1.5050063 0
-3.5816298 3.9654281 -0.98710465 0
-4.9065461 0.75957584 2.2082753 0
0.50533628 5.2126064 1.4504676 0
2.2601252 4.8301692 1.0456829 0
2.3436685 4.8140039 0.93271136 0
2.6431296 4.7484813 0.08418107 0
1.8713888 4.9228868 1.3433876 0
1.4073123 5.0246925 1.5212164 0
1.3470596 5.0397949 1.5266895 0
0.21553338 5.2703152 1.3164506 0
-5.2605286 1.1239443 0.78895092 0
1.7022283 4.9676266 1.4094493 0
1.160405 5.0658636 1.6005416 0
2.5902567 4.7681065 0.35743511 0
0.13054419 5.3110433 1.1621439 0
-4.5744333 -2.2331707 1.9140644 0
-4.569479 -2.33916 1.7963605 0
-4.5689912 -2.4213636 1.6855943 0
1.5259939 4.9968657 1.5116162 0
2.6945443 4.7238803 0.085203767 0
2.6393049 4.7323346 -0.4716813 0
-0.047203541 5.3961639 -0.68089259 0
1.0712068 5.0852666 1.6060891 0
1.4667228 5.0135298 1.5170388 0
-5.0863047 0.94385606 1.6817002 0
0.19753242 5.2841201 1.2762885 0
-4.9936571 0.85355151 1.9812291 0
2.3178136 4.8373227 0.90818524 0
2.5392933 4.7980547 0.35711038 0
-1.4752278 5.142025 -0.99044526 0
-4.5754957 -2.8375669 0.78739166 0
0.12011302 5.3016977 1.2187653 0
1.6428065 4.9655886 1.5020096 0
2.5914512 4.7734919 -0.33557224 0
2.6448388 4.7556982 -0.054509878 0
2.1698375 4.8541503 1.1609213 0
0.43499947 5.2253532 1.4579287 0
2.5377829 4.7907519 -0.47977358 0
2.5895886 4.7765503 0.32465744 0
2.5889983 4.7624345 0.49386334 0
-4.5700903 -2.4984603 1.5812497 0
0.78020799 5.1502514 1.5803649 0
1.9277838 4.9109449 1.341145 0
0.79982233 5.1343193 1.6225076 0
2.0959754 4.8808813 1.192852 0
0.90929008 5.1336064 1.5687551 0
1.3962096 5.0349154 1.5308802 0
2.1505032 4.859159 1.1896718 0
-0.057295322 5.4212227 0.50983679 0
2.4277909 4.8133802 0.76896393 0
1.2475294 5.0753789 1.5295949 0
-4.5859675 -2.9118204 -0.3879227 0
0.84443688 5.1448646 1.5752292 0
2.4241636 4.7929053 0.90489519 0
2.0131066 4.8947072 1.287194 0
1.9835634 4.8932767 1.3377626 0
2.5384338 4.7938991 0.49421549 0
1.8531458 4.9237242 1.4114993 0
0.36506486 5.2337875 1.4646215 0
2.5355012 4.7797203 0.63065481 0
2.6437716 4.7511916 -0.33362031 0
2.5357559 4.7809515 -0.6225251 0
-1.4026027 5.1711578 -0.9849304 0
0.14074838 5.283452 1.3237967 0
0.97228575 5.1286716 1.5642748 0
2.6456494 4.759119 0.22054911 0
2.1809595 4.8621488 1.1413605 0
1.2477814 5.0588288 1.5976624 0
1.7576746 4.9379005 1.4942598 0
1.4228846 5.0161767 1.5870776 0
0.88968933 5.1280379 1.6187463 0
-1.4044049 -5.1735764 -0.98573852 0
0.49447668 5.2105389 1.5230126 0
-4.5781059 -2.9093838 0.5412209 0
2.0148869 4.8820934 1.3504117 0
2.6680713 4.7429867 0.32502639 0
1.6942687 4.9492545 1.5345125 0
2.3726194 4.8239574 0.9075948 0
-5.195446 1.0493373 1.2777691 0
-0.05264473 5.4096746 0.67766309 0
2.5913792 4.7731671 -0.47839683 0
2.5073342 4.7865024 0.72899091 0
2.2617753 4.8293924 1.1381679 0
2.42487 4.7944441 0.93179703 0
2.6974802 4.7355294 0.2211051 0
0.71214068 5.1689773 1.5894513 0
2.4995248 4.7861662 0.77309561 0
2.6471062 4.7652693 -0.19529879 0
1.089661 5.0837655 1.6506114 0
2.48175 4.7966084 0.76837766 0
-5.2892585 1.1513833 -0.68861866 0
1.9324957 4.9197021 1.3558502 0
0.2928797 5.2462525 1.4725728 0
2.6984262 4.7392831 -0.19323063 0
2.2058086 4.847868 1.1886804 0
1.5091051 4.9998441 1.583127 0
-4.5733905 -2.7114222 1.2308927 0
0.006709218 5.365449 0.99873972 0
1.7003165 4.9639473 1.5012941 0
-4.5761924 -2.9087906 -0.62220168 0
1.5949516 4.9759059 1.577939 0
-4.5659561 -2.6124055 1.4591076 0
2.6997571 4.7445631 -0.054782987 0
2.3169451 4.8314447 1.0471349 0
2.039629 4.88484 1.3366985 0
-4.5646081 -1.938231 2.2846706 0
-3.5370736 4.0408311 -0.98687613 0
2.5898428 4.7782707 0.52677286 0
-5.2787814 1.1510832 0.79386723 0
-4.5751538 -2.8097773 1.0019493 0
2.5349422 4.7770176 0.76760674 0
-4.5781965 -2.8394244 0.90395308 0
-0.11620545 5.4525518 0.30932474 0
2.6981153 4.7380481 -0.33364677 0
-0.098546982 5.4367166 0.52293897 0
0.19666028 5.2770023 1.400358 0
2.6472664 4.7659469 0.35724938 0
-0.097780466 5.4485745 0.39417672 0
2.1662071 4.8474236 1.2892125 0
2.6702547 4.7523532 0.37315679 0
-3.5405993 -4.0428948 -0.98781943 0
0.64127445 5.1704741 1.6467564 0
1.8146719 4.9330392 1.4931211 0
0.97828436 5.1275692 1.6163826 0
1.334614 5.0537987 1.5954204 0
0.70472872 5.1679702 1.6319277 0
2.3387184 4.8301921 1.0338063 0
-4.5608091 -2.324635 1.9153376 0
0.64323115 5.1870341 1.5986557 0
2.5910218 4.7715564 0.63084614 0
-5.2724962 1.1267405 0.90395141 0
1.2424853 5.060298 1.6539903 0
1.8711765 4.9162989 1.4890163 0
2.3710346 4.8142014 1.0457487 0
0.047707438 5.3408203 1.1711946 0
-4.5757074 -2.6666741 1.362627 0
0.9436419 5.1274939 1.6508522 0
2.699286 4.7426934 0.35742807 0
2.4803112 4.7891116 0.90568817 0
-3.4762387 -4.1063781 -0.98254383 0
-0.099000216 5.4297061 0.65050435 0
0.22252429 5.2720432 1.440186 0
-4.5634212 -2.4944158 1.6947289 0
-0.11308956 5.4418244 0.54188025 0
1.6799462 4.9617882 1.5748997 0
-4.5827093 -2.1685371 2.0540128 0
0.57540929 5.1973796 1.6060269 0
2.3433075 4.8105383 1.1368291 0
2.7528927 4.7264686 0.083701611 0
-4.5701456 -2.9069164 0.77210808 0
2.6605463 4.7375669 0.63996363 0
2.7521901 4.7238393 0.22097743 0
0.31682599 5.2709498 1.4365749 0
-4.5695391 -2.8334696 1.0203459 0
0.34603381 5.2448263 1.5241172 0
2.6435652 4.7503214 0.63037694 0
-4.5704808 -3.0065174 -0.15525526 0
2.5927022 4.7791328 -0.62524593 0
2.6470079 4.7648554 0.49413085 0
-5.0850945 0.94360971 1.7950218 0
2.7542431 4.7315202 -0.054914236 0
0.21702707 5.2660913 1.4826224 0
1.9275028 4.9049053 1.4865594 0
-5.0992045 0.95001817 1.7557654 0
2.6710684 4.7535925 0.50626123 0
-4.5756254 -3.0081933 0.07741046 0
2.6448233 4.7556324 -0.62222993 0
0.048053384 5.3258605 1.2780693 0
1.5427481 4.9870515 1.6588571 0
1.3947815 5.0310211 1.6571884 0
2.4252322 4.7989368 1.0448022 0
2.0127282 4.8939548 1.4155064 0
1.8483151 4.9131956 1.5655704 0
2.6993542 4.7429643 -0.47735715 0
-1.3439054 -5.2185693 -0.98586237 0
2.7542734 4.7316337 -0.19428104 0
2.670001 4.754868 0.52658355 0
2.3154681 4.8214493 1.1864038 0
2.5339875 4.7724009 0.90496469 0
2.1505291 4.8594074 1.3331375 0
0.050843954 5.3557014 1.1545386 0
-4.5650463 -2.5159643 1.6891513 0
-0.15438437 5.4743357 -0.17670983 0
2.2624338 4.8475046 1.1899853 0
2.0984247 4.8792024 1.3506641 0
2.5027604 4.7914166 0.90397072 0
2.0962846 4.8843279 1.337656 0
2.5070105 4.7840691 0.93179405 0
0.50513411 5.2133026 1.6152554 0
-4.5683532 -2.1381388 2.14663 0
2.8060374 4.7088008 0.083959103 0
2.7002735 4.7466121 0.49404228 0
-0.054622412 5.4145851 -0.86394966 0
2.4783585 4.7789388 1.0432143 0
1.7645124 4.9481931 1.5721982 0
2.3349583 4.8236794 1.1634338 0
0.60900474 5.1972933 1.6407859 0
-4.5702515 -2.906949 -0.85914826 0
-0.15766716 5.482162 -0.0042823553 0
-0.056522131 5.4193025 0.84723115 0
2.5902562 4.7810674 0.72931337 0
-0.15745521 5.481657 0.16815901 0
-4.5783963 -3.0090957 0.30964696 0
1.9837607 4.8965168 1.4851236 0
0.79773188 5.1726289 1.6519032 0
2.8067267 4.7112393 0.22085631 0
2.6677828 4.7412119 0.72787189 0
2.7552216 4.7351804 -0.33589709 0
2.1803248 4.8537164 1.3475182 0
-5.2751083 1.1273508 1.0193005 0
-4.5755386 -3.0081649 -0.39028543 0
2.6983838 4.7391138 0.63048851 0
2.5924428 4.7779632 0.76874173 0
2.3701229 4.8085885 1.1855614 0
2.7515488 4.7409921 0.32481682 0
2.8078928 4.715364 -0.19404817 0
-1.3520458 5.2298245 -0.98958421 0
1.8575187 4.9330726 1.5406272 0
2.5881126 4.7584405 0.90468121 0
2.6440253 4.7522626 0.76755881 0
-3.4978924 4.1194725 -0.98838592 0
-4.5551147 -2.0436575 2.2943094 0
-5.289609 1.1513933 -0.94193685 0
-0.09967804 5.419219 0.90396512 0
-4.5686021 -3.0059056 0.54157317 0
2.7567933 4.7410603 0.35720348 0
0.12039185 5.3006234 1.448529 0
-4.5746746 -2.666007 1.4780903 0
2.7508931 4.7189879 -0.61965454 0
0.13881993 5.2886662 1.4936652 0
2.4256115 4.800693 1.1367464 0
2.7006588 4.7481403 -0.62383235 0
-0.098198414 5.4421072 0.77701449 0
2.810782 4.7255836 -0.056052148 0
-0.15886593 5.4850202 -0.35320622 0
2.7501097 4.7328687 0.52643907 0
1.0910625 5.0883932 1.7779181 0
0.43188024 5.2355456 1.6265764 0
0.19704366 5.2801309 1.5258405 0
-0.15974879 5.4871249 0.33981919 0
2.2070293 4.8581572 1.3342946 0
0.51269519 5.2227888 1.6491821 0
0.0076425076 5.3620553 1.2294912 0
2.5013602 4.7891445 1.0349271 0
2.829231 4.7068925 0.32515609 0
0.7915554 5.1470237 1.7743034 0
0.49708533 5.2249298 1.6503685 0
2.0400071 4.889863 1.4843688 0
2.861469 4.6990576 0.083425045 0
-0.051811934 5.4076071 1.015743 0
-4.5752954 -2.8374286 1.1371911 0
1.9321411 4.9086943 1.5651038 0
2.6418211 4.7429576 0.90430212 0
2.5342336 4.7735915 1.0441141 0
1.336601 5.0246153 1.8082399 0
-5.2682838 1.1257564 1.1344478 0
0.36155438 5.244698 1.6345596 0
2.489727 4.7702675 1.1649923 0
2.8101177 4.7232342 -0.33648741 0
0.34564114 5.2422385 1.649272 0
2.8619552 4.7006879 -0.19420433 0
2.6710918 4.7536283 0.7715925 0
-0.15720725 5.4810653 0.51146591 0
2.4254827 4.8003511 1.1857839 0
2.8631897 4.7048278 -0.055399656 0
2.7574906 4.7436695 -0.48088807 0
2.2617779 4.8425803 1.3323054 0
2.5889349 4.7721267 0.93175638 0
2.6608121 4.7379718 0.90397179 0
2.6987758 4.7406688 0.76771092 0
-0.1572659 5.4812055 -0.52942324 0
2.1728797 4.8597875 1.4195919 0
-5.1904869 1.0492663 1.5240307 0
0.9442153 5.1296039 1.7777643 0
2.8109396 4.7261415 0.35720396 0
2.8610604 4.6976871 -0.33448064 0
1.2437892 5.0641966 1.7817502 0
1.3924927 5.0247788 1.7837212 0
-1.2861013 5.2674537 -0.98754334 0
1.7032759 4.9700441 1.6653244 0
2.7581477 4.7461276 0.49428809 0
2.8631296 4.7046261 0.22036457 0
-3.4437513 -4.1890144 -0.9861424 0
2.2629228 4.8421874 1.3467736 0
-5.2890806 1.1513782 1.0412135 0
-4.5682011 -2.4973142 1.8112381 0
-1.2872648 -5.2691116 -0.98808622 0
2.0958476 4.879456 1.4828196 0
0.41627204 5.2428269 1.6567926 0
-4.5806937 -2.8114078 1.235137 0
-0.11802912 5.4588308 0.77545226 0
-4.5793824 -3.0094171 -0.62751067 0
2.4790957 4.7827802 1.1843164 0
1.2479962 5.0562248 1.8170528 0
0.32168579 5.2497578 1.6620893 0
2.6672432 4.7378888 0.92984629 0
2.0144742 4.8974247 1.5448916 0
2.8096302 4.7215099 0.49411201 0
2.8627241 4.7032657 0.35733521 0
0.048972964 5.3356938 1.4043272 0
1.0702065 5.0942469 1.8297505 0
2.9156168 4.6846018 -0.054908633 0
1.1592907 5.077363 1.8237431 0
0.28837442 5.2595963 1.6444905 0
2.7561884 4.7387981 0.63123393 0
2.0154219 4.8935871 1.5628066 0
-3.4496212 4.1926794 -0.98773992 0
1.5951108 4.969552 1.7927628 0
-4.5714316 -2.4219322 1.9226725 0
-4.5806284 -2.9101653 1.0049479 0
-4.581924 -2.2814889 2.0655484 0
1.5436157 4.989223 1.7871499 0
0.64480472 5.1872005 1.7754257 0
2.829958 4.7106795 0.52631116 0
2.8111532 4.7268968 -0.48043936 0
2.1510582 4.8644881 1.4802547 0
2.8071733 4.7128196 0.63062966 0
2.6969802 4.7335448 0.90478766 0
1.4226145 5.0212054 1.806247 0
0.97984171 5.1151986 1.8370118 0
0.041401267 5.3571496 1.3440251 0
-4.9625711 0.81690663 2.2838819 0
2.3173344 4.8340797 1.3321459 0
-0.15658903 5.4795918 0.68312347 0
2.3407211 4.8336611 1.2943251 0
-4.5720611 -2.2326889 2.1524701 0
-4.5705099 -2.6633148 1.5936019 0
2.2055712 4.8458652 1.476912 0
2.861939 4.700633 0.49401665 0
0.49430633 5.2095985 1.7742772 0
1.6800616 4.9510269 1.7881355 0
2.8085532 4.717701 -0.62341869 0
2.841387 4.7125602 0.50195885 0
-4.5801678 -3.0188985 0.66564286 0
0.88898456 5.1330557 1.8438673 0
2.9171968 4.6896353 -0.19509077 0
2.5903811 4.7686677 1.0452151 0
-0.15627027 5.4788318 -0.70811892 0
2.3707168 4.8122444 1.3290529 0
2.3444233 4.8212533 1.3447187 0
2.9098411 4.689611 0.32517684 0
2.8493459 4.7239552 0.36597657 0
-4.5874386 -2.7153397 1.4666581 0
2.6420593 4.7439628 1.0432305 0
-4.5766506 -2.838361 1.2542419 0
2.5085421 4.7955709 1.1373942 0
2.7547572 4.7334433 0.76832998 0
2.7516699 4.7416759 0.72863173 0
-4.5700912 -2.6134949 1.6948004 0
2.859488 4.6924148 0.6303674 0
-3.3898797 -4.25842 -0.9842242 0
0.19651461 5.2758141 1.6511006 0
2.8641784 4.7081428 -0.47969592 0
-0.050006151 5.4031229 1.1860533 0
1.5087621 5.0085521 1.8024039 0
2.969121 4.6679721 0.083199263 0
1.6958401 4.9528818 1.7912536 0
2.0982666 4.8766055 1.5603743 0
-5.2715139 1.1265111 1.2502413 0
2.9204278 4.6999297 0.081842542 0
2.9176416 4.6910524 -0.33646595 0
2.9195843 4.6972413 0.2198689 0
1.8481821 4.9057641 1.7778239 0
1.8604121 4.9392581 1.6704509 0
-4.57582 -3.0157201 0.78498924 0
-4.5818019 -3.0102048 0.7743299 0
1.2384557 5.0482502 1.9067416 0
0.21229327 5.2794771 1.6561847 0
0.70446634 5.1695151 1.8587151 0
2.841059 4.71209 0.63623261 0
-5.3909736 1.2565391 -0.1990518 0
-4.5813837 -3.1106715 -0.15904421 0
0.051663637 5.3305764 1.509831 0
2.9091568 4.6863036 0.52616417 0
2.9193194 4.6963983 0.35716081 0
0.6116339 5.1830454 1.8655295 0
2.6668797 4.7472129 1.0361736 0
2.172157 4.858448 1.5493741 0
2.9170642 4.6892133 -0.47909003 0
2.5364029 4.78408 1.1867423 0
1.0916127 5.09021 1.9058757 0
2.8301177 4.7115111 0.72782326 0
-4.5759711 -3.0083058 -0.86617529 0
-4.5795445 -3.1100433 0.30907023 0
0.79517055 5.1643143 1.8541727 0
0.048350811 5.3290405 1.5296597 0
-1.2275507 5.3155875 -0.98923469 0
-5.2553787 1.1227411 1.3647099 0
2.4784863 4.7796054 1.325973 0
-4.5881581 -3.1129858 0.075049162 0
-1.2279949 -5.3162403 -0.98944616 0
-0.15584946 5.4778285 0.8552711 0
1.7645026 4.9454894 1.7867875 0
-5.4021144 1.2570179 0.050874472 0
2.2619653 4.843987 1.4783003 0
-1.1509063 5.3366547 -0.98249125 0
2.335995 4.8254747 1.4242215 0
1.5377759 4.9746084 1.9131322 0
-0.097681046 5.4501104 1.0311041 0
2.6971822 4.7343469 1.0438242 0
2.4261703 4.8054047 1.343657 0
0.34609437 5.245225 1.7760534 0
1.3908157 5.0202055 1.9112506 0
-4.5698948 -2.8337142 1.3708322 0
2.427156 4.8097973 1.330677 0
-5.087502 0.95001811 2.0027356 0
-0.24146986 5.5357971 0.30730736 0
2.8651547 4.7114162 -0.62603188 0
2.9147308 4.6817789 -0.62232554 0
-5.0881972 0.94998187 2.0028961 0
2.8103707 4.7241292 0.76883435 0
2.180836 4.8605084 1.5583427 0
-4.5650334 -2.9053319 1.2366316 0
-3.4068799 4.2693768 -0.98889351 0
-1.1531854 -5.3401084 -0.98360014 0
2.8382709 4.7080984 0.77028906 0
0.21849346 5.2885342 1.674047 0
2.0134144 4.895319 1.6742868 0
2.9193449 4.6964798 0.49424064 0
-4.5739326 -3.0143409 0.90395582 0
0.13665295 5.2945256 1.6668711 0
2.7551422 4.7348833 0.90674162 0
0.79365909 5.1557446 1.9030657 0
-4.5654836 -2.1600456 2.3103991 0
2.9751761 4.6863394 -0.19740665 0
-5.0124068 0.85328311 2.2360954 0
0.94464946 5.1312013 1.9056535 0
-4.5841799 -3.1116269 -0.39531261 0
2.5901792 4.7805457 1.1369617 0
2.9763269 4.6898298 -0.057803035 0
-0.15706873 5.4807358 -0.89078093 0
-0.11869216 5.4611135 1.0097785 0
2.5321586 4.7635589 1.3247628 0
2.5005958 4.7879038 1.2973075 0
0.12217009 5.2937756 1.679611 0
0.42322028 5.2104039 1.8802304 0
-4.5622711 -2.3249538 2.1549971 0
1.9317844 4.8976245 1.7764287 0
2.3696415 4.8056235 1.4723482 0
2.7510018 4.7379055 0.93107426 0
-5.3944211 1.2566873 -0.45152158 0
2.8064933 4.7104135 0.90551639 0
2.6678596 4.7416835 1.133708 0
0.64375913 5.1822462 1.9017076 0
2.3169675 4.8315959 1.4770622 0
3.026289 4.661859 -0.056511402 0
2.2621417 4.833478 1.5544055 0
2.59131 4.7728558 1.1868455 0
2.9764571 4.6902251 0.21930599 0
-4.5672817 -3.0054755 1.0063608 0
-0.26491761 5.5520639 0.16255093 0
-5.2862344 1.1512967 1.2891831 0
0.51514304 5.2105117 1.8759565 0
-4.5792871 -3.1099553 0.5423249 0
2.971684 4.6757464 0.49417591 0
-4.5728202 -2.3916807 2.0754194 0
-0.25111485 5.543129 0.38607955 0
-0.15043139 5.4649119 1.026855 0
-4.5715523 -2.8087173 1.4683139 0
-4.5707884 -2.5173895 1.9276843 0
-4.5738974 -2.6655047 1.7111192 0
-4.5717816 -3.1073914 -0.63128006 0
3.0117064 4.6653771 0.36155844 0
-0.26653576 5.5557723 -0.19132036 0
2.9768078 4.6912889 -0.34003246 0
-5.4143133 1.257542 0.30064654 0
0.49419475 5.2089834 1.901228 0
1.8566208 4.9311533 1.7988524 0
-0.097999811 5.445179 1.1581497 0
-4.5703239 -3.011703 1.0227642 0
0.0047025681 5.372746 1.4642968 0
3.0297232 4.6717963 0.081186175 0
2.9103661 4.6921492 0.7276504 0
2.9775107 4.6934209 0.35689914 0
2.6449056 4.7559791 1.1859765 0
2.9206614 4.7006736 0.63171959 0
2.8376961 4.7072754 0.90397394 0
2.8660455 4.7144032 0.7693758 0
2.5077434 4.7895727 1.342783 0
3.0294161 4.670908 -0.19783902 0
3.0301971 4.6731677 0.21925199 0
-0.2510674 5.5444455 0.51595163 0
-5.2552042 1.1227005 1.4808207 0
-3.3554926 -4.340518 -0.98796391 0
-0.26749086 5.557961 0.3379426 0
2.587703 4.7565937 1.3258774 0
2.9713211 4.6746459 0.63123417 0
-0.24367523 5.5430036 0.54422414 0
2.6702266 4.7523108 1.1688027 0
2.9946828 4.6914878 0.32483447 0
-4.5667801 -2.8315721 1.4880645 0
3.0290232 4.6697702 -0.33931607 0
-0.27280855 5.5701461 -0.015322566 0
0.19728851 5.2821283 1.7787409 0
-0.052396297 5.4090576 1.3601015 0
-5.1841488 1.0491756 1.7724152 0
2.3341537 4.8222857 1.5549178 0
2.1711755 4.8566298 1.6797173 0
-5.4076619 1.2572563 0.55063725 0
2.5868759 4.7581906 1.3396041 0
2.0075665 4.8836975 1.8026702 0
2.8312488 4.7174034 0.93058443 0
0.34451938 5.2348485 1.9014037 0
3.0151086 4.6699624 0.49727893 0
3.0219822 4.6493988 0.63082993 0
-4.5710239 -3.1071324 0.77540183 0
2.9781981 4.6955061 -0.48479623 0
-4.5735803 -2.7114754 1.7004392 0
2.4264991 4.8060884 1.4750211 0
-0.26358819 5.5490174 -0.54967266 0
-3.3629794 4.3454962 -0.99003959 0
2.9194546 4.6968288 0.76927304 0
2.9743712 4.6838975 -0.62776077 0
1.0715932 5.0817976 2.0519061 0
2.7490106 4.7266641 1.1335576 0
2.9932504 4.6850305 0.52645004 0
0.048766017 5.3334804 1.6569312 0
-0.27120304 5.5664673 -0.37206602 0
-5.3964591 1.2567749 -0.70618427 0
2.7574224 4.7434134 1.0476122 0
-0.098626375 5.4354873 1.2849076 0
3.0851045 4.6592164 0.080608368 0
2.345192 4.8286338 1.5550253 0
2.4799953 4.7874665 1.4727154 0
-1.0965474 -5.3912644 -0.98682809 0
-4.5650244 -2.6597698 1.8269773 0
-0.25095439 5.5475955 0.6453774 0
2.8659496 4.7140813 0.90798521 0
3.0336494 4.683156 0.35675538 0
2.7011166 4.7499571 1.187434 0
2.5031848 4.7921052 1.4295464 0
1.2480634 5.0554094 2.0403066 0
-0.24050045 5.53263 0.78099298 0
2.8371933 4.7065554 1.0376153 0
2.809546 4.7212124 1.0464106 0
2.532485 4.7651377 1.4695978 0
2.7519021 4.7227626 1.1847985 0
2.9717205 4.6758575 0.76892698 0
2.0159521 4.9049788 1.7788901 0
3.0855572 4.6604676 0.21891212 0
-0.26995659 5.563611 0.51356494 0
2.0980878 4.8736687 1.7726889 0
1.7029924 4.9693899 1.9241896 0
-5.3948016 1.2567036 0.80014181 0
-3.3018994 -4.4100285 -0.98669147 0
-1.100908 5.3980837 -0.98899698 0
-4.5755591 -3.2101798 0.30855894 0
1.1591161 5.0791631 2.0487752 0
3.1368394 4.6364222 -0.058191717 0
-3.3031573 4.4108911 -0.9870435 0
3.0852289 4.6595597 -0.3410877 0
1.3353622 5.04281 2.0351839 0
-0.1178844 5.4583325 1.24506 0
3.0334835 4.6826763 -0.48607278 0
3.0856383 4.6606917 0.35682249 0
3.0885415 4.6687179 -0.20063436 0
2.9920149 4.67946 0.72789681 0
-4.587203 -3.2143445 0.073343277 0
-4.5630746 -2.2718589 2.3232617 0
0.047352552 5.3417392 1.6871655 0
-5.1159315 0.96270865 2.0697136 0
0.97983778 5.1152296 2.0636988 0
3.0901136 4.6730642 -0.060421467 0
-4.5802011 -3.0189226 1.1422718 0
-4.5869107 -3.2142398 -0.1624912 0
3.0342522 4.6848998 0.49467671 0
2.6681027 4.7431808 1.3392265 0
0.88922024 5.1313772 2.0711927 0
3.0757172 4.6747823 0.32480252 0
-4.5810313 -3.1105511 -0.87339878 0
3.0304127 4.6737914 -0.62999868 0
2.4266477 4.8094268 1.5530677 0
2.9119179 4.6996527 0.93044138 0
-0.04600811 5.3931956 1.5315537 0
2.9202094 4.6992335 0.90819144 0
3.0843716 4.6571894 -0.48444241 0
0.79802108 5.1459341 2.0786238 0
3.140017 4.6448283 0.080122471 0
-0.26773143 5.5585122 0.68921757 0
-4.563848 -2.5033638 2.0858164 0
1.5087497 5.0088673 2.0236087 0
0.22273099 5.2711978 1.9042592 0
3.0849257 4.6587219 0.49454081 0
2.6731229 4.756722 1.3019469 0
0.3172518 5.269093 1.8987565 0
3.0731659 4.6640105 0.52640414 0
-0.25083876 5.5508213 0.77466786 0
3.1400833 4.6450038 -0.19994324 0
2.6470013 4.7648263 1.33079 0
-3.2407336 -4.4740133 -0.98354471 0
3.0254598 4.6839128 0.63228083 0
0.19642544 5.2750864 1.9051242 0
-4.5838003 -3.2131274 -0.39938194 0
2.8071733 4.7128186 1.1857834 0
1.5946338 4.9885941 2.0174382 0
1.4218709 5.0350456 2.0316982 0
-4.5669937 -3.009269 1.2606087 0
-4.5772696 -2.4232931 2.1647155 0
2.8653445 4.7120533 1.0474825 0
-0.15734029 5.4813828 1.2039814 0
1.8580387 4.9341846 1.9301388 0
-4.5769396 -2.6152992 1.9346631 0
2.9154148 4.683959 1.0455484 0
3.1392727 4.6428595 0.35678971 0
2.830996 4.7160878 1.1341074 0
2.1810236 4.8630009 1.7715325 0
-1.033169 5.4322228 -0.9870702 0
-4.5770869 -3.2107263 0.54286921 0
2.5892189 4.7634277 1.4723353 0
2.4986508 4.7847481 1.5610044 0
-4.5797148 -3.0095253 1.2422247 0
3.0200369 4.6766043 0.76841378 0
-3.2478986 4.4790792 -0.98557043 0
3.1927905 4.6245532 -0.059307218 0
2.7001486 4.7461157 1.3295074 0
2.1713707 4.8569918 1.8112273 0
-5.2692966 1.125993 1.5996168 0
3.1528084 4.6421471 0.32503641 0
1.6798329 4.9723396 2.0126748 0
-4.5785375 -2.9095173 1.4739904 0
3.1923115 4.6233397 0.21875405 0
3.19275 4.6244512 -0.19991177 0
-4.5790234 -2.839993 1.6083808 0
2.5075746 4.7883062 1.5509591 0
3.1427412 4.6520357 -0.34359378 0
-0.2724762 5.5693846 -0.73789394 0
1.7645203 4.9504056 2.0067163 0
-1.0381839 -5.4403186 -0.98962188 0
-0.25095272 5.5476432 0.90396845 0
2.7484527 4.7235141 1.3382857 0
2.9909699 4.6747484 0.92976022 0
2.0092902 4.8871231 1.9346058 0
-5.4438791 1.318942 0.5427196 0
0.70312202 5.177434 2.0910318 0
-4.5796118 -3.2042179 0.66047251 0
0.61083531 5.1873736 2.0979676 0
0.049209356 5.338222 1.7852964 0
3.1909807 4.6236687 0.35448766 0
3.0135794 4.6679015 0.90397596 0
-4.5711274 -2.8085921 1.7051816 0
2.3406258 4.8334956 1.6884933 0
3.1406493 4.6465015 0.49467814 0
-4.5799866 -3.2117634 -0.63796282 0
3.0327513 4.6805577 0.7710247 0
3.1411438 4.6478095 -0.48695785 0
-0.24053574 5.5327454 1.0188308 0
3.0263252 4.6619639 0.90792489 0
2.8446288 4.7172012 1.1720068 0
-0.26414275 5.5502887 -0.91920233 0
2.6677177 4.7484894 1.4343591 0
3.088212 4.6678071 0.63289678 0
2.7539678 4.7304897 1.3291383 0
-0.097576141 5.451735 1.4140537 0
0.51737654 5.1993089 2.1058292 0
2.263267 4.8460259 1.7691877 0
-0.2515018 5.532342 1.0328383 0
-5.2954454 1.1515604 1.5409989 0
3.1485939 4.6675191 0.21741962 0
3.1984086 4.6387973 0.078774214 0
-4.5605917 -3.3071256 -0.16312033 0
2.9102726 4.6916981 1.1330738 0
-5.4086576 1.2572989 -0.96579969 0
2.9788783 4.6975694 0.91020346 0
3.1950431 4.6302648 0.35664415 0
3.19154 4.6213832 -0.48545808 0
1.848701 4.9347658 2.002768 0
3.0743554 4.6690326 0.7283287 0
0.12035465 5.3007674 1.9166551 0
3.1387753 4.6415439 -0.63174999 0
-5.2532616 1.1222466 1.7147822 0
2.6452181 4.7572989 1.4740887 0
-4.5923595 -3.1144211 1.0114589 0
-0.27152872 5.5672135 0.86644244 0
3.0909975 4.6755075 -0.63584483 0
1.9321582 4.9092264 1.9964869 0
0.0030044317 5.3789215 1.7015824 0
3.0856032 4.6605949 0.7709198 0
-0.96857643 -5.4712377 -0.98698759 0
2.865891 4.7138848 1.1891661 0
-4.563623 -2.5156109 2.1669481 0
3.1408226 4.6469603 0.63282847 0
-4.558969 -2.7074008 1.9362235 0
2.3276646 4.8110466 1.8171604 0
-0.37930679 5.6302938 0.15636802 0
-4.5708551 -3.0120916 1.3805435 0
-0.38046432 5.6328459 -0.024163365 0
-5.4031849 1.2570639 1.0515211 0
3.1554863 4.6527719 0.52655482 0
-4.5820351 -3.2060981 0.78221047 0
2.6978831 4.7371278 1.4721892 0
-0.37562537 5.6221762 -0.38685119 0
-4.5804257 -3.2119205 0.77767944 0
-4.5706959 -2.8342655 1.7260768 0
2.5893869 4.7751846 1.5506454 0
3.1999388 4.6426768 -0.3459022 0
-3.1983838 4.55125 -0.98600042 0
2.3450291 4.8270698 1.7666526 0
-5.0919785 0.94998187 2.2572312 0
2.0152075 4.8889842 1.9919429 0
-4.5687175 -3.2077327 -0.87737393 0
-0.97290349 5.4784513 -0.9892416 0
2.8393607 4.7096586 1.3057435 0
-0.37452579 5.6323943 0.30500305 0
3.1974735 4.6364264 0.49487138 0
3.2535558 4.6236815 0.078198552 0
-3.2026567 -4.5543637 -0.987221 0
-4.5739231 -3.1998043 0.90395904 0
-0.89588189 -5.4963093 -0.98287344 0
-5.4882088 1.3644812 0.046085954 0
-0.38316274 5.6387949 -0.20645565 0
2.097424 4.8627725 1.9861112 0
3.193119 4.6253862 -0.6329571 0
-0.11751556 5.4570627 1.4824142 0
3.1527195 4.6417937 0.72791719 0
-0.15879726 5.4848561 1.3815928 0
-5.4614878 1.3235924 0.66250193 0
3.254065 4.6249204 -0.20360869 0
3.25559 4.6286306 -0.062652349 0
2.8305912 4.7139783 1.3391614 0
2.8113666 4.7276516 1.3320203 0
-0.047090054 5.3958821 1.7099471 0
-4.5680761 -2.3891709 2.3389516 0
3.0728498 4.6626768 0.93033195 0
2.9792502 4.6986971 1.0508676 0
-0.097861767 5.4473152 1.5421004 0
3.2055166 4.6421275 0.49073958 0
0.41810632 5.2342677 2.1203899 0
3.0200233 4.6765862 1.0395384 0
-0.26832676 5.5598764 1.0432701 0
3.0857606 4.6610293 0.91024995 0
2.1711102 4.8565087 1.9435863 0
-0.38412666 5.6409206 0.33579195 0
3.0289903 4.6696749 1.0490322 0
-4.5681109 -3.0057456 1.4770331 0
3.2562354 4.6302004 0.21716905 0
2.9220881 4.7052193 1.190752 0
2.5028775 4.7916064 1.6951241 0
-4.5836115 -3.315733 0.30779409 0
-4.5914903 -3.3186791 0.071253777 0
3.0056994 4.6572814 1.1741273 0
0.32354283 5.2416596 2.1278105 0
-4.5719166 -3.1074374 1.2451215 0
2.6695824 4.7522902 1.5486364 0
3.3059893 4.6017165 0.078196168 0
3.1428628 4.6523576 0.7719816 0
3.2377484 4.6402926 0.32469511 0
3.1977162 4.6370416 0.63341773 0
-5.1100779 0.95001817 2.2620811 0
2.99211 4.6798887 1.1337616 0
-5.4991708 1.3651096 -0.20898187 0
-0.37421107 5.6314158 0.54637897 0
2.9730353 4.6798458 1.1890903 0
2.6696556 4.751441 1.5684528 0
-5.4964442 1.3649533 0.29912078 0
-0.25101781 5.5458279 1.1624777 0
-0.90477586 5.5116296 -0.98762012 0
3.2564759 4.630785 0.35623503 0
-5.4863601 1.3643754 -0.46345854 0
-4.5719337 -3.1982603 1.0254104 0
3.2045553 4.6409068 0.62880719 0
2.8658175 4.7136388 1.3324199 0
3.2536545 4.6239219 -0.49135906 0
-4.5716672 -2.626061 2.1011753 0
3.2580552 4.6346273 -0.34867108 0
2.5063648 4.7792234 1.7600703 0
2.7559147 4.7377739 1.4762647 0
-5.4463701 1.3195999 0.90395761 0
0.049716473 5.3436451 1.9149995 0
-4.5886106 -3.3176024 -0.40434331 0
3.1944613 4.6287899 0.77168441 0
2.4277115 4.8183956 1.7667751 0
2.1801813 4.8518124 1.9846878 0
-4.5637503 -2.8294876 1.8445206 0
3.1391635 4.6425705 0.91039872 0
-0.38177919 5.635745 -0.57441485 0
-5.4653168 1.3246038 0.78320324 0
-4.5730844 -3.2092946 1.0126064 0
3.2364378 4.6353898 0.52661622 0
-0.40945935 5.6510282 0.37632751 0
-5.1989398 1.0493873 2.0286272 0
-0.82925987 -5.5313292 -0.98217022 0
3.30969 4.6103654 -0.20489079 0
-5.2564278 1.1229863 1.8337784 0
3.3070071 4.604095 -0.34687877 0
-0.38501048 5.6428695 0.51564538 0
3.3117375 4.61515 -0.063792706 0
-0.24120188 5.5349221 1.2583995 0
3.1984184 4.6331134 0.766698 0
3.3079545 4.6063094 0.35628152 0
3.2515206 4.6187315 0.63358104 0
2.7494082 4.728909 1.5467529 0
-0.37902904 5.6296806 0.6949966 0
2.8398812 4.7104039 1.4404316 0
3.3149889 4.6090841 0.32486284 0
-4.5775046 -2.9091973 1.7120242 0
2.9117644 4.6989107 1.3393347 0
2.2617981 4.829648 1.9805665 0
-5.3934851 1.2566471 1.3028064 0
2.8099368 4.7225947 1.476181 0
-3.1574583 4.6299591 -0.98921132 0
-4.5913534 -3.3186278 0.54375005 0
3.2597818 4.6388273 0.49531662 0
3.0288258 4.669199 1.1905985 0
3.3145685 4.6217661 0.21639407 0
3.0712476 4.6559124 1.133064 0
3.3635664 4.5912814 0.077018142 0
3.3623281 4.5884976 -0.20505095 0
-5.1040092 0.95938414 2.3304515 0
-0.25129032 5.5382376 1.2915521 0
-0.26584554 5.5541902 1.2213445 0
-3.1594839 -4.6314802 -0.98979616 0
-5.499537 1.3651305 0.55233324 0
2.8269291 4.6949005 1.5429869 0
-5.2803669 1.1511286 1.7915394 0
2.6607044 4.7378078 1.7006543 0
3.3126571 4.6008363 0.52638745 0
3.2554233 4.6282248 -0.63989949 0
3.3100533 4.6112146 0.4952116 0
-4.588603 -3.0250638 1.5032353 0
2.9223347 4.7060046 1.334553 0
-4.5629745 -2.8061924 1.9433959 0
-0.40938592 5.6612816 0.5080229 0
-4.5739746 -3.1998444 1.147114 0
3.0897689 4.672111 1.0526056 0
-0.3818903 5.6359897 -0.76221228 0
3.3054328 4.6004157 0.63378882 0
-0.84019136 5.5507951 -0.98815238 0
2.3335173 4.8211837 1.9526939 0
3.2367373 4.6365104 0.72875583 0
2.8633051 4.7052135 1.4756975 0
-4.5918589 -3.3188169 -0.64555347 0
0.0072622299 5.3634381 1.937376 0
3.3665023 4.5978794 0.21645284 0
2.5883913 4.7684479 1.760241 0
3.0108564 4.6642318 1.3101754 0
3.3127108 4.617425 -0.49524987 0
0.22012985 5.2818394 2.1446738 0
-3.0932803 -4.6912079 -0.98599803 0
-0.40955472 5.6377316 0.77272689 0
-0.097414017 5.4542422 1.6722383 0
-4.5805855 -2.6162601 2.1780362 0
3.1577396 4.6617131 0.93201351 0
0.12452757 5.2846961 2.1516767 0
2.9748399 4.6853199 1.3337197 0
3.3085303 4.607655 -0.64032114 0
-4.5815535 -3.3149636 0.77959013 0
-0.37736201 5.6412086 0.7885704 0
3.2544847 4.6259413 0.77341509 0
2.9910476 4.6750989 1.3382783 0
-0.40940475 5.658658 0.64036632 0
-0.16066933 5.4893198 1.5621445 0
-0.11375499 5.4441147 1.7199516 0
-4.5680704 -3.4134455 0.30743873 0
3.0841439 4.6565604 1.1918676 0
3.3820605 4.5891027 0.34575844 0
3.3934004 4.582706 0.32492328 0
3.3673706 4.5998311 0.35597026 0
3.204623 4.6409926 0.90397871 0
-4.5639377 -2.503413 2.352484 0
-5.4616528 1.3236361 1.0246248 0
-3.0996366 4.6961246 -0.98785329 0
2.5060055 4.7966824 1.8301568 0
-0.76755357 -5.5752778 -0.98448694 0
-4.5784445 -3.4174945 0.070044041 0
-0.38128614 5.6346574 0.87573731 0
2.9166918 4.6880264 1.4754798 0
3.3732047 4.6129432 -0.06656301 0
3.1505044 4.6330051 1.1326425 0
-5.4437895 1.3189182 1.1445615 0
3.1447623 4.657383 1.0534391 0
-4.5755086 -3.3127034 -0.8856231 0
3.3658571 4.5964293 -0.49571478 0
3.3705614 4.6070018 -0.3523379 0
-5.5068259 1.3655483 -0.7245059 0
3.1950922 4.6288896 1.0411336 0
3.3138688 4.6051221 0.72824156 0
3.2338471 4.6256981 0.93063712 0
3.2030141 4.6504731 0.9141283 0
3.3824022 4.5895119 0.48580694 0
3.1365891 4.6357598 1.1916115 0
-4.572629 -3.1987996 1.2689025 0
3.3923769 4.5792742 0.52641416 0
3.4244967 4.5871539 -0.066280603 0
3.4247355 4.5876708 0.075095296 0
2.3455782 4.8323417 1.9834504 0
-0.77399468 5.5871429 -0.98810434 0
-4.5853262 -3.0226686 1.6239619 0
3.1966634 4.6343718 1.0530009 0
3.4217024 4.5811081 0.35587621 0
-0.37165046 5.6234579 1.0298386 0
-4.5796704 -3.4179728 -0.40771669 0
-3.0371265 4.7583632 -0.98537409 0
-4.5929375 -3.4231513 -0.1693871 0
3.0701194 4.6511488 1.3373802 0
3.0318387 4.677917 1.3363101 0
3.4233308 4.5846314 -0.35261458 0
3.2559161 4.6294236 0.91415751 0
2.4259274 4.8033566 1.9781146 0
-0.38393927 5.6405072 -0.95433855 0
-4.5697713 -3.3105581 1.0153775 0
-0.49825478 5.7102423 0.14994907 0
-4.5710354 -3.0066981 1.7165661 0
-0.23973584 5.5301313 1.4990368 0
3.312609 4.6171865 0.77467585 0
2.8482571 4.7223964 1.5773532 0
2.9726567 4.6786971 1.4776933 0
-4.5851502 -3.2136102 1.250958 0
3.420804 4.579165 0.49548638 0
-4.5856514 -3.1121294 1.4850013 0
3.3837872 4.5911703 0.62534952 0
3.4284959 4.5958066 -0.21043402 0
-0.70026731 -5.6091547 -0.984007 0
3.3739133 4.6145358 0.49571049 0
3.3677757 4.6007414 -0.6449728 0
-2.9663587 -4.8134532 -0.98066425 0
3.3687217 4.6028676 0.63523316 0
-0.25069833 5.5547347 1.4229445 0
-0.097765446 5.4488049 1.801518 0
-4.5738411 -2.7476845 2.1156211 0
-5.516717 1.3661152 0.80681038 0
-3.0460396 -4.7654638 -0.98800504 0
3.4306874 4.6005478 0.21493602 0
-0.40941858 5.6567235 0.90397155 0
-0.26955748 5.5626965 1.4039736 0
2.7491896 4.7276745 1.7569008 0
3.1936135 4.6270118 1.1783266 0
-4.5708504 -2.7107141 2.182142 0
-0.50428796 5.7230539 -0.035872698 0
2.672544 4.7705245 1.7636924 0
-5.4938321 1.3648036 -0.98338211 0
3.016217 4.6714563 1.4471033 0
-4.5717106 -3.012717 1.7431865 0
3.1343346 4.6297951 1.3339117 0
3.4254246 4.5891619 -0.4998672 0
3.3935528 4.5832167 0.72830391 0
3.0863726 4.6627216 1.3372006 0
3.3138585 4.6050858 0.93075442 0
3.4823041 4.5750728 -0.067962587 0
4.3549376 -3.6235578 -0.98549139 0
-4.5644193 -2.9051414 1.9503222 0
-5.3923669 1.2565989 1.5569353 0
-4.5905218 -3.4222083 0.54438186 0
2.5028896 4.7916265 1.9642634 0
-0.38411355 5.6408916 1.0581381 0
-0.15669656 5.4798484 1.7419231 0
-0.40951324 5.6435084 1.0353498 0
2.9143081 4.7112083 1.5494165 0
2.507225 4.7856817 1.9761367 0
3.4790244 4.5682354 -0.35434347 0
3.1958535 4.632319 1.1951377 0
-0.50948286 5.7227464 0.30276763 0
-4.5907021 -3.4075303 0.65415955 0
-0.50673032 5.7282405 -0.22279072 0
3.4800777 4.5704312 0.35561073 0
2.6721067 4.7551742 1.8390591 0
4.3580103 3.6289399 -0.98715198 0
-5.4577312 1.3226004 1.2661991 0
-4.5769835 -3.2021785 1.3916829 0
3.483748 4.5780826 0.21481645 0
-2.9820199 4.8263001 -0.98534083 0
3.4239318 4.5859318 0.63562 0
3.3696141 4.6048727 0.77568328 0
3.3043141 4.5978022 1.0541263 0
3.4238036 4.5856543 -0.64749217 0
-0.50630617 5.7273397 0.3335278 0
-4.587862 -3.4211702 -0.65074837 0
-4.5722322 -3.4150696 0.78100634 0
-5.4951224 1.3648775 1.0600271 0
3.4855299 4.5817976 -0.21227527 0
3.2574437 4.6331396 1.056416 0
