# .PCD v0.7 - Point Cloud Data file format
VERSION 0.7
FIELDS x y z intensity
SIZE 4 4 4 4
TYPE F F F F
COUNT 1 1 1 1
WIDTH 1426
HEIGHT 1
VIEWPOINT 0 0 0 1 0 0 0
POINTS 1426
DATA ascii
-5.0151758 6.692646 0.47057217 0
-6.1108208 5.6467757 0.97973716 0
-6.2858391 5.4827161 0.78604811 0
-4.8944831 6.7980356 0.20019907 0
1.0317814 -8.2771244 0.79708934 0
-6.5283399 5.2494941 -0.19990772 0
1.014843 -8.281517 0.78604817 0
-6.5310454 5.2508278 0.13991615 0
1.0169929 -8.2990618 0.59140968 0
-5.4271374 6.3130112 0.97984874 0
-6.4276462 5.3543301 -0.53727108 0
-6.3162847 5.4521618 0.81424272 0
-6.4576597 5.3142366 0.59136271 0
-6.4665623 5.3215632 0.39592913 0
-6.2242446 5.5588546 0.81264544 0
-5.0823178 6.6480808 0.59124541 0
-5.0270925 6.7021394 -0.49795997 0
-4.9175687 6.783185 -0.49496585 0
-6.5274129 5.2490373 -0.54094005 0
-4.9194336 6.7847147 0.47028285 0
-5.1199217 6.6069078 0.79425246 0
-5.2531972 6.4776778 0.98019624 0
7.359014 -4.0401511 0.1989125 0
-4.9324493 6.7953916 0.14882332 0
-4.9324551 6.7953963 -0.17332298 0
-5.0143528 6.6919904 0.7926538 0
-5.0790553 6.6438127 0.78604871 0
-4.9035268 6.8105965 0.39511463 0
-6.4255605 5.3532643 0.81693298 0
-6.2897797 5.4861526 0.98033988 0
7.3654866 -4.0437045 -0.19621748 0
-6.4620881 5.3178811 0.78604889 0
-6.5426154 5.2565312 0.47970903 0
-6.6440988 5.1504254 0.13890359 0
-4.717454 6.9580207 -0.17021325 0
-4.829833 6.8813844 -0.17207223 0
7.3712001 -4.0468411 0.00090974569 0
-6.4488878 5.3070183 0.98047024 0
-4.8207312 6.8736978 -0.49352014 0
-6.6469598 5.1517854 -0.20327199 0
-4.8245912 6.8769574 0.4700405 0
1.0164367 -8.2945223 0.98058134 0
7.3838344 -4.0381904 -0.006824851 0
-4.8363171 6.8868604 0.14909162 0
-4.9065056 6.814734 0.59056938 0
-6.6387324 5.1478748 -0.5458498 0
-6.6448264 5.1558051 0.39426336 0
-5.0792732 6.6440978 0.98073578 0
-6.6376262 5.1502185 0.59047467 0
7.380415 -4.0361557 0.41505313 0
-4.9238367 6.7883267 0.79213881 0
7.3849406 -4.0411172 -0.32035923 0
-6.7469287 5.0434847 0.1380662 0
-4.7234588 6.9740324 0.19695765 0
7.3778591 -4.0504971 -0.39701557 0
7.390666 -4.0422549 -0.21939677 0
7.3798337 -4.0515809 0.39387274 0
7.3922334 -4.0481281 -0.068250567 0
7.3852963 -4.0414591 0.43541318 0
-6.5402369 5.2553587 0.82000285 0
-6.6544642 5.1553521 0.48069677 0
-6.7427096 5.0415525 0.48125282 0
-4.7241182 6.9750056 0.39362192 0
7.3904171 -4.0421066 -0.43281674 0
-4.9071145 6.8155794 0.78604972 0
-6.7551866 5.0472655 -0.20609611 0
7.3824887 -4.0373898 0.6261428 0
-6.7436433 5.0419803 -0.55025065 0
-6.6362023 5.1466727 0.82204783 0
-4.7417722 6.9791617 0.14929646 0
7.3797736 -4.051548 0.59006929 0
-6.6228442 5.1387486 0.98118919 0
7.3864679 -4.0425854 -0.57480663 0
-4.7338438 6.9722695 0.46992019 0
-4.721735 6.9714875 0.59004122 0
-4.8273025 6.8792472 0.79129863 0
7.400578 -4.0561509 0.1836168 0
-6.6403828 5.1523571 0.78604996 0
7.4047194 -4.0506163 0.20385326 0
-4.7358842 6.9740429 -0.49359566 0
7.373311 -4.0480003 0.78605014 0
-4.6382532 7.0630193 -0.17074025 0
-6.8572974 4.938334 -0.20863819 0
7.3958435 -4.0453353 -0.64910042 0
-6.8196988 4.9847803 0.39255038 0
7.3930907 -4.0489521 0.68771291 0
-4.9110627 6.8210635 0.9817121 0
-6.8681359 4.94311 0.13685426 0
-6.8158994 4.9820027 0.5895167 0
-4.6378088 7.0626216 -0.49228668 0
7.3889961 -4.0412612 0.83862674 0
-4.6483784 7.0720792 0.14944622 0
-6.8536067 4.9367075 -0.55525219 0
-4.7264905 6.9785089 0.78605062 0
-6.8584647 4.9388485 0.48236129 0
-4.6420913 7.0664535 0.46980655 0
-6.7511458 5.0454154 0.8252632 0
-6.8105474 4.9780908 0.7860508 0
-6.961164 4.8286071 0.1361565 0
7.3783851 -4.050786 0.98199475 0
-6.9638944 4.8297639 -0.21150929 0
7.3909268 -4.0468721 0.94048578 0
-4.7454023 6.9823179 0.79155409 0
-4.5478883 7.158164 -0.17058524 0
-4.5486865 7.1494627 0.39131492 0
-4.7256598 6.9772825 0.98222291 0
6.1821613 5.8089571 0.17270996 0
-4.6400623 7.0646381 0.79026753 0
6.1358013 5.8626227 -0.24138325 0
-6.965282 4.8303518 0.48332158 0
-6.8568244 4.9381256 0.82801116 0
6.0109444 5.996398 -0.021920174 0
6.3242049 5.6673627 -0.018913686 0
-4.5574036 7.1631637 0.19227594 0
-4.5559554 7.1655931 0.14954358 0
6.1401358 5.8680239 -0.020774871 0
-4.5465817 7.1569605 -0.4919247 0
6.0771236 5.9339886 -0.021438092 0
6.011745 5.9974556 0.19922662 0
-4.5488005 7.1496415 0.58878529 0
-6.9926181 4.8096085 0.390701 0
6.1893735 5.8211784 -0.10234806 0
-4.5508633 7.1609035 0.46973562 0
-6.9687438 4.8318181 -0.56085873 0
6.156497 5.8548913 -0.20714688 0
6.1370754 5.8642106 0.41968346 0
6.0100441 5.9952073 0.4201242 0
6.2065587 5.8067265 -0.020481974 0
0.92049384 -8.4476566 0.17695545 0
6.5065966 5.4686365 -0.017677218 0
6.0794449 5.9369669 0.19934443 0
6.2678413 5.7396054 0.19993931 0
-4.4475665 7.2437925 -0.16980687 0
5.952754 6.0701637 -0.023197502 0
6.0280514 5.9945517 -0.10604653 0
5.8577366 6.1596985 0.17008679 0
6.3892961 5.6055393 0.20030329 0
5.9516649 6.0686798 0.19885647 0
-4.448297 7.2444849 0.14997669 0
6.1110048 5.9108615 -0.10435084 0
6.270453 5.7426748 -0.020061046 0
6.2022676 5.8015332 0.41955364 0
6.0807543 5.9386477 -0.24361312 0
6.01649 6.0037284 -0.24470532 0
6.2720399 5.7406025 -0.10095525 0
6.076602 5.9333186 0.41997486 0
-6.8192005 4.9844155 0.98268092 0
5.8208709 6.1991067 -0.024690956 0
5.990531 6.0336452 0.19140989 0
6.2649684 5.736228 0.41938329 0
6.3313365 5.6755066 0.20006217 0
5.9924684 6.0355968 -0.008066535 0
6.4893088 5.4982615 -0.0080879331 0
6.2727203 5.7417178 0.17290334 0
5.88763 6.1354313 0.19856742 0
6.1121788 5.9129171 0.17175388 0
6.3282781 5.6815834 0.19126129 0
6.1627288 5.8608179 0.19125748 0
5.8163686 6.2044878 -0.20813411 0
-4.4432344 7.239687 0.46930158 0
6.0253992 5.989749 0.4480738 0
6.3523211 5.6576209 0.17341955 0
5.773613 6.247613 0.16938108 0
6.3269391 5.670485 -0.46070838 0
5.9467878 6.083426 0.17054382 0
6.4904647 5.4992409 0.19109571 0
6.0311041 6.0000811 0.1711202 0
6.1597066 5.857944 0.39007491 0
6.3474941 5.6499524 0.4458223 0
6.1916952 5.8251128 -0.37856579 0
6.3936644 5.6103864 -0.23919153 0
5.8618956 6.1677685 -0.10995606 0
5.9476967 6.0851293 -0.10820922 0
6.1829433 5.8102818 -0.65412104 0
6.2117729 5.8130369 0.19958588 0
0.91966927 -8.4525146 -0.3560763 0
6.3292508 5.6731248 0.41928259 0
6.4307461 5.573226 -0.097961754 0
6.1670489 5.8649268 -0.0085698366 0
6.2121572 5.8135018 -0.24226916 0
5.6888552 6.3311138 -0.026586771 0
6.0160961 6.0032072 -0.46829104 0
5.8196173 6.1972923 0.4210346 0
6.1117301 5.9121313 -0.38163745 0
5.9567847 6.0756531 -0.2466293 0
-6.9966764 4.8123999 0.58836913 0
6.3978839 5.615068 -0.019429326 0
6.5072117 5.4873486 -0.096412092 0
5.7570305 6.2678795 0.19796145 0
6.334475 5.6871471 -0.008785665 0
6.1373725 5.8645806 0.63994348 0
6.4931054 5.5014782 -0.20882696 0
6.3513603 5.6560941 -0.37321013 0
6.3326321 5.6854925 -0.20882958 0
5.944109 6.0784059 0.44875687 0
6.4563923 5.5459766 0.20028029 0
6.1517096 5.8824463 0.19930845 0
6.4515328 5.5407376 0.41899499 0
6.489603 5.4985104 0.38982561 0
5.8943548 6.1448703 -0.024576277 0
5.8253183 6.2055421 -0.24921101 0
0.91947246 -8.4536734 0.44255108 0
-4.5515122 7.153904 0.78605205 0
6.1932287 5.8277106 0.44707015 0
5.8927641 6.1426377 -0.24809539 0
6.3377428 5.6828222 -0.24067998 0
5.9983058 6.0414762 -0.20918691 0
6.2709198 5.7432241 -0.46297544 0
6.4597735 5.5496221 -0.019086659 0
6.2770743 5.7504587 -0.24169159 0
6.2732606 5.7426038 0.44651479 0
6.1468477 5.8763871 -0.46587598 0
6.3923755 5.6089563 -0.46039665 0
-4.5475349 7.1578383 0.78996009 0
6.5090933 5.4901567 0.1743803 0
5.7729034 6.2461858 0.44999111 0
6.4284191 5.569643 0.44540226 0
0.91716051 -8.4672909 -0.089901239 0
6.4582653 5.547996 -0.2389769 0
6.2756386 5.7465053 -0.37644583 0
5.9560719 6.0746827 0.42067355 0
5.8194432 6.2077675 0.3896786 0
6.0842242 5.9431005 -0.46753156 0
5.7785053 6.2574472 -0.11217475 0
-6.9884815 4.8067636 0.78605217 0
6.2033706 5.8028684 0.63961971 0
6.358685 5.6677322 -0.10009998 0
6.1467485 5.8456206 0.78605217 0
5.9878144 6.0309091 0.58821434 0
6.2645197 5.7282658 0.71959811 0
6.33254 5.68541 0.38961661 0
6.5840254 5.4034243 0.17489603 0
6.5756702 5.4113755 -0.23742288 0
6.5070677 5.487134 -0.36823404 0
-4.4516931 7.2477036 -0.49127811 0
5.8833594 6.1294365 0.6429832 0
6.5198002 5.4824691 0.20032915 0
6.4327531 5.5763154 -0.37116599 0
5.7611303 6.2739978 -0.25100291 0
5.8280535 6.2169528 -0.0095938444 0
5.8922024 6.141849 0.42097014 0
-7.0890708 4.7270288 0.13477455 0
5.9568706 6.0757699 -0.47108918 0
5.6933455 6.3380265 0.19755162 0
7.5080938 -4.0099907 0.41674584 0
6.3285661 5.6723428 0.63866061 0
6.1084871 5.9064527 -0.65974349 0
5.8912563 6.1405215 -0.47280991 0
6.6582732 5.32096 -0.009749949 0
6.204093 5.8037429 -0.6875481 0
6.4377184 5.5839591 0.17369975 0
5.6471682 6.3814163 -0.21010542 0
6.2143688 5.8161783 -0.46537858 0
6.0168166 6.0041599 0.64183033 0
6.0241208 5.9874339 0.72502041 0
6.5167451 5.4792681 0.41899362 0
6.5816617 5.4174747 -0.018487602 0
7.5191407 -4.0163512 -0.012366652 0
6.2693515 5.7413807 0.63937199 0
6.5882592 5.4095507 -0.095431089 0
5.8291564 6.2181292 0.18996102 0
5.7653542 6.2803011 -0.026571959 0
-4.5460043 7.145247 0.98319733 0
7.5083313 -4.0153418 0.43665841 0
-7.0809865 4.7237396 0.48447311 0
-6.9736981 4.8339171 0.83146727 0
6.5225945 5.4853964 -0.23884505 0
6.5089498 5.4899426 0.44501522 0
5.6934404 6.3464928 -0.11441103 0
6.4006042 5.6180863 0.41939157 0
5.8647485 6.1733031 0.44958037 0
7.5164733 -4.0229478 0.18254712 0
5.8849058 6.1316071 -0.69795549 0
5.833312 6.2171097 0.19794494 0
0.91926765 -8.4548788 -0.62496758 0
6.2723064 5.7410393 -0.65247428 0
6.6413074 5.3504105 -0.018204302 0
6.5827909 5.4186249 0.2003649 0
5.9543266 6.0723047 0.64273673 0
-4.3688388 7.3224545 0.18971133 0
6.3315725 5.6845412 0.58797228 0
6.6966486 5.2793965 0.2006613 0
7.5151305 -4.0216937 -0.32745773 0
7.5213776 -4.0176387 -0.22817844 0
6.4927816 5.501204 0.58794957 0
5.760613 6.2732258 -0.47709537 0
6.19098 5.8239002 0.7219137 0
5.8223805 6.2012911 0.64423013 0
-4.3533797 7.3348484 0.15007788 0
5.6475663 6.381866 0.38907468 0
6.5197601 5.4824271 -0.45964271 0
6.0828838 5.941381 -0.69253504 0
6.4536653 5.5430369 0.63801599 0
6.004806 6.0480232 0.38903901 0
5.5128651 6.5104098 -0.11823881 0
6.2713389 5.7437167 -0.6871056 0
6.7310572 5.2301965 -0.3610875 0
-4.3539557 7.3354101 -0.16959795 0
5.8213 6.2097483 0.58790988 0
6.1205215 5.9275279 0.44793981 0
5.6530304 6.3880401 0.18947065 0
5.7634058 6.2773938 0.42163849 0
6.332654 5.677011 -0.68545276 0
6.4622369 5.552278 -0.4610489 0
6.5799403 5.4157224 0.41896412 0
6.5882244 5.4095006 -0.36661369 0
5.5587926 6.4705906 0.19684432 0
6.3954921 5.6124139 0.63864207 0
6.6645546 5.3259668 0.1751954 0
6.3503213 5.6544442 0.71867716 0
6.1689095 5.8666959 0.58787566 0
5.9546146 6.0726976 -0.6968658 0
6.1482596 5.8781471 -0.69110203 0
6.5061316 5.4857368 -0.6415292 0
0.91911137 -8.4558001 0.7086904 0
6.6606956 5.322896 0.38887024 0
5.6998887 6.3480992 -0.25346351 0
5.6308999 6.4114394 0.19705924 0
6.6657596 5.3269424 -0.21144646 0
5.6433363 6.3770857 0.58781981 0
-4.3689761 7.3226852 0.38883862 0
6.431735 5.574748 -0.645621 0
5.8320312 6.2152562 -0.47614461 0
5.8231001 6.2023325 -0.70150244 0
6.1399651 5.8678107 0.86136526 0
-7.1017795 4.7322001 -0.21622217 0
6.0890961 5.9493532 0.64185894 0
-7.1827073 4.609611 -0.21778327 0
5.657928 6.3935747 -0.011088848 0
6.6461973 5.3552485 0.20036733 0
7.5204287 -4.0170927 -0.44504243 0
6.0224161 6.0115614 -0.69551909 0
6.3258219 5.669209 0.8584969 0
6.3966084 5.6136527 -0.68467802 0
6.6458869 5.3549409 -0.23826146 0
6.1138697 5.9158783 0.72405362 0
5.9468904 6.0836182 0.72751951 0
6.4299445 5.5719919 0.71728468 0
6.7048306 5.2872629 -0.018276989 0
5.6339536 6.4162912 -0.028797567 0
5.6967421 6.343256 -0.47995359 0
-4.4499888 7.246088 0.78938174 0
6.6696172 5.3330727 -0.094599247 0
5.6944613 6.3486214 0.4509967 0
5.6084261 6.4386158 0.16762196 0
5.474071 6.5555005 -0.011362672 0
-7.090117 4.7274547 -0.567164 0
6.67031 5.3305793 0.18887961 0
6.3577495 5.6662459 -0.65019202 0
6.584641 5.4205079 -0.45972264 0
7.5314054 -4.0234127 0.20218466 0
6.7042603 5.2867146 -0.23775005 0
6.5745611 5.4102464 -0.68052906 0
5.6337733 6.4160047 -0.2553525 0
5.9932504 6.0363846 0.78605282 0
6.0162525 6.0034146 0.86407089 0
5.7003765 6.3609529 0.1681646 0
7.5297899 -4.0353889 -0.073023915 0
6.0807457 5.9386368 0.86301196 0
5.6101031 6.4422431 -0.11709023 0
6.5926208 5.4158626 0.44476789 0
5.8853741 6.1322651 0.86638117 0
5.776248 6.2529092 0.73130918 0
5.693223 6.3378377 0.64640701 0
5.701005 6.3498178 0.42209384 0
6.6653752 5.3271189 0.4442293 0
6.7645984 5.2205272 -0.018144667 0
5.5643616 6.4797263 -0.25689381 0
5.8642759 6.1723857 0.72962832 0
6.7560568 5.2125478 -0.45696187 0
5.7629776 6.2767544 0.64574826 0
6.7628202 5.2188659 -0.23738545 0
6.3321266 5.6850386 0.78605294 0
5.5142145 6.5134425 0.45228833 0
6.6594033 5.3187361 -0.63535875 0
6.5202441 5.482934 -0.68281525 0
6.5226741 5.4854798 0.63829756 0
-7.1936431 4.6138792 0.13381022 0
6.645937 5.3549905 -0.45933634 0
-4.3569922 7.3383718 0.46941021 0
6.6698856 5.3334498 -0.36527085 0
7.5123725 -4.0191169 0.69117475 0
5.4951229 6.5447693 0.19630563 0
6.8198161 5.1497345 0.20063534 0
5.562592 6.4768229 0.42268312 0
6.4628229 5.5529094 -0.68465447 0
-6.9963508 4.8121758 0.9837268 0
6.7031679 5.2856646 -0.45842391 0
5.4782152 6.5604634 0.18829691 0
6.3191175 5.6733589 0.98374367 0
5.5614843 6.4750066 -0.48479831 0
5.6325827 6.414113 -0.48303944 0
5.9552603 6.0735769 0.86580396 0
6.4957614 5.5037289 0.78605306 0
6.6497416 5.3587546 0.41911972 0
6.273344 5.7460737 0.86058795 0
6.7470112 5.2519259 -0.093530387 0
0.92088854 -8.4453316 0.97483897 0
5.4959459 6.546164 -0.25879955 0
6.1555328 5.8539743 0.98380041 0
7.5213032 -4.0274601 -0.58554596 0
5.7639751 6.2782426 -0.70617354 0
7.5213327 -4.0176134 -0.66403598 0
5.4987993 6.5509996 -0.031138927 0
5.5706682 6.4900718 -0.030338109 0
5.6442919 6.3781657 0.78605312 0
6.7633214 5.2193346 0.41886228 0
6.5718884 5.4075251 0.85635072 0
-7.1826749 4.6095982 -0.57086861 0
5.9866509 6.0297375 0.98385268 0
5.8242645 6.2040172 0.86844891 0
6.1887946 5.8201971 0.99746644 0
6.7085919 5.2908792 0.41902792 0
6.213809 5.8155012 0.8618961 0
5.8258004 6.2145491 0.78605318 0
6.748558 5.2540326 0.17535348 0
6.7426233 5.2459493 0.4438715 0
6.5920749 5.4150724 -0.64029318 0
-4.3618875 7.3431458 -0.49140126 0
6.5147653 5.498621 0.71652323 0
6.4840965 5.4938455 0.98389125 0
6.5868101 5.4227161 0.63827264 0
6.8252597 5.154676 -0.23759949 0
-4.2551742 7.4217148 -0.16909876 0
6.5896111 5.4115076 0.71495575 0
5.6113071 6.444849 0.45189792 0
5.5233631 6.5340047 0.16671886 0
6.8208604 5.1670227 -0.09227547 0
5.7585936 6.2702122 0.87000424 0
7.5279369 -4.0214157 0.63229859 0
5.6388755 6.4241109 0.42260212 0
6.2708259 5.7386103 0.9950369 0
-7.170702 4.6348238 0.58729345 0
-4.3747082 7.3322926 0.58729339 0
6.6434455 5.3525257 -0.68175399 0
6.883203 5.0864019 -0.018022388 0
6.8147335 5.1589231 0.44340569 0
5.6987019 6.346272 -0.70947361 0
6.6703944 5.3306465 0.58728063 0
-7.1808667 4.6413941 0.38775441 0
-4.2574964 7.4240451 0.15017268 0
6.703023 5.2855253 0.63754559 0
5.4296908 6.6176829 -0.032342881 0
5.4978895 6.5494585 0.42318943 0
6.5198097 5.4824791 0.85789222 0
6.6805081 5.3387289 -0.41599739 0
5.4821539 6.5651798 0.38762316 0
6.6482878 5.357316 0.63811886 0
5.6333599 6.4153476 0.64813912 0
5.6048784 6.4309397 0.73583764 0
6.8372951 5.149703 -0.21458757 0
-7.0900903 4.7274437 0.83496082 0
5.6958227 6.3514595 0.73409975 0
5.4258566 6.6109681 0.42348671 0
5.4301491 6.618485 0.19576222 0
-7.1968417 4.615128 0.48564976 0
6.35183 5.6568408 0.99268734 0
5.4976101 6.5489845 -0.48855364 0
5.4302182 6.6186066 -0.26139373 0
6.7781401 5.2331781 0.20018378 0
5.5643663 6.479733 0.64910358 0
6.4641457 5.5543361 0.85913348 0
6.8349032 5.1634297 -0.018827915 0
-4.370492 7.3252258 0.78605354 0
5.357173 6.6795907 -0.26291674 0
-4.3541508 7.3356004 0.78901225 0
6.8363843 5.1490169 0.38737035 0
6.8890667 5.0915742 0.2004115 0
6.8962574 5.0851846 0.17614864 0
6.43257 5.5760331 0.99053657 0
5.8230934 6.2116613 0.98425746 0
6.6706066 5.3344617 0.71408868 0
6.8186188 5.1486473 -0.67967898 0
-4.2577372 7.4242873 0.4692333 0
6.8251185 5.1726518 -0.36196858 0
6.8905497 5.0928817 -0.23825127 0
6.7090306 5.2913008 -0.68242013 0
6.4086647 5.6270299 0.86055177 0
6.7460361 5.2505975 -0.63481355 0
6.829205 5.1780529 0.17557564 0
5.4355745 6.6268501 0.16584639 0
6.8988495 5.0885105 -0.091500908 0
7.524754 -4.0195832 0.84791934 0
5.6983786 6.3457742 0.87262094 0
5.3575611 6.6802945 0.42395812 0
5.3411283 6.7073245 -0.12418643 0
5.6375093 6.4219403 -0.71434939 0
6.8489118 5.1584525 0.18639129 0
5.3628492 6.6898704 0.19525096 0
6.8965502 5.0855598 -0.35973078 0
-7.1725655 4.6360288 0.78605384 0
6.8510199 5.1600404 -0.014756858 0
5.4313326 6.6205578 -0.49206817 0
6.8435893 5.1544437 -0.41822851 0
5.4335737 6.6221733 0.45346484 0
6.7715926 5.2270617 0.63804632 0
6.7695589 5.2251616 -0.6821726 0
7.5172219 -4.0236478 0.94710821 0
6.8352389 5.1637349 -0.46005356 0
-4.2625484 7.4291153 -0.49051261 0
6.6738648 5.3334203 0.7860539 0
5.519866 6.5261445 0.73854142 0
6.8959694 5.084815 0.44324321 0
6.8886642 5.0754404 -0.62822664 0
6.8373184 5.1497207 0.58679307 0
6.8166561 5.1614647 0.71131027 0
5.4389009 6.6346226 -0.12265489 0
6.890451 5.0927949 -0.4592973 0
6.9705906 5.0028534 -0.090311915 0
5.3431826 6.7123213 0.16509442 0
5.6326241 6.4141788 0.87456375 0
6.8385463 5.1667371 0.41920623 0
5.2896094 6.7519469 -0.26566005 0
6.8926358 5.0947218 0.41907158 0
6.9457893 5.022171 0.41894093 0
5.4281492 6.6149826 0.65157998 0
5.5703106 6.4894843 -0.71783888 0
6.6608605 5.3230276 0.98454267 0
6.9997506 4.9638872 0.18590444 0
6.9525928 5.0280008 -0.23862356 0
5.4990435 6.5514135 -0.7204442 0
6.7494421 5.2552366 0.71314561 0
6.8304958 5.1594291 0.63791597 0
7.0077395 4.9571972 -0.018572628 0
5.3680515 6.6992927 -0.034490466 0
-4.3695474 7.3236427 0.98457956 0
6.662972 5.3237457 0.98362845 0
7.000834 4.9646554 -0.21725631 0
-4.1584439 7.5097847 0.15031658 0
6.969418 5.0013919 -0.3579092 0
5.5029759 6.5580769 0.65096962 0
5.2936935 6.7596006 -0.035408914 0
6.5914917 5.4142284 0.98651648 0
5.5649734 6.4807296 0.87639666 0
6.7090487 5.2913179 0.85773122 0
-7.3107734 4.5037055 0.13258673 0
6.974462 5.0076776 0.17636308 0
6.8311801 5.1450973 0.78605413 0
6.653399 5.3623729 0.85858601 0
6.518683 5.504467 0.98945957 0
5.3422947 6.7101622 0.45426485 0
5.4299579 6.6137233 0.74086356 0
6.8858862 5.0887685 -0.68129456 0
6.736721 5.2379107 0.98132479 0
5.3584557 6.6819148 0.65285015 0
5.4930658 6.5782475 0.58655065 0
5.4294767 6.6173072 -0.72393823 0
5.3093071 6.74227 0.3862882 0
6.9609656 5.0351753 -0.019336671 0
6.7673888 5.2231345 0.85733247 0
6.8280468 5.1765223 -0.63353837 0
7.0044703 4.9544759 -0.4588775 0
5.3647327 6.6932817 -0.49585003 0
6.9606738 5.034925 0.20011696 0
6.8913503 5.0935879 0.63799173 0
5.2924185 6.7572107 0.42459556 0
5.6578598 6.3934979 0.98479742 0
7.0106297 4.971602 -0.016405344 0
7.009202 4.9584141 0.41906852 0
5.4979496 6.5495601 0.87854457 0
7.0455513 4.9220762 0.17673816 0
-7.1722183 4.6358042 0.98485637 0
5.3172393 6.7523437 0.18496633 0
6.9740968 5.0072222 0.44302675 0
0.86038291 -8.5404844 0.47698289 0
5.318727 6.7542324 -0.016637444 0
0.8586359 -8.5529222 0.14219791 0
7.0154004 4.9635735 -0.23918486 0
6.8262224 5.15555 0.8571133 0
-4.181675 7.4889827 0.58638233 0
-7.3079667 4.502656 0.48676097 0
-4.1580939 7.5094228 -0.48912114 0
-7.2038054 4.6178455 0.83837026 0
6.9566717 5.0314956 -0.46049541 0
5.2926235 6.7575955 -0.49856597 0
7.0170226 4.9649239 0.20015389 0
6.8965421 5.0855494 0.71070421 0
6.9679012 4.9995017 -0.62694788 0
-7.3197494 4.507062 -0.22257417 0
7.0685425 4.8910732 -0.2387566 0
-4.1599112 7.5112996 0.46912026 0
5.4886632 6.5729756 0.78605443 0
-4.1681857 7.519845 -0.16957304 0
5.299324 6.7701516 0.19454843 0
5.2537565 6.8087401 -0.12740606 0
7.0450692 4.9214926 -0.35666817 0
5.3391533 6.7025199 0.74331415 0
5.3614535 6.6873436 -0.72833502 0
6.8141031 5.1580901 0.97977114 0
7.0108509 4.9717588 0.38568249 0
-7.3549252 4.460093 0.18447775 0
-4.1937461 7.5106015 0.18444002 0
-4.1906667 7.5050859 0.3856349 0
7.0032153 4.9534316 -0.68145853 0
5.2514677 6.8029375 0.45517474 0
5.291687 6.7558408 0.6545856 0
-4.2663126 7.4328933 0.78932583 0
6.887053 5.089798 0.85724342 0
5.4303627 6.6188598 0.88081926 0
5.3124762 6.746295 0.58616066 0
5.2269449 6.8358092 0.1941203 0
7.075954 4.8970647 0.20010981 0
6.9555311 5.0305185 0.63836157 0
5.2233448 6.828824 0.42514256 0
5.2562242 6.8149967 0.16399898 0
5.1513796 6.8966827 -0.038378209 0
5.4813824 6.5642562 0.98513407 0
7.6289272 -3.9842231 0.1815611 0
7.013773 4.9738312 -0.42255938 0
5.1298785 6.91359 -0.017748892 0
7.0062032 4.9684629 0.58610976 0
6.9540658 5.029263 -0.68326062 0
5.2272673 6.8364358 -0.26967281 0
6.8337278 5.147016 0.98521119 0
7.081408 4.9014735 -0.019705504 0
5.2302351 6.8421931 -0.037697494 0
7.6370993 -3.9813669 -0.016842633 0
6.945868 5.0222383 0.85724878 0
-7.3583608 4.4621768 0.38517886 0
5.153245 6.9004326 0.19369511 0
6.9744496 5.0076623 0.71003509 0
5.1288476 6.9122005 0.38510558 0
-7.322041 4.5079188 -0.57908362 0
5.2215314 6.8253059 0.65610182 0
5.2484961 6.795404 0.74605477 0
7.1210823 4.8426113 -0.35565245 0
5.1545172 6.9029899 -0.27199221 0
5.3104553 6.7437282 0.78605503 0
7.0547128 4.9331636 0.44291294 0
7.0621953 4.9422188 -0.090879321 0
7.0806313 4.900846 0.41939521 0
7.1304502 4.8256083 -0.46095961 0
7.1205459 4.8419805 0.44243157 0
5.3647137 6.6932478 0.88368165 0
5.1373014 6.9235935 0.18309498 0
5.297111 6.7660046 -0.73442233 0
5.1591997 6.8961902 0.45611301 0
7.1285667 4.8514094 0.17675239 0
-4.0677099 7.6040587 0.15021978 0
5.1632843 6.9069967 0.16308536 0
7.6429858 -3.9969857 -0.076024413 0
5.1524911 6.8989167 -0.50610805 0
7.0068159 4.9688973 0.78605521 0
7.1917467 4.7593799 0.20000395 0
6.8982778 5.0877771 0.97937673 0
7.6471882 -3.9869852 -0.23643512 0
-4.1885786 7.5013471 0.78605527 0
7.1443934 4.8365541 -0.020167381 0
7.1780195 4.786891 -0.019508302 0
5.1555748 6.9051161 0.42579621 0
7.0247602 4.971364 0.63913321 0
7.1392398 4.8325081 0.4194521 0
5.1657734 6.9135809 -0.13087052 0
-7.4294925 4.3919382 0.1313107 0
-4.0721226 7.6087484 -0.16946718 0
7.1341844 4.8580132 -0.089921564 0
7.1458144 4.8376694 0.19980203 0
7.1451983 4.8371859 -0.24106461 0
7.1791339 4.7876339 -0.22270167 0
5.2330818 6.8477159 -0.50496966 0
5.1230588 6.9043989 0.78605545 0
-7.3650699 4.4662452 0.58554333 0
7.0766597 4.8976355 -0.68484747 0
7.0883427 4.9070797 -0.46314883 0
7.0796423 4.9000463 0.63898653 0
-4.1681547 7.5198131 0.78897071 0
7.0564394 4.9352531 -0.62769544 0
7.6450644 -3.9988725 -0.33446747 0
5.065649 6.9904909 0.16230959 0
7.1765919 4.7859387 0.38422737 0
-4.0668225 7.6031156 0.46915764 0
7.0533447 4.9315081 0.70955122 0
5.1343021 6.9195514 0.58547634 0
5.0839276 6.9758482 -0.27500886 0
7.1847391 4.7913718 0.18208343 0
0.85808301 -8.5568581 0.81282324 0
6.9725041 5.0052376 0.97774065 0
7.1783519 4.7871127 -0.42674589 0
5.0860529 6.9802794 0.19295761 0
5.0870037 6.9822612 -0.040927172 0
-7.4350266 4.3939171 -0.22621113 0
-4.1843815 7.4938302 0.98585707 0
-7.4250827 4.3903604 0.48800755 0
7.2045522 4.7691393 -0.020499587 0
7.2022429 4.7700787 0.17698683 0
7.1721601 4.7829833 0.58537441 0
5.2289748 6.8397484 -0.73975348 0
7.1257753 4.8481283 -0.62496752 0
5.2225838 6.8273482 0.88817841 0
5.0816555 6.9711127 -0.51025534 0
7.647326 -4.0009255 0.43827266 0
7.652503 -3.9899449 -0.45751148 0
7.1223502 4.8441019 0.70836443 0
7.0202293 4.9675927 0.8591345 0
7.1350498 4.8292193 -0.68532908 0
7.0045323 4.967278 0.98595315 0
-7.3259587 4.5093832 0.84232163 0
7.2056336 4.7739506 -0.089033037 0
5.0655088 6.9901037 0.45708323 0
7.1988258 4.7661767 0.44232267 0
-7.362009 4.4643893 0.7860558 0
5.3005962 6.7725358 0.88710177 0
7.6573377 -3.9926369 0.41886348 0
5.0052872 7.0336876 -0.51321149 0
5.3167858 6.7517672 0.98611224 0
7.0458698 4.922462 0.97617817 0
7.6409225 -3.9951127 0.69527841 0
7.6681833 -3.9986765 0.20031987 0
5.1612787 6.9016905 0.74960434 0
-7.4299455 4.3920999 -0.5844689 0
7.6474538 -4.0010414 -0.59474266 0
7.1949463 4.7618189 0.63926667 0
7.1450744 4.8370886 0.63961279 0
7.2069168 4.7709417 0.41972899 0
4.954813 7.0942287 -0.021884739 0
5.1575413 6.90907 -0.74443758 0
5.0732012 7.0113688 -0.1339944 0
7.2758012 4.689158 -0.088153154 0
7.2094078 4.7782607 -0.35643947 0
-4.0814328 7.6186428 -0.49140227 0
7.2660284 4.7024512 0.19956377 0
5.0907903 6.9901547 0.4266336 0
7.1957364 4.7626481 0.70764571 0
5.0118666 7.0479226 0.42695892 0
7.2693739 4.704926 -0.021195501 0
7.2771254 4.6906271 0.17715552 0
5.1633749 6.9207973 0.6591897 0
5.0171223 7.0592933 -0.043019295 0
7.2115932 4.7745056 -0.46500134 0
4.972249 7.09021 0.16121212 0
7.0863824 4.9054947 0.86016363 0
7.2192407 4.780334 -0.24314541 0
7.6609359 -3.9946408 0.63767254 0
5.0835323 6.9750237 -0.74867845 0
7.2038198 4.7718792 -0.62414122 0
7.6583052 -3.9931757 -0.68100691 0
7.3223891 4.6317468 -0.021182269 0
-7.4232373 4.3897004 0.84495497 0
7.1208954 4.8423915 0.9750272 0
7.1919236 4.7595153 0.85954052 0
7.2783923 4.6920328 -0.35480797 0
5.157773 6.9095354 0.89203185 0
0.80710745 -8.6306839 -0.023295879 0
5.0197225 7.064919 0.19211426 0
7.2745628 4.7087646 -0.24325609 0
7.3472958 4.6008711 -0.023353159 0
7.205863 4.7701387 -0.68847549 0
7.2692404 4.7048268 0.41990599 0
7.2778907 4.6914763 0.44226444 0
5.0195704 7.06459 -0.27963418 0
7.346292 4.6053872 -0.08740592 0
5.0902719 6.9890738 0.66072321 0
-7.5393829 4.2810807 0.17969102 0
4.9406223 7.1243095 0.19174045 0
7.1853838 4.7918019 0.78605658 0
7.2699671 4.7053647 -0.46563548 0
4.9375477 7.1173997 0.42752755 0
7.2724519 4.685442 -0.62180358 0
-4.0775208 7.6144857 0.78928006 0
7.2620621 4.6995168 0.6401189 0
5.1351323 6.9206705 0.98666835 0
4.9406681 7.1244121 -0.28154933 0
4.9734716 7.093749 0.45825326 0
5.0696354 7.0015116 0.75284505 0
7.2618012 4.6993241 -0.68882573 0
4.9574518 7.0980067 0.58451158 0
-7.3718834 4.470377 0.98675442 0
0.80721343 -8.6318169 0.38220543 0
5.0838656 6.9757195 0.89439636 0
7.1507955 4.8415794 0.86108714 0
7.3542452 4.6052227 0.17919511 0
7.3318887 4.6385655 -0.24369234 0
7.2722921 4.6852646 0.70727849 0
7.3335295 4.6397433 0.19925618 0
4.9699111 7.1158457 0.17902488 0
7.3845129 4.5648961 -0.021818072 0
7.3490777 4.6019869 -0.43277407 0
-7.5509734 4.2788711 -0.22995734 0
4.9457283 7.1357846 -0.04512468 0
7.6619244 -3.9951911 0.85731077 0
7.6486011 -4.0020828 0.95428532 0
7.3202877 4.6302381 0.64044672 0
-7.5561833 4.2806511 0.12986431 0
4.8637996 7.1906309 -0.28416938 0
7.3590817 4.6082516 -0.22898459 0
7.3546453 4.605473 0.38182613 0
0.80859041 -8.6465416 0.17869782 0
4.865881 7.1954951 -0.046319067 0
7.3303308 4.6374474 -0.46671414 0
7.3323045 4.638864 0.42011753 0
4.8653388 7.1942277 0.19114748 0
4.9414272 7.1261177 -0.52030861 0
7.1810436 4.7889075 0.98698694 0
7.3575039 4.617475 0.17715114 0
7.3543053 4.6140265 -0.35425287 0
-7.5480418 4.2778697 0.48938555 0
-7.5513315 4.2878652 0.38153866 0
7.2014422 4.7691641 0.97478163 0
4.8747387 7.1832886 0.4591828 0
0.80763292 -8.6363029 0.58413601 0
7.4221411 4.5277891 -0.087168217 0
7.3554139 4.615222 0.44219524 0
4.9746332 7.1226072 0.38135076 0
7.3960075 4.5729008 0.19903928 0
7.3272638 4.6352458 -0.69122791 0
5.0134926 7.0514398 0.89776671 0
4.9743109 7.0961761 0.75585675 0
7.267241 4.7033482 0.86185932 0
5.0195556 7.064558 -0.75719106 0
5.0232143 7.072474 0.66318029 0
-7.5486445 4.2863393 0.58397961 0
7.3516722 4.6111875 -0.62163854 0
4.8808036 7.2016859 0.1598791 0
7.4259176 4.5317459 0.17742263 0
-7.5542941 4.2800055 -0.59150189 0
4.9627519 7.1055956 0.78605741 0
7.3990674 4.5750318 -0.24528235 0
7.3598666 4.6087427 0.58390808 0
7.4236197 4.5293384 -0.3530125 0
7.3499713 4.6093545 0.70708954 0
7.2721939 4.6851554 0.97339797 0
7.3961172 4.5729771 0.42036307 0
7.450038 4.4999018 0.19898215 0
-4.0242682 7.7193108 0.17722648 0
4.8701468 7.2054644 0.4284659 0
4.9458075 7.135963 0.66453493 0
4.8685808 7.2018046 -0.52524871 0
7.3518434 4.6037188 0.78605765 0
4.7931523 7.2742901 -0.048652798 0
7.752161 -3.9709542 0.17689735 0
7.3990631 4.5750289 -0.46918046 0
-7.5456138 4.2846189 0.78605771 0
-4.0096941 7.7343926 -0.17207006 0
7.45017 4.4999909 0.42042065 0
7.4587669 4.5057969 -0.023275703 0
-4.0106282 7.735414 0.14921631 0
7.4289732 4.5349469 0.44205463 0
4.9402657 7.1235075 0.90086275 0
0.80632555 -8.622323 0.98765224 0
-4.0254188 7.721518 0.38042122 0
4.7941923 7.2768197 0.19029841 0
-4.0203185 7.7117352 0.58360618 0
4.8755679 7.1858044 0.75865185 0
7.3403358 4.5965128 0.9876709 0
7.7516131 -3.9706736 0.3803466 0
4.9468021 7.1381979 -0.76305354 0
7.3322911 4.6388545 0.8631357 0
0.80855501 -8.646163 0.78605789 0
7.4930663 4.4453321 -0.35195899 0
4.7801833 7.2913141 0.15892777 0
7.3976641 4.5740542 0.64205796 0
7.511601 4.4317002 -0.023431242 0
4.7931843 7.2743673 0.42905533 0
4.7134428 7.3389144 -0.050233871 0
7.3953357 4.572433 -0.6942879 0
4.8705182 7.2063322 0.66633683 0
4.787024 7.2909527 0.17605871 0
4.8673787 7.1989951 -0.76684785 0
7.4642758 4.5095167 -0.24674559 0
7.5215082 4.4147725 -0.23349214 0
-7.5554643 4.280405 0.84960604 0
7.4575219 4.5049558 -0.47023398 0
7.7562389 -3.973043 -0.43889391 0
7.5026727 4.4551115 -0.087367833 0
7.449451 4.4995055 0.64208663 0
-7.667438 4.1618099 -0.2338056 0
7.771606 -3.9699728 -0.080103785 0
7.76759 -3.9788573 -0.028804481 0
-4.0117159 7.7366037 0.47021186 0
4.7901106 7.2956533 -0.028831005 0
7.5028896 4.4553328 0.1774462 0
-7.5409288 4.2819581 0.98792952 0
7.4305792 4.5366292 -0.62161076 0
7.5147357 4.4337521 -0.24675143 0
-7.6709552 4.1629558 0.1286141 0
7.7664967 -3.9782972 -0.23404145 0
7.5268927 4.4179325 0.17566353 0
7.5100236 4.4306669 0.42062062 0
-4.012445 7.7374005 -0.49491543 0
4.967494 7.1123857 0.98801178 0
4.7804976 7.2923155 0.46049058 0
4.7994356 7.2895746 -0.28997391 0
7.4297938 4.5358067 0.70714909 0
4.7919683 7.271409 0.6678896 0
-4.021534 7.7140665 0.78605837 0
7.3536391 4.6133084 0.97356713 0
7.5131793 4.4327331 -0.47101444 0
7.522017 4.438519 0.19852918 0
7.4542117 4.5027204 -0.69573367 0
7.758759 -3.9743338 0.58312571 0
7.56637 4.3655953 0.17777367 0
-7.6669021 4.1616354 0.49071151 0
7.5370889 4.4239173 -0.029937387 0
4.7861753 7.28966 0.58305514 0
7.5311427 4.4204273 0.37926686 0
4.7931967 7.300354 0.37923589 0
4.7985301 7.2873726 -0.53161037 0
0.76172066 -8.7082767 -0.10375842 0
7.7920179 -3.96348 -0.023514003 0
4.7202067 7.3560629 0.18949777 0
7.7821989 -3.979316 0.17962444 0
7.7784672 -3.9760244 -0.34183228 0
7.5300374 4.4197783 -0.44124281 0
7.7775016 -3.9751728 0.43966627 0
7.5100498 4.4626222 0.44213217 0
0.76213598 -8.7060261 -0.38032031 0
-4.0180402 7.7073646 0.98839575 0
-7.6710649 4.1629915 -0.59795284 0
-4.0101199 7.734858 0.79150319 0
7.5281396 4.4186645 0.58285415 0
7.7670035 -3.9659135 0.69918221 0
7.4992104 4.4515872 0.70650887 0
4.8724718 7.210897 0.90549791 0
4.7177081 7.3497281 -0.53500521 0
7.5767565 4.3758707 -0.087166548 0
-7.7285032 4.0998645 0.17419779 0
7.5046663 4.4571414 -0.62092721 0
7.7976308 -3.9665012 0.19860765 0
7.5168405 4.4351301 0.64315945 0
7.4066625 4.5803204 0.86549211 0
7.7749581 -3.9729297 -0.6041081 0
7.5746422 4.3737788 -0.35256213 0
4.7234511 7.3642883 -0.29355395 0
4.682097 7.3949842 0.15769841 0
4.7813025 7.294879 0.76258039 0
0.75921917 -8.7218323 0.17175192 0
7.5842609 4.3700585 -0.24884546 0
7.7629924 -3.9765022 0.78605902 0
4.7228055 7.3626513 0.43002588 0
4.7978244 7.2856555 -0.775244 0
7.4298415 4.5358562 0.97320086 0
7.7863073 -3.9604063 0.64257419 0
7.7983146 -3.9668691 0.42080593 0
7.4616623 4.5077519 0.8658697 0
7.5213928 4.4381104 -0.69892788 0
0.76008797 -8.717124 0.44756454 0
4.7945709 7.2777414 0.90825462 0
7.7991452 -3.9673162 -0.47197056 0
7.5831447 4.3693504 -0.47401935 0
7.5719633 4.371129 -0.61927849 0
7.8092117 -3.9727345 -0.24827015 0
4.7199945 7.3555255 0.67056972 0
7.5929246 4.375555 0.19808424 0
-7.7364392 4.1040745 0.37810197 0
4.7917104 7.2980905 0.78605926 0
7.5950503 4.3769035 -0.025551587 0
7.5868807 4.3717208 0.42119086 0
4.6431952 7.4310699 -0.29647475 0
7.5823779 4.3814325 0.4420194 0
7.6466999 4.2927709 -0.08675006 0
7.4961534 4.4484749 0.97174442 0
7.7566605 -3.973259 0.98893732 0
0.76076376 -8.7134619 -0.65962631 0
0.76170468 -8.7083626 0.72316307 0
-7.6732879 4.1637154 0.85352802 0
4.7196679 7.3546968 -0.78076315 0
7.7952757 -3.9652336 -0.69791043 0
4.7851081 7.2880344 0.98901772 0
4.643815 7.4327116 0.43066996 0
7.6495714 4.2955317 0.17758784 0
7.5379472 4.4244208 0.7860595 0
7.6487937 4.3024707 -0.025874585 0
4.6420727 7.4281001 -0.54063636 0
4.6855488 7.406559 0.46191245 0
4.6485829 7.4453244 -0.054211617 0
-7.7373142 4.1045384 0.58216834 0
4.6484671 7.4450173 0.18850043 0
7.6429677 4.2988906 0.42134798 0
7.5245671 4.4401884 0.86717951 0
7.6504025 4.3034596 0.19789976 0
7.5885482 4.3727784 0.64454806 0
7.6484742 4.294477 0.44178563 0
7.6443186 4.2997208 -0.47586232 0
7.5861797 4.3712759 -0.70181847 0
7.5809236 4.3799934 0.70687377 0
7.6523557 4.2982082 -0.35281342 0
4.7189312 7.3528285 0.9118762 0
7.6549411 4.3062487 -0.2511338 0
7.797266 -3.9663048 0.86648333 0
4.6442337 7.4338183 0.67296702 0
7.5334654 4.4217906 0.98940849 0
-7.7903123 4.0445037 0.49214524 0
7.6430297 4.2989287 0.64492005 0
-7.8042064 4.04881 0.1270009 0
0.76262939 -8.703352 0.99948245 0
7.5827789 4.3691187 0.86809194 0
7.7837281 -3.9806645 0.96184599 0
7.7084746 4.2313437 0.19768371 0
-7.7394757 4.1056852 0.78606009 0
-7.8055511 4.0492268 -0.23891681 0
7.7127542 4.2343569 -0.035459638 0
7.6451702 4.3002443 -0.70378482 0
7.7126131 4.2342796 0.17071217 0
4.68641 7.4094477 0.76686662 0
7.7237101 4.2165537 0.17759684 0
4.6450548 7.4359913 -0.78851712 0
7.6510348 4.2969384 0.70646524 0
7.7181921 4.2113986 0.44167137 0
7.7175636 4.2367516 -0.02717644 0
7.7065377 4.2301917 -0.47798204 0
7.7283387 4.2208781 -0.087263763 0
7.717134 4.2367616 -0.24310195 0
7.7103601 4.2330422 -0.45032239 0
7.6396451 4.2968488 0.86896312 0
7.7130752 4.2340813 0.42180976 0
7.659924 4.3054843 -0.62138289 0
7.7186947 4.2374244 -0.25279099 0
7.7059369 4.2306142 0.58141816 0
7.5817637 4.3808246 0.97283858 0
7.728961 4.2214594 -0.35305911 0
-7.7372832 4.1045218 0.98995113 0
7.7684979 4.1599212 0.19740927 0
7.6966095 4.225493 0.78606063 0
7.7205734 4.2386498 0.37577632 0
4.6256843 7.5060544 -0.0371629 0
7.7706213 4.1611438 -0.25334048 0
4.6462364 7.4391174 0.91662741 0
4.6259656 7.5065107 0.16938776 0
-3.9641318 7.8812022 -0.17618683 0
-7.8150897 4.0521832 -0.60702538 0
4.6258316 7.5062938 0.37532896 0
7.7154188 4.2354755 0.64644563 0
7.7218533 4.214819 0.70619863 0
4.62116 7.498713 0.58101356 0
7.715178 4.235332 -0.70795321 0
7.7727227 4.1623535 -0.48078787 0
-3.9692378 7.88695 0.14773513 0
7.653018 4.2988448 0.97229385 0
7.7312431 4.2235913 -0.62082213 0
7.7854338 4.169672 -0.028470308 0
7.7796478 4.1663408 0.42221534 0
-3.9633799 7.8803558 -0.50133222 0
-7.8060346 4.0493765 0.85834336 0
7.7998586 4.1393905 -0.35275787 0
7.8042097 4.1433406 0.17742893 0
7.789351 4.1298518 -0.61827344 0
7.7663841 4.1587043 -0.70882177 0
7.8996806 -3.9395301 0.44086757 0
7.8285728 4.0879903 0.42228454 0
7.7133946 4.234271 0.87165147 0
7.8090692 4.1477518 -0.08777988 0
7.9114399 -3.9496062 -0.084934235 0
7.8384428 4.0934868 -0.028920323 0
4.6217694 7.499702 0.78606147 0
7.8369083 4.0926323 -0.25543344 0
7.8040175 4.1431656 0.44196656 0
7.7784405 4.1656456 0.64744747 0
7.7082424 4.2318797 0.99076533 0
4.6137176 7.4866362 0.99077904 0
7.9125643 -3.9505699 -0.34922528 0
-3.977036 7.8957281 0.47186983 0
7.9036593 -3.9429395 -0.61361825 0
7.9189262 -3.9560211 0.17809007 0
7.724648 4.2174301 0.97194278 0
7.8485432 4.0991111 0.19671649 0
7.9320507 -3.9337258 -0.25617385 0
7.8437996 4.0964699 -0.48439592 0
7.8951693 4.0190015 -0.25681067 0
7.8361521 4.0922112 0.64818299 0
-3.9688454 7.886508 0.79595876 0
7.9429793 -3.9394081 -0.029917359 0
7.7786717 4.1657791 0.87355328 0
7.9339962 -3.9347372 -0.48473579 0
7.8939338 4.0435753 -0.042054594 0
7.9455323 -3.9407353 0.19653599 0
7.8935795 4.0433941 -0.2507292 0
7.8767056 4.0626707 0.44197518 0
7.8851299 4.0701013 -0.088036835 0
7.9143362 -3.9520881 0.70453417 0
0.67388415 -8.8480482 0.13663027 0
7.8881826 4.0406299 -0.45972776 0
4.6032848 7.5743361 0.46432433 0
7.8994765 4.0464149 0.16532612 0
7.9109983 4.0275216 -0.030595392 0
7.8145828 4.1527567 0.7075702 0
7.7965689 4.1364045 0.97176921 0
7.9110274 4.0275373 0.1963598 0
4.6077175 7.5900154 0.15479131 0
7.8893299 4.0738053 0.17713104 0
7.9431529 3.9767807 -0.087122947 0
7.8877311 4.0723953 -0.35457861 0
7.9381533 -3.9368987 0.64903229 0
7.9087706 4.0263224 0.42299548 0
4.5994058 7.6015358 -0.060996205 0
7.9354281 -3.9354818 -0.71532834 0
4.5997095 7.602375 0.18621942 0
7.8409643 4.0948906 0.87523961 0
7.8814392 4.0668459 -0.62154102 0
7.9113417 4.0277061 -0.48761541 0
7.897759 4.0455346 0.5794946 0
0.67297602 -8.8539038 0.4828732 0
7.8567967 4.1037073 -0.71699047 0
7.8846545 4.0388222 0.7860629 0
7.9089618 4.0512733 0.37211618 0
7.9051228 4.0243592 0.64964569 0
7.88026 4.0658059 0.70709658 0
7.912127 -3.9501951 0.96857494 0
7.9482021 3.981107 -0.35333127 0
4.6000218 7.6032391 0.43319663 0
4.6019878 7.6086745 -0.30979812 0
7.9551859 3.9870908 0.17725658 0
7.9645238 -3.9506097 0.42323768 0
7.9752774 3.9562008 -0.031825155 0
4.5997081 7.6023712 -0.55890173 0
7.9512577 3.9837248 0.44205314 0
7.9752717 3.956198 -0.26043576 0
7.9112997 4.0276837 -0.71877968 0
7.9788046 3.9580348 0.1958814 0
0.67440057 -8.844718 0.82915485 0
4.607172 7.5880861 0.77469903 0
7.9707532 3.9538486 -0.48982257 0
4.5995741 7.6020002 0.68042213 0
7.9644804 3.9505873 0.65058744 0
7.9060135 4.0248384 0.8772881 0
7.8856587 4.0393367 0.99231541 0
7.954669 3.9866478 -0.62186623 0
7.9520721 -3.9441357 0.87754816 0
7.9827576 3.9600899 0.42359638 0
8.0321121 3.8803711 0.19566952 0
7.954093 3.9861543 0.70727801 0
8.0247288 3.9036849 0.17726853 0
7.8869267 4.0716858 0.97388482 0
8.0410852 3.8848746 -0.033195823 0
7.94069 3.9746702 0.97186583 0
8.0316048 3.9094079 -0.088386387 0
7.9797359 3.958519 -0.72323787 0
8.030695 3.9086502 -0.35475504 0
8.0291243 3.9073431 0.4422313 0
8.0492706 3.8889823 -0.26352572 0
-3.9228106 8.0364094 0.14630628 0
-3.9231162 8.0367632 -0.18090433 0
8.0456533 3.8871672 0.42399496 0
8.0780525 3.8494742 -0.049434245 0
-3.9187503 8.0317049 0.47298527 0
8.043438 -3.9192564 0.17684366 0
8.0723553 3.8467591 0.36951539 0
4.6059408 7.6196022 0.93021482 0
8.0393019 3.8839796 0.65249127 0
8.0250092 3.9039185 0.70733666 0
8.0303974 3.9084027 -0.62277132 0
8.0964813 3.8220608 -0.088111848 0
8.0816259 3.8511772 0.15995759 0
8.0482903 -3.9232962 -0.08952409 0
8.0323029 -3.9099891 -0.62307572 0
-3.9214053 8.0347805 -0.50907749 0
8.0513992 3.8900509 -0.49507695 0
7.9838676 3.9606674 0.88068342 0
8.0972748 3.8227022 0.177186 0
8.045145 -3.9206774 -0.35639989 0
8.0398664 3.8842628 -0.72636843 0
8.0287037 3.8786607 0.8809126 0
8.0778561 3.8493807 -0.47171605 0
8.0455904 -3.9210484 0.44260526 0
8.1092072 3.8138154 -0.034751415 0
8.0741425 3.847611 0.57785702 0
8.1089668 3.813699 -0.26529801 0
8.1005211 3.8253262 -0.35485488 0
8.1130352 3.8156683 0.19490194 0
8.0181866 3.8982384 0.97273123 0
8.1069527 3.8127239 0.42438012 0
8.0404396 -3.9167612 0.70838881 0
8.1031189 3.8274262 0.4423452 0
-3.9186504 8.073616 0.15841782 0
-3.9119458 8.0598021 0.57750916 0
-3.9173245 8.0708838 0.36815324 0
8.1008673 3.8256061 -0.6230135 0
8.1143227 3.816292 -0.49800247 0
8.097374 3.8227823 0.70757198 0
-3.9263492 8.0405092 0.80056369 0
8.1077499 3.863626 -0.2638607 0
8.0902805 -3.9095652 -0.036080539 0
8.0805264 3.8506529 0.78606552 0
8.0900211 -3.9094346 0.19453856 0
8.1734991 3.7400107 0.1945156 0
8.1181917 3.8181648 0.65467459 0
8.1736412 3.7445185 -0.35545337 0
8.0996342 -3.9142592 -0.26845574 0
8.0943756 -3.9116206 0.42494652 0
8.0910368 -3.9099445 -0.50052238 0
-8.0672207 3.9873314 0.15670723 0
8.0827408 -3.905781 0.65503848 0
8.1850758 3.7454119 -0.036803693 0
8.1740799 3.7448628 0.44241601 0
8.1825562 3.7515166 -0.089336544 0
8.1193848 3.8187423 -0.73307657 0
-3.9164658 8.0691147 0.78606606 0
8.1837053 3.7447724 -0.26861513 0
8.1764832 3.7414026 -0.50094849 0
-8.0668001 3.9871235 0.36689463 0
0.59123874 -8.9858856 -0.11973104 0
4.5505676 7.7701349 0.18374465 0
8.1108894 3.81463 0.88488501 0
8.1701517 3.7384491 0.65534067 0
8.1870289 3.7550285 0.17669664 0
0.59059918 -8.9890928 0.16661555 0
8.0514336 -3.9259117 0.97651571 0
-3.9127011 8.0613585 0.99466294 0
4.5546846 7.7820473 -0.069133878 0
8.1060295 3.8297794 0.97487456 0
8.0938959 3.8570242 0.99478394 0
0.58197862 -9.0027742 -0.05626601 0
8.1955481 3.7502978 0.42530912 0
8.1829777 3.7518475 -0.62525612 0
0.58909953 -8.9966145 -0.40814215 0
-8.0747728 3.9910643 0.57638741 0
4.5516257 7.7731957 -0.5767082 0
0.58188206 -9.0012808 0.36588383 0
-8.0816727 3.974323 -0.62738204 0
4.5550437 7.7830853 0.43589455 0
8.1824989 3.7442098 -0.73703766 0
0.58238244 -9.0090199 0.15467995 0
0.58863652 -8.9989367 0.45295969 0
8.1837406 3.7524464 0.70881546 0
4.5574594 7.7900748 -0.32346195 0
0.59131479 -8.9855032 -0.69635296 0
8.1051178 -3.9170115 -0.73793173 0
-8.1044922 3.9810393 -0.25288087 0
4.5520887 7.7745361 0.68811738 0
0.58178347 -8.9997549 0.57612491 0
-8.0708828 3.9891417 0.78606701 0
-8.1123486 3.9833517 0.12218246 0
0.59056699 -8.989254 0.7393111 0
-8.1009655 3.9800014 0.49701044 0
8.1034126 -3.9161561 0.88822573 0
8.1803703 3.7498014 0.97560185 0
8.1913166 3.7483237 0.88875002 0
8.1727009 -3.8945775 -0.059220612 0
8.1691027 -3.892863 0.36452606 0
0.58204168 -9.0037489 0.78606755 0
-3.8750439 8.1879597 0.14483158 0
8.1671524 -3.8919332 -0.48561728 0
-3.8749685 8.18787 -0.18530133 0
8.1836205 -3.892504 -0.093984187 0
-8.0764046 3.9918706 0.99578953 0
8.1788731 -3.8975186 -0.27306867 0
8.2797813 3.6886022 -0.091349632 0
8.1851263 -3.8937213 0.17521414 0
8.1829443 -3.8994586 0.15211135 0
4.541275 7.8332987 0.46839583 0
8.2763023 3.68595 -0.35942274 0
4.5443878 7.844944 0.15079378 0
-3.8738785 8.1865702 0.47453678 0
-8.1025906 3.98048 0.87217712 0
8.2832079 3.6912134 0.17605023 0
8.1718359 -3.8941653 0.57534087 0
8.2845402 3.6863587 -0.27450895 0
8.2867956 3.6873717 0.19309999 0
4.5576267 7.7905583 0.94290674 0
4.5345078 7.8539815 0.36360577 0
8.1892147 -3.8970263 -0.36483294 0
8.1865082 -3.8948386 0.44421691 0
8.2848186 3.6864831 0.4262622 0
0.58211142 -9.0048285 0.9961288 0
-3.8795428 8.193326 -0.51726985 0
8.1666708 -3.8917041 0.78606826 0
8.2965584 3.6917577 -0.040945441 0
8.2869606 3.6940734 0.44343215 0
8.1840191 -3.8928258 -0.63614208 0
4.5419087 7.8668008 0.15076643 0
8.2888508 3.6882951 -0.5107789 0
8.2821245 3.6852734 0.65951622 0
8.2785053 3.6876295 0.71066558 0
8.3161898 3.6740501 0.15021968 0
8.2862148 3.6935046 -0.63089985 0
8.2841206 3.6861699 -0.74784529 0
8.191021 -3.8984864 0.71388292 0
8.3174763 3.6746182 0.36248705 0
8.3240433 3.6775196 -0.063606858 0
8.3205357 3.6759701 -0.27731359 0
8.2754097 3.6822565 0.89303315 0
4.544867 7.846736 0.78690362 0
4.5361433 7.8568149 0.78606898 0
8.3178988 3.6748052 -0.49214113 0
-3.883554 8.1981096 0.80540168 0
8.3145027 3.6733048 0.57446849 0
4.5456562 7.8732915 0.57443321 0
8.276495 3.6860974 0.97884399 0
8.1850805 -3.8936846 0.98376787 0
8.182044 -3.8990297 0.99705982 0
8.2514343 -3.8826668 -0.043032676 0
8.2391605 -3.8767252 -0.51503211 0
4.533289 7.8518705 0.99712962 0
8.2517157 -3.8828032 0.19221252 0
8.3206787 3.6760333 -0.70921755 0
8.2334976 -3.8739836 -0.75315654 0
8.2591667 -3.8864102 -0.27989763 0
8.3238802 3.6774478 0.78606981 0
8.2462654 -3.8801646 0.66213173 0
8.2593822 -3.8865144 0.42733616 0
8.3246384 3.6777828 0.99792898 0
8.2490654 -3.8815203 0.89831579 0
4.507885 7.9705143 -0.33703178 0
8.4058247 3.6456091 0.17481667 0
4.5085473 7.9725227 0.43876788 0
4.5120654 7.9831944 -0.078407377 0
8.4146948 3.6521714 -0.095857352 0
8.3213539 -3.8604739 0.17371586 0
8.4101582 3.6488149 -0.36683685 0
8.4080029 3.6472204 0.44463062 0
8.4193325 3.6404972 -0.28368264 0
-3.8269339 8.3429623 0.14328079 0
8.4184713 3.6401248 0.42807078 0
4.5078135 7.9702978 0.69709575 0
8.404892 3.6449201 -0.63897067 0
4.5101261 7.9773116 -0.59882414 0
8.3241262 -3.8626502 -0.37219107 0
8.3309155 -3.8679793 -0.0992212 0
8.4296427 3.6449525 0.19111682 0
4.5169744 7.9980855 0.18016233 0
-3.8316183 8.3487148 -0.19035244 0
8.4344807 3.6470435 -0.046615064 0
8.329895 -3.8671787 0.44587368 0
-3.8303514 8.3471584 0.47621369 0
8.4281616 3.6443124 -0.52425426 0
0.47269356 -9.1852856 0.13025674 0
-3.8301229 8.3468781 -0.52487195 0
8.4232788 3.6422026 0.66537559 0
8.4178915 3.6398742 -0.7642771 0
8.3238449 -3.8624289 0.71815014 0
0.47305715 -9.1831436 0.48910534 0
4.5090389 7.9740133 0.95675415 0
8.3344326 -3.8707402 -0.64889777 0
8.4249153 3.6597321 0.71592367 0
0.47532523 -9.1697845 0.84764361 0
-3.8320317 8.3492222 0.8097868 0
8.4126406 3.6506517 0.98650712 0
8.4330311 3.6464167 0.90438819 0
8.32726 -3.8651097 0.9919396 0
8.4044552 -3.8477633 0.19006708 0
8.4028225 -3.8470016 -0.28976917 0
4.4735422 8.0969791 0.14684638 0
8.4048262 -3.8479364 0.42934006 0
8.4204092 -3.8552065 -0.050413221 0
-8.3982906 3.9034681 -0.26656282 0
-3.803 8.4437332 0.35468414 0
-8.405674 3.9055271 0.11763468 0
8.4167824 -3.8535142 -0.53350669 0
4.4767165 8.1095753 0.47278038 0
-3.808629 8.4562302 0.13744581 0
-3.802074 8.4416771 0.57054842 0
8.4059858 -3.8484774 -0.7760973 0
8.5478029 3.6113865 0.17316557 0
8.5438137 3.6085231 -0.37421131 0
8.5497589 3.6127903 -0.10036254 0
8.5412884 3.6067107 0.44609448 0
0.40912044 -9.2760496 0.16106878 0
8.4217005 -3.855809 0.66988796 0
-8.410717 3.9069335 0.50185674 0
-8.4049091 3.9053135 -0.65290451 0
4.4754038 8.1043663 0.79905742 0
-3.8059692 8.4321404 0.89332741 0
8.4686232 -3.8325236 0.17198102 0
8.5767126 3.6007445 -0.052532107 0
8.5440483 3.608691 0.71939421 0
0.40773451 -9.2825165 0.45844668 0
8.4180784 -3.8541191 0.91064203 0
0.40629864 -9.289217 -0.4364509 0
4.4593077 8.1690264 0.1776302 0
4.4599118 8.1709509 -0.086937338 0
4.4580498 8.1650181 -0.35189569 0
-3.809762 8.458746 0.78607482 0
8.5831566 3.6034203 0.1889323 0
8.4806995 -3.841727 -0.10458869 0
8.5565462 3.6176627 -0.65204877 0
8.5841274 3.6038239 -0.29570663 0
-8.4102135 3.9067931 0.88661158 0
8.4798069 -3.8410475 -0.38180846 0
-3.7798686 8.5034304 0.47778964 0
0.40828121 -9.2799664 -0.73631179 0
-3.7874188 8.5129776 0.14139792 0
8.4789629 -3.8404038 0.44764593 0
-8.4691582 3.8877985 0.13433206 0
0.40135431 -9.3122883 -0.1384986 0
8.5870171 3.6050236 0.43054071 0
8.5826073 3.6031923 -0.53974605 0
4.4613781 8.1756229 0.44189051 0
8.5410595 3.6065462 0.99331474 0
-3.7930694 8.5201235 -0.19609427 0
0.40573812 -9.2918329 0.7568022 0
8.4789438 -3.840389 -0.66065311 0
-3.7880106 8.5137262 -0.53395087 0
4.4614553 8.175869 -0.62020218 0
-8.4782438 3.8919694 0.35150713 0
-8.4723377 3.8892581 0.56906044 0
8.5902424 3.6063631 0.67269993 0
8.5721264 3.59884 0.9139697 0
-3.7827983 8.5071354 0.81462651 0
8.588378 3.6055887 -0.78702211 0
4.4418964 8.2301416 0.1319955 0
8.4940853 -3.8519294 0.7248708 0
4.4669967 8.1935225 0.70757723 0
-8.475852 3.8908715 0.78607625 0
4.4436641 8.2334166 0.35024324 0
4.4630847 8.1810589 0.97276664 0
4.4446034 8.235158 0.56823212 0
8.5732059 -3.8160372 -0.056839645 0
4.4421306 8.2305756 0.78607702 0
8.6744385 3.5631526 0.44755328 0
8.5779457 -3.8181665 0.1875287 0
8.5810318 -3.8195529 -0.30294567 0
8.6904297 3.5742877 0.17150661 0
8.6923466 3.5756228 -0.10533977 0
0.3370353 -9.3935051 -0.091547132 0
8.5740404 -3.8164122 -0.5491668 0
8.5810823 -3.8195758 0.43193135 0
0.33693063 -9.3905878 0.34835312 0
8.5630989 -3.8114967 -0.79628479 0
8.6806316 3.5674646 0.72399163 0
0.33750254 -9.4065266 0.12778193 0
8.7001848 3.5810812 -0.38399607 0
0.33715367 -9.3968039 0.56718951 0
8.6913624 3.5749376 -0.66253656 0
8.5848598 -3.8212724 0.67690921 0
8.7232857 3.5584438 -0.093564212 0
8.7190647 3.5567219 -0.31473911 0
8.6203117 -3.8084095 0.12697619 0
8.7264528 3.5597358 0.12694305 0
8.6179247 -3.8073552 -0.31531131 0
8.7315903 3.5559857 -0.059166461 0
8.6224766 -3.8058765 -0.38994235 0
8.7321167 3.5561953 -0.30612898 0
8.6295013 -3.8110731 -0.10986027 0
8.6247749 -3.8103817 0.34684685 0
8.5813007 -3.8196743 0.92237163 0
8.6334887 -3.8142312 -0.095183849 0
0.33732149 -9.4014816 0.78607857 0
