# .PCD v0.7 - Point Cloud Data file format
VERSION 0.7
FIELDS x y z intensity
SIZE 4 4 4 4
TYPE F F F F
COUNT 1 1 1 1
WIDTH 1462
HEIGHT 1
VIEWPOINT 0 0 0 1 0 0 0
POINTS 1462
DATA ascii
5.0209465 5.8360167 1.6509371 0
5.6087089 5.2387376 1.7586269 0
5.0927787 5.783546 1.6168394 0
6.8711085 -3.7047937 1.0315888 0
7.809516 -0.20835751 -0.98519909 0
4.3881345 6.4634461 -0.98604715 0
5.3758016 5.4763322 1.7655697 0
4.4494963 6.3902998 1.1717584 0
4.8975096 5.9611936 1.5766606 0
4.3898335 6.4669881 0.96103239 0
4.1139669 6.7167611 0.098938346 0
6.6580329 4.1987195 0.3014586 0
4.585474 6.255342 1.3767388 0
4.4625273 6.4164963 -0.98384678 0
-3.7848415 6.8707905 0.72623849 0
6.2051139 4.6636906 1.3451252 0
6.6750851 4.1820903 0.13265431 0
4.368371 6.4937677 0.90404081 0
-3.7770448 6.8547273 0.90402758 0
6.3253679 4.5183702 1.2834072 0
4.2033873 6.6626525 0.14525127 0
5.9187016 4.9641104 1.5515316 0
5.5554953 5.3033972 1.7616277 0
4.5789838 6.2635641 1.3796213 0
6.4497633 4.4246478 -0.96295023 0
4.3185949 6.5215893 0.96269882 0
4.1897411 6.6670141 -0.33782578 0
5.6703663 5.1837034 1.7588556 0
4.6495833 6.2130961 1.3779314 0
6.5283656 4.3591394 -0.70630789 0
6.5063181 4.3560414 0.90404439 0
6.0784326 4.7734947 1.5492706 0
4.115921 6.7215157 -0.12024009 0
4.4146686 6.4348693 1.1127605 0
6.5757656 4.3150783 0.52848554 0
6.5874877 4.2724619 -0.70249474 0
6.5626264 4.3059287 0.73346841 0
4.7681484 6.0754356 1.5825338 0
4.1448221 6.7007651 0.28573155 0
4.2551427 6.5950747 0.74950886 0
6.0281367 4.8395667 1.550549 0
5.5003386 5.3663726 1.7643142 0
4.1863031 6.6589785 -0.55781639 0
4.2545605 6.5937662 -0.77502787 0
7.8212972 0.20691717 -0.98793912 0
6.6838641 4.1844044 -0.090923786 0
6.3861012 4.5076089 1.0525732 0
5.2004013 5.6583648 1.7742441 0
6.6560922 4.1966867 0.54989219 0
6.0773683 4.7790561 1.5634825 0
4.6977081 6.1646628 1.4657352 0
5.7305975 5.1271095 1.7588692 0
6.5677862 4.3095217 -0.71703446 0
6.6000948 4.2860537 0.55035841 0
6.6143208 4.2394199 -0.71678758 0
6.6796999 4.1847992 0.32586074 0
5.4736848 5.3709683 1.8523707 0
6.685586 4.1882539 -0.063192546 0
4.1166716 6.7233405 0.31674373 0
-3.7676082 6.4444118 2.5548038 0
5.1395426 5.7170181 1.7769818 0
5.6617317 5.1783481 1.8404906 0
6.6716051 4.2129383 0.051642776 0
6.6280894 4.2487183 0.52858365 0
6.012516 4.8644485 1.5681887 0
5.0769157 5.7737403 1.7793968 0
6.6883917 4.1873684 0.11594653 0
4.2015562 6.6600299 0.52561831 0
6.3025498 4.5674858 1.304518 0
6.6304941 4.2503424 -0.50830972 0
4.1944733 6.6780715 0.3169471 0
6.676312 4.17946 -0.50813621 0
6.4506516 4.4256625 1.0508358 0
5.9976997 4.8562679 1.6577122 0
6.6927295 -3.7060733 1.9436197 0
6.2667108 4.6066518 1.3469386 0
6.5078664 4.3700809 -0.92831767 0
-0.6800015 7.8025994 -0.98714995 0
4.8433056 6.0169554 1.6334548 0
6.6658206 4.2068782 -0.44963825 0
5.1786003 5.6691098 1.8379426 0
5.5080585 5.3491974 1.8400805 0
6.3914852 4.4924359 1.1432645 0
4.1911163 6.6702271 0.53430378 0
5.791039 5.0707035 1.7592206 0
4.5377092 6.3338742 1.279593 0
4.5152721 6.3281016 1.3839865 0
4.1842499 6.6541805 0.75086188 0
5.346487 5.5125179 1.8391652 0
7.8291273 -0.29421526 -0.98743248 0
6.6885233 4.1899781 -0.25944376 0
6.5095425 4.371284 0.93899226 0
4.1959877 6.6520567 0.7151587 0
-3.768393 6.6707144 1.9153128 0
6.620295 4.2434545 0.73410916 0
5.5544424 5.3016343 1.8488879 0
6.5578399 4.3025956 -0.92874336 0
7.8274798 -0.38235253 -0.98501873 0
4.1199636 6.7313495 -0.34179634 0
4.8621969 6.0028915 1.6524756 0
6.8503742 -3.6988506 1.3442924 0
6.6915841 4.1894584 -0.30048031 0
-3.7789197 6.6531043 1.9688058 0
6.7344279 4.1311221 0.052432895 0
4.2373514 6.6148891 0.8431474 0
4.708519 6.1427813 1.5880356 0
6.7334099 4.1300859 -0.19729871 0
6.3221083 4.5443082 1.3476486 0
6.4441552 4.4273596 1.1436381 0
6.178463 4.7005877 1.4723611 0
6.7794218 -3.703187 1.6624527 0
5.9037423 4.9497285 1.7580748 0
6.7419057 4.1211414 -0.092193723 0
5.3324966 5.5558929 1.7737756 0
7.8318696 0.38194299 -0.98603654 0
6.5368814 4.368588 0.80093634 0
6.5168614 4.346375 1.0494971 0
6.6833525 4.1869431 0.51874018 0
4.5017109 6.3472657 1.3835626 0
4.3253126 6.5204029 1.1172092 0
5.079195 5.756237 1.8816197 0
6.8669415 -3.7010109 1.2753339 0
6.4938083 4.3599896 1.1436937 0
6.6597009 4.2004671 -0.70202804 0
5.1629591 5.6847696 1.8765817 0
6.1968865 4.6568422 1.5520012 0
6.7400904 4.1199894 0.3224113 0
5.7795949 5.073071 1.8350322 0
5.0209255 5.8409348 1.7849493 0
6.5975018 4.2832584 0.79977965 0
6.6958804 4.1922712 0.32237649 0
6.686728 4.1862793 0.52883244 0
4.7593775 6.0982342 1.6399369 0
7.8399096 0.29305339 -0.98993611 0
6.1556654 4.7122664 1.5626442 0
5.3266792 5.5393162 1.8666198 0
4.0203905 6.8086991 0.14354289 0
4.0456624 6.7867885 -0.34470248 0
5.7087936 5.1545653 1.8406751 0
4.1881752 6.6633534 -0.78226411 0
5.6353726 5.2334981 1.8459129 0
5.2467604 5.614902 1.8721209 0
4.0485311 6.7940617 -0.12392503 0
6.7480555 4.1250429 0.11508775 0
6.5667562 4.308804 0.93992364 0
5.4067774 5.4656343 1.8617551 0
6.3768444 4.4967275 1.3037212 0
5.9632092 4.8922505 1.7589118 0
4.2565756 6.5982952 0.96656942 0
4.1204615 6.7325602 0.53483009 0
7.8362212 0.46938816 -0.98530591 0
4.148757 6.7133021 0.5658977 0
5.018796 5.8337226 1.8388212 0
6.5115118 4.359293 1.0952532 0
6.1519079 4.72751 1.5541847 0
4.6897964 6.1551881 1.652765 0
5.8577137 5.0203786 1.7618556 0
4.3752327 6.503015 1.0925467 0
6.5316443 4.3627772 -0.96453011 0
4.3200703 6.5247812 1.1797743 0
4.6455822 6.2058501 1.5927351 0
6.747508 4.1246953 -0.30194426 0
4.3943148 6.4763298 1.1782758 0
-0.58001184 7.8316436 -0.98613691 0
4.052578 6.7930303 0.28466272 0
6.7417727 4.1385994 0.30119574 0
4.6723332 6.1750717 1.6458268 0
6.6819334 4.1861105 0.71153569 0
-3.7746363 6.4878378 2.5204422 0
4.0517139 6.8021312 0.096006989 0
6.5512061 4.297976 1.1450524 0
4.4536896 6.3987293 1.3895602 0
4.3615389 6.4845605 1.2801859 0
4.0501871 6.7982597 0.31596422 0
4.8978329 5.9617076 1.7928519 0
6.7408195 4.137629 -0.44993573 0
4.1239109 6.7409511 -0.56596661 0
6.7169123 -3.6963789 1.9970379 0
4.9646397 5.9089694 1.7909033 0
6.4960546 4.3496141 1.2858193 0
-3.7785678 6.8185282 1.4150994 0
5.6644812 5.1773586 1.9706621 0
6.3876019 4.4894762 1.3505404 0
4.5345039 6.3298044 1.4675171 0
4.1171412 6.7244835 -0.78788078 0
5.3752089 5.4755931 1.9805193 0
6.2304702 4.6413341 1.5611811 0
5.8411541 5.0275764 1.8454883 0
5.0039129 5.8471527 1.8910756 0
6.6892304 4.1879177 -0.7233696 0
6.805089 4.0576377 -0.19723517 0
6.4471927 4.4217119 1.302392 0
4.1190796 6.729198 0.7531662 0
4.0212126 6.8099513 0.52454758 0
6.7335048 4.1158113 0.73540914 0
5.8618841 5.0096235 1.8338356 0
5.9316192 4.9288225 1.8287644 0
-3.7881646 6.8776379 1.0819952 0
6.8063264 4.0612903 -0.094200969 0
4.8343143 6.0203357 1.7966361 0
6.6267242 4.2477961 0.94123173 0
6.5995197 4.2854338 -0.96233749 0
5.436944 5.4199286 1.9793992 0
6.8030124 4.0592537 0.32204127 0
7.8478146 -0.55629349 -0.98654115 0
6.0290203 4.8403687 1.7619743 0
6.7332001 4.1298723 -0.70209348 0
7.0126991 -3.6975172 -0.18899602 0
6.7421699 4.1390038 0.55021405 0
6.6927099 4.1901956 0.73572385 0
4.2357206 6.6099415 1.122124 0
6.3413019 4.5289955 1.4749448 0
6.7274361 4.1240039 0.79844403 0
7.8554358 -0.46787247 -0.98975575 0
4.2044992 6.6642442 0.90404212 0
6.8643265 3.9732282 0.053413153 0
5.4980593 5.3636937 1.9783738 0
6.8114643 4.0639453 0.052077055 0
4.5839443 6.2728586 1.5984659 0
7.8444691 0.64411902 -0.98460972 0
6.6316156 4.2510991 -0.93606627 0
6.4429002 4.4264312 1.3515484 0
6.7533908 4.1284275 0.5292635 0
4.2533484 6.5910425 1.1837997 0
4.147541 6.7094274 0.8464222 0
6.8119245 4.0647302 0.1139226 0
6.2678995 4.6076126 1.5566046 0
7.0170193 -3.7013276 0.057180643 0
4.0537133 6.7968359 0.56680644 0
5.3215556 5.5418525 1.985528 0
5.5588818 5.3072643 1.9775758 0
6.1759186 4.6987834 1.6624713 0
4.3883715 6.4639397 1.3942995 0
7.023046 -3.6950731 -0.094912648 0
6.6629806 4.2039032 -0.9592489 0
6.8059301 4.0584702 -0.44869363 0
4.0513177 6.801126 -0.57051229 0
7.01091 -3.6959393 -0.43669242 0
4.5154419 6.3284297 1.6018472 0
7.0160737 -3.7004936 0.30298197 0
7.8501267 -0.64383537 -0.98591757 0
4.0526352 6.8044672 0.53555214 0
4.7721643 6.0822415 1.8015118 0
4.0336199 6.8288488 0.33270502 0
6.758688 4.1317883 -0.51501274 0
5.1764698 5.6669641 2.0265448 0
-3.7820759 6.8650928 1.2595055 0
4.1917186 6.6716347 0.97018075 0
6.3210955 4.5435133 1.5569286 0
6.515635 4.3450141 1.3009329 0
6.6773248 4.2189307 0.80019116 0
5.2624226 5.6017818 1.9886155 0
5.8406835 5.0035305 1.9700439 0
5.7311354 5.1276736 1.9732056 0
7.0210624 -3.6940417 -0.30467087 0
5.7864442 5.0660257 1.9716477 0
6.682457 4.1834831 -0.93719673 0
3.9805074 6.8683934 -0.12784761 0
6.684741 4.187758 0.90404618 0
7.8584638 0.5556066 -0.98900473 0
6.8517804 -3.6996076 1.5533702 0
5.6651678 5.1812596 2.0306664 0
6.776825 -3.7018571 1.8532648 0
4.4200306 6.4496922 1.3918796 0
6.7477617 4.1248565 -0.72629225 0
5.6202374 5.2515287 1.9773297 0
5.2022409 5.6608701 1.9916739 0
6.8626704 3.9958494 0.1135149 0
6.3053684 4.5708966 1.5600212 0
7.8475046 -0.73149449 -0.98444402 0
6.0039577 4.8609815 1.8485873 0
3.98209 6.8725796 0.093877316 0
3.9801192 6.8673663 0.3152796 0
6.6030712 4.2892632 1.050899 0
6.8557329 4.0108995 0.12588084 0
6.0910158 4.7845931 1.7640538 0
5.077456 5.7745223 1.997076 0
4.0469751 6.7901173 -0.79462004 0
6.8167782 4.0692019 0.3011297 0
7.8496618 0.7314173 -0.98494244 0
6.0786085 4.7806959 1.8224649 0
4.1987524 6.6560163 1.0930374 0
4.926569 5.9369779 1.9004669 0
6.8186584 4.0688682 -0.30572385 0
-0.48335552 7.8706303 -0.98745167 0
6.8088884 4.0613966 0.55007648 0
7.013103 -3.6978734 0.54834878 0
6.3705344 4.4893098 1.5567503 0
6.8677979 3.9989002 -0.095978618 0
6.8099618 4.0635242 0.52950108 0
4.7087193 6.1431332 1.8063157 0
6.0132256 4.8654151 1.828074 0
6.6893826 4.1880174 0.94290066 0
6.8111959 4.0642824 -0.51640397 0
6.1460414 4.7224832 1.7642334 0
7.0065355 -3.6920807 -0.68580866 0
4.0503054 6.7985601 0.7551918 0
4.867651 6.0090551 1.8420773 0
4.8406091 6.0108957 1.9066508 0
6.8762145 3.9846575 -0.19723207 0
5.9023385 4.948379 1.9715531 0
6.6649246 4.2059398 1.0492983 0
6.7982283 4.0563135 0.73663473 0
5.514636 5.3551021 2.0307827 0
6.8556376 3.9916649 0.52953422 0
7.036016 -3.7018168 0.11307454 0
4.5934372 6.2755294 1.6559179 0
6.8698354 -3.7036378 1.522294 0
5.3531208 5.518827 2.029727 0
6.8664002 3.9980686 0.32164705 0
6.5054097 4.3683176 1.3541291 0
-3.7832909 6.9946027 -0.0035365224 0
6.8600674 4.0132794 -0.26814711 0
4.6415806 6.1986032 1.8098924 0
3.9790802 6.8646169 0.53606904 0
6.6751127 4.182107 1.0963724 0
5.1460218 5.7261128 1.9970107 0
4.0283785 6.8208652 0.71409428 0
4.9533305 5.8915596 2.0046134 0
4.1432147 6.6956439 1.1267829 0
6.9158306 3.928081 0.11290455 0
-3.7812991 6.992424 0.28278887 0
3.9787798 6.8638229 -0.57563686 0
6.6265688 4.2476912 1.1491919 0
5.0166693 5.8314538 2.0275891 0
-3.7818589 6.9930367 -0.29067457 0
3.9608932 6.8938012 0.28341997 0
6.861764 4.0142107 0.32068086 0
4.5321455 6.3268089 1.6559405 0
7.8533702 -0.81880653 -0.98522079 0
4.4524698 6.3962765 1.6080832 0
4.1221876 6.7367587 0.97308183 0
6.2029915 4.6619239 1.7652574 0
4.3286295 6.5300002 1.3974342 0
7.03725 -3.7024581 0.32155192 0
3.9573913 6.8814144 0.56775522 0
6.3849473 4.487453 1.5600791 0
4.3240881 6.5334735 1.3999255 0
5.8316383 5.0199723 2.0343299 0
6.5879831 4.2729964 1.3004012 0
6.1533689 4.7093201 1.8203101 0
4.5027981 6.3501425 1.6617703 0
5.962183 4.8912921 1.9726701 0
6.8069849 4.0616946 -0.72955418 0
6.8706875 4.0191092 -0.072244406 0
4.6935606 6.1596966 1.8421643 0
6.8564081 4.01127 0.51577234 0
7.0295572 -3.6984584 0.5296967 0
6.864965 3.9972146 -0.51819474 0
3.9858708 6.8825822 -0.35302997 0
6.8824267 3.9906299 0.30126691 0
6.7449532 4.1230745 0.94390941 0
3.9086065 6.935833 0.092103958 0
6.8730421 3.9816082 0.54990578 0
5.3988371 5.4517298 2.1276259 0
7.0087771 -3.6940582 0.79364336 0
6.9188561 3.9298232 -0.30756736 0
7.8592319 0.8186807 -0.98657429 0
5.7024317 5.1447716 2.1035895 0
4.192852 6.6475677 1.2817581 0
4.1897545 6.6670442 1.1892297 0
4.0235357 6.8134899 0.90404272 0
7.8410997 -0.99363732 -0.98209882 0
7.0337687 -3.7006481 -0.51870114 0
6.7389383 4.1357141 -0.95999765 0
6.8799181 3.9882185 -0.44917488 0
4.8937044 5.9551477 2.010361 0
6.4436431 4.4176588 1.5557249 0
4.0558672 6.8040586 0.84975863 0
5.2414861 5.6050186 2.1410475 0
6.8145914 4.067039 -0.70414305 0
5.0258179 5.8482356 2.0056205 0
4.2334208 6.6029658 1.4021831 0
6.8805742 4.0065017 -0.30826676 0
3.9766145 6.8580942 -0.80201924 0
3.9088497 6.9365048 0.31457913 0
-3.7715893 6.8111119 1.7003508 0
6.9142413 3.9271662 0.52984834 0
7.8561831 0.90625471 -0.98558116 0
6.168663 4.6936383 1.8525891 0
3.978847 6.8640008 0.75704193 0
6.4419498 4.4257283 1.5617352 0
4.759944 6.0995584 1.9161754 0
5.3239584 5.5343895 2.1358013 0
-3.7817459 6.9929128 -0.57966375 0
6.3438463 4.5306931 1.6664975 0
4.3738756 6.5011859 1.4702179 0
3.9120355 6.945312 -0.13208145 0
4.0499887 6.7977576 0.97567248 0
-0.38414145 7.9019933 -0.9874928 0
6.5103216 4.3585477 1.4784033 0
3.9543934 6.87081 0.85163486 0
6.9274182 3.9347529 0.32128608 0
4.8533039 5.9928422 2.0288973 0
7.8609667 -0.90622044 -0.98668563 0
5.5595055 5.3099408 2.1182859 0
6.8624344 3.9957089 0.73787069 0
4.8318262 6.0162549 2.0155492 0
5.6352768 5.2333455 2.1124651 0
6.814517 4.0669656 0.79954791 0
4.117867 6.7262492 1.1925192 0
6.2672453 4.6070838 1.7686968 0
6.7397919 4.1365829 1.0494952 0
6.8028369 4.0591459 0.94524252 0
6.7592945 4.1321731 -0.94569039 0
6.951539 3.9155734 0.052174091 0
4.583786 6.272563 1.8185329 0
3.9074507 6.9326377 -0.58194065 0
3.8622608 6.9765658 0.28248346 0
6.5739198 4.3137927 1.3580036 0
4.4144979 6.4343977 1.6694355 0
-3.7886643 7.0004797 0.56880152 0
5.1658306 5.6903415 2.1503794 0
-3.7874804 6.8762279 1.4385929 0
6.9391527 3.9415092 -0.098829925 0
7.0328913 -3.700192 0.7381407 0
3.9127283 6.947228 -0.35735959 0
-3.7815852 6.6558571 2.2593527 0
6.2318969 4.6431117 1.819684 0
4.3900003 6.4673367 1.6151643 0
6.4985147 4.363368 1.5634823 0
6.3208189 4.5432963 1.7691948 0
5.4875455 5.3944554 2.1264727 0
7.859901 0.99377191 -0.98643959 0
6.9512191 3.9152739 0.30130017 0
4.5148616 6.3273044 1.8223341 0
6.9537663 3.9176538 -0.19812441 0
6.2968097 4.5605388 1.8152053 0
7.0362153 -3.7019203 -0.73387027 0
5.786798 5.0838199 2.1025705 0
6.0000868 4.8580661 2.0390873 0
4.7692418 6.0772891 2.0209477 0
6.0845838 4.7789202 1.9767163 0
7.8505287 -1.0811324 -0.98456466 0
7.0145817 -3.6991775 -0.9405055 0
6.9291768 3.9357655 -0.52205551 0
3.8552144 6.9860306 0.33012867 0
3.9108915 6.9421501 0.53692555 0
6.6980424 4.1936865 1.152828 0
6.8723836 4.0016284 -0.73439074 0
-3.7794991 6.9208865 1.2669251 0
6.8579159 -3.6928179 1.7683866 0
5.0853763 5.7686639 2.1581204 0
6.6648364 4.2058477 1.3008633 0
6.6270781 4.248035 1.3590567 0
6.8679848 4.0176258 0.70970821 0
3.8596127 6.9931684 0.13707054 0
3.8368378 7.0070682 0.089838266 0
3.8367028 7.0066781 -0.13494569 0
3.905859 6.928237 0.75887263 0
5.8610387 5.0084004 2.0978189 0
-3.7763548 6.8533058 1.6153064 0
4.2618942 6.6102486 1.4069309 0
6.0360541 4.8467541 1.979146 0
4.3624535 6.4857926 1.6581116 0
6.1399651 4.7172766 1.9770784 0
6.6833925 4.1869664 1.2893553 0
6.9517722 3.9157908 -0.44946128 0
5.9319253 4.9292521 2.0922611 0
6.8047948 4.0573468 1.0485988 0
6.8795528 3.9878671 0.79909372 0
4.3204951 6.5257001 1.6196721 0
3.9050651 6.9260416 -0.80958271 0
-3.7781057 6.9889317 -0.8703022 0
6.8545589 4.0102544 0.90404797 0
5.0030475 5.8453484 2.1656847 0
6.8871098 3.9951322 -0.70441413 0
6.3775034 4.4817801 1.7708569 0
6.8600478 -3.7040575 1.7672172 0
7.8592839 1.0813204 -0.98658633 0
6.7203636 -3.6996033 2.2506843 0
6.9933038 3.8734505 0.11078215 0
3.8329592 6.9958467 0.53735566 0
6.7833014 -3.7051742 2.0464158 0
3.9795585 6.8658829 0.97901273 0
-3.7824616 6.9936957 0.85487199 0
6.7274714 4.1240401 1.2989969 0
-3.7747598 6.6795168 2.2559671 0
5.5116844 5.3524528 2.2210455 0
6.9521065 3.9161031 0.55012095 0
4.3239112 6.5163474 1.6768889 0
4.532033 6.3266659 1.8454318 0
5.3498726 5.515738 2.2197256 0
7.8509932 1.1686304 -0.98525 0
4.0548725 6.8007221 1.1333117 0
4.189414 6.6662493 1.4104688 0
6.7534165 4.1284437 1.1542034 0
5.1837769 5.6743236 2.2184463 0
4.1434555 6.6964111 1.4097221 0
4.0303602 6.8238831 1.0940762 0
3.8575919 6.9898887 0.52156854 0
-0.28521156 7.934433 -0.98803985 0
6.873281 3.9818375 -0.95752525 0
7.0167041 -3.7010496 1.040863 0
6.8236856 4.0719581 -0.95093703 0
4.6817408 6.197957 1.9279335 0
3.8396425 7.0151839 0.31368721 0
6.8678513 3.9989319 0.94738388 0
7.8429556 1.255805 -0.98425996 0
6.3352137 4.5249357 1.8574567 0
6.5627341 4.3060036 1.5672379 0
7.0018339 3.8782005 -0.10087264 0
6.9872279 3.8700669 0.53046584 0
4.7106228 6.1464658 2.0290923 0
7.0354657 -3.7015307 -0.95134258 0
3.8402729 7.0170074 -0.3624711 0
6.5900221 4.2751942 1.5544848 0
6.9992847 3.876781 0.32069314 0
5.0180025 5.8328757 2.2182829 0
4.4535465 6.3984408 1.830591 0
6.9998808 3.8771129 -0.31303537 0
7.8606381 -1.1689756 -0.98747814 0
4.0520325 6.8029385 1.1982341 0
4.2002306 6.6581316 1.4720306 0
6.9342093 3.938663 0.73960686 0
6.0113235 4.8628244 2.0905771 0
5.6789389 5.1929274 2.2245288 0
6.533422 4.3647494 1.5589042 0
6.2047391 4.6633782 1.9810202 0
7.0270686 3.84637 0.051719189 0
6.0796771 4.7821083 2.0850658 0
4.9244604 5.9324155 2.1761408 0
6.6915221 4.1894178 1.3624156 0
3.8556621 6.9867578 0.71299553 0
6.8280096 4.0803137 -0.96459019 0
5.8338203 5.0217156 2.2263045 0
6.3781004 4.4982038 1.8160725 0
6.4409275 4.4249721 1.7746911 0
3.8673706 6.9956827 0.56926179 0
6.9392514 3.941566 -0.73971057 0
4.6996002 6.1669292 2.0333705 0
6.5146227 4.3612413 1.6713023 0
7.8412027 1.3432801 -0.98501146 0
4.5941682 6.2773833 1.9358957 0
6.8783722 4.0051913 -0.95376444 0
6.7403064 4.1201267 1.3629649 0
3.76333 7.0770421 -0.13872492 0
6.9569683 3.9206455 -0.70432973 0
4.255641 6.5961957 1.6269445 0
3.7652359 7.0720921 0.28129518 0
3.8390222 7.0133886 -0.5903852 0
6.796526 4.0491667 1.2984693 0
6.2143273 4.6212182 2.074873 0
7.0455627 -3.7067804 0.94853282 0
4.7502394 6.0768781 2.1902628 0
7.0291319 3.848243 0.30109239 0
7.0275631 3.8302944 0.51268137 0
7.0367861 3.8350189 0.3157419 0
7.0245881 3.8441184 -0.45007646 0
6.2618337 4.6027093 1.9825382 0
6.1719131 4.6959429 2.0451403 0
4.0262213 6.8175802 1.2839639 0
-3.7757649 6.4553561 2.9004283 0
3.8356347 7.0035882 0.76136863 0
6.8803554 3.9886386 1.0491345 0
7.0430231 3.8382137 0.11799026 0
3.7635441 7.077692 0.31307828 0
4.6492853 6.2125564 2.0364861 0
7.0026298 3.8786438 -0.52772099 0
4.8412519 6.0123401 2.1850107 0
6.4453926 4.4196568 1.8130605 0
7.0344539 3.8530743 -0.19948977 0
7.8621244 -1.2567661 -0.98869097 0
4.3574753 6.4790835 1.8471942 0
4.5029764 6.3506145 1.9427886 0
7.0067816 -3.6922977 1.2874165 0
-3.776525 6.9872026 1.1413829 0
7.8339601 1.4304335 -0.98478234 0
7.0602999 3.8118441 0.10925293 0
4.3876705 6.4624796 1.8371997 0
6.9899859 3.8716028 0.74041867 0
7.0461273 3.8398037 -0.080538094 0
3.7662225 7.085815 0.08711195 0
6.8196354 4.069469 1.1572647 0
-0.18490791 7.9622617 -0.98794115 0
3.8351932 7.0023108 -0.8190316 0
7.0240769 3.8436544 0.55018842 0
6.6261806 4.2474294 1.5709691 0
7.8512268 -1.3439265 -0.98733044 0
3.7611189 7.0703344 0.53818643 0
3.7640524 7.0673952 0.5700202 0
6.958766 3.9223244 0.79974413 0
6.4997644 4.364265 1.777415 0
7.8225894 -1.5171912 -0.98388481 0
4.0462027 6.7881589 1.4197044 0
6.1577206 4.7149043 2.0837324 0
7.0513649 3.8070347 -0.52904469 0
4.2362242 6.6114683 1.6867204 0
4.5830851 6.2712483 2.0418444 0
4.524807 6.3174901 2.0343323 0
7.0677319 3.8158441 -0.10330963 0
7.0494947 3.8415287 -0.28035414 0
3.9819856 6.8723035 1.2030807 0
7.8100748 -1.6037316 -0.98300838 0
7.063674 3.8136601 -0.31616431 0
7.0638118 3.8137343 0.3202337 0
3.9616528 6.8964887 1.1390831 0
5.4745336 5.3724065 2.3927832 0
6.9985881 3.8763931 -0.74350476 0
3.8578026 6.990231 0.90404439 0
6.8705616 4.0190401 1.0984573 0
5.9994755 4.8576059 2.2312827 0
6.9387422 3.9412727 -0.95833862 0
3.9141784 6.9512367 0.98403263 0
6.6685658 4.2097545 1.5554614 0
3.8670602 6.9945211 0.85667276 0
4.8622646 6.0029683 2.2217157 0
4.1959171 6.651957 1.6616182 0
3.763588 7.0778251 -0.59623289 0
6.6956682 4.1941719 1.4835291 0
-3.7811365 6.8631582 1.795861 0
3.7683587 7.0922961 -0.36840522 0
7.0975337 3.772341 -0.19889253 0
6.9423661 3.9433594 0.95055413 0
4.1288042 6.7528548 1.419405 0
5.6299911 5.2249475 2.3807268 0
-3.7754583 6.8152237 1.991137 0
3.6879003 7.1450438 -0.14236718 0
7.8514748 -1.431815 -0.98883843 0
4.0543771 6.7990623 1.4185739 0
7.0968604 3.7717474 0.30110168 0
6.9486284 3.912854 1.0489092 0
6.3284507 4.5492873 1.9875808 0
6.9861116 3.8694453 -0.95968378 0
4.5174441 6.332315 2.0481653 0
-0.08267808 7.9826984 -0.98664725 0
6.8788848 4.0054965 1.1594253 0
4.3219643 6.5288782 1.8446054 0
7.0358467 3.8345375 0.70825517 0
6.5590649 4.3034487 1.780488 0
6.7808046 -3.7038953 2.2395172 0
5.2411051 5.6043043 2.4163418 0
5.5056372 5.3470235 2.4118004 0
5.4015837 5.4565392 2.4024656 0
5.556942 5.3057351 2.3888216 0
6.8546534 4.0103064 1.2922313 0
6.8089757 4.0629182 1.3673911 0
6.9590869 3.9226243 -0.96171391 0
7.0304184 3.8494112 -0.7052443 0
7.065413 3.8145959 0.53119791 0
7.0474095 -3.7077405 1.1597171 0
6.6889491 4.1877337 1.5747042 0
7.0955615 3.7706015 -0.45055145 0
6.8632407 -3.705776 1.9836571 0
4.4161386 6.4389343 1.9530356 0
7.8417196 1.518976 -0.98832047 0
6.8595037 -3.6942594 2.0209227 0
5.3468552 5.5128684 2.4110348 0
7.1064339 3.7801912 0.050932407 0
4.0239258 6.8140841 1.4741478 0
-3.7809358 6.9229345 1.6066113 0
7.0925956 3.7679861 0.55019891 0
7.0533051 3.808079 -0.74645674 0
6.3355122 4.5251346 2.0504827 0
3.6909561 7.154779 0.084879637 0
4.193326 6.6753907 1.636209 0
3.8537796 6.9837027 1.0950098 0
4.6903343 6.1558328 2.2223465 0
7.8103471 -1.6917441 -0.98539233 0
7.8283119 1.6056969 -0.98724318 0
4.4490962 6.3894944 2.0535607 0
5.3255982 5.5373592 2.4113789 0
7.0283952 3.8475745 0.79977453 0
5.1629305 5.6847153 2.4256935 0
5.183239 5.6737823 2.4102097 0
7.1232247 3.7471595 -0.31880903 0
3.6823618 7.1574464 0.32602882 0
7.1293874 3.7503638 -0.10539865 0
7.1293859 3.7503631 0.10755944 0
6.3869872 4.4890079 1.9901052 0
5.7122164 5.1598344 2.3778973 0
6.5873394 4.2723026 1.810256 0
6.999537 3.8769214 0.95204258 0
7.0605946 3.8120024 0.74216437 0
3.7655149 7.0836697 0.76416957 0
5.7862463 5.0829964 2.3716364 0
-3.7739177 6.6479383 2.5509121 0
7.7578988 -1.9489852 -0.9818778 0
6.4370842 4.4221292 1.9900792 0
4.1448231 6.7007685 1.6957505 0
3.7638135 7.0785084 -0.82862639 0
3.691853 7.1576366 0.31213319 0
7.8182068 1.6927049 -0.98722041 0
7.0294337 -3.6983943 1.3693273 0
7.1618299 3.6928804 -0.19857669 0
3.9786291 6.8634243 1.4269691 0
3.8405986 7.0179496 0.98738897 0
3.9562187 6.8772664 1.4244335 0
7.8003907 1.7786734 -0.98569083 0
6.8653674 3.9974542 1.369669 0
5.0830393 5.7639666 2.434968 0
3.667701 7.1740217 0.27997112 0
6.7459207 4.1236882 1.5772684 0
6.164959 4.6910114 2.2370856 0
7.0869365 3.7629945 0.79910517 0
6.53302 4.3643036 1.8163295 0
6.7431488 4.1400003 1.5557418 0
3.9127645 6.9473276 1.2087724 0
6.5198126 4.3644915 1.8654015 0
7.1316862 3.751559 0.31969404 0
7.7840018 -1.8646843 -0.98477805 0
3.6926131 7.160058 -0.37347686 0
5.6780958 5.1922131 2.4171154 0
4.1216555 6.735465 1.6415887 0
5.8616023 5.0092163 2.3666525 0
7.1678991 -3.6980808 0.051324606 0
7.0386219 3.835959 0.90405023 0
3.6829627 7.1584868 0.51899338 0
7.1790519 3.6780806 0.10696483 0
6.9415627 3.9428968 1.1621845 0
-3.7748747 6.9853978 1.4298134 0
3.6906924 7.1539388 0.53919911 0
4.3257189 6.5215783 1.962321 0
6.6240368 4.2459812 1.7853549 0
6.3102846 4.5768461 2.0809188 0
6.9862032 3.8694966 1.162513 0
7.0992236 3.7738316 -0.70538318 0
7.1675754 -3.6978033 0.30101705 0
7.7905564 1.8656769 -0.98630857 0
7.1626592 -3.6935909 -0.45056516 0
7.1279688 3.7496259 0.53163278 0
7.0302248 3.8492353 -0.96222198 0
7.1690097 3.6990321 0.30098403 0
6.6924362 4.192275 1.6773207 0
7.2022791 3.6465781 0.11258936 0
4.8492374 5.9882469 2.4103961 0
4.6809673 6.1960754 2.2094538 0
3.8670073 6.9943233 1.1451406 0
6.8917503 3.999594 1.3025901 0
3.7694049 7.0886335 0.86016047 0
4.2593956 6.6046324 1.8545666 0
5.8386002 5.0255351 2.4205112 0
6.377274 4.4972324 2.0767703 0
0.01656425 8.0146446 -0.98795426 0
5.9376707 4.9373169 2.3625898 0
3.851752 6.9804125 1.2860024 0
7.1322241 3.7518387 -0.53627676 0
5.0045238 5.8484259 2.4460678 0
4.3866053 6.460258 2.0632482 0
3.6923361 7.1591754 -0.60504198 0
4.0483379 6.793571 1.6467416 0
4.3626041 6.4859953 2.0393038 0
7.1779017 3.7066514 0.050634265 0
7.0265698 3.8459175 1.0499582 0
6.008738 4.859303 2.3568115 0
7.7560706 -2.0373287 -0.9849478 0
7.8183999 -1.7811373 -0.98988736 0
3.6147842 7.225039 -0.14718759 0
7.1773276 -3.7061594 -0.20036221 0
7.1913357 3.6842453 -0.10759342 0
3.6128812 7.2186584 -0.37749231 0
3.6687191 7.178319 0.5715059 0
7.7804098 1.9527242 -0.9871459 0
6.0784445 4.780479 2.3510382 0
7.1667552 3.6971004 0.55036402 0
4.1867189 6.6599507 1.859561 0
6.6819277 4.1831369 1.7884507 0
4.1981506 6.6551538 1.8530173 0
7.062408 3.8129787 -0.9688735 0
6.9520235 3.9160259 1.3009033 0
7.0197968 -3.7037771 1.540009 0
3.9071236 6.9317336 1.4331884 0
5.0330868 5.8489671 2.4143217 0
3.6150513 7.225935 0.31138551 0
4.5929809 6.2743731 2.2186332 0
6.8140473 4.0665007 1.5554218 0
7.1742749 3.7035434 -0.4524433 0
7.0661011 3.8149667 0.95454752 0
-3.7836189 6.8682718 1.9771719 0
3.6887975 7.1479025 -0.83700085 0
6.6656442 4.2066936 1.8113987 0
7.1703959 -3.7002199 0.5504477 0
7.1824865 3.6798043 -0.53817552 0
6.8627825 4.0147696 1.4874992 0
3.7673779 7.0893202 0.99125588 0
6.4478912 4.4225101 2.0743632 0
3.8398194 7.015696 1.2137005 0
6.812593 4.0651412 1.5822334 0
3.6177754 7.2350688 0.081978202 0
4.0520048 6.7911077 1.7051306 0
7.7438431 -2.1240435 -0.98587692 0
0.1200546 8.0290232 -0.98603737 0
3.6919794 7.1580391 0.76669943 0
7.1290846 3.7502062 -0.75421631 0
6.5088286 4.3707719 1.9975111 0
6.1505804 4.7057414 2.3469253 0
7.1969018 3.6870391 -0.32350677 0
3.6885631 7.1681867 0.71136343 0
6.7737141 -3.7002633 2.4329991 0
7.74822 2.1248999 -0.98690665 0
3.5648613 7.2621737 0.27887249 0
7.7713614 2.0400939 -0.98853517 0
7.1341357 3.7528327 0.74412107 0
6.5126543 4.3417068 2.0703468 0
7.1678863 3.6980693 -0.70571768 0
4.3208146 6.526391 2.0717695 0
7.7266579 2.2098505 -0.98593175 0
3.6147823 7.2250333 0.53999794 0
7.2195559 3.6548111 0.30986893 0
7.220273 3.6551528 -0.2902652 0
7.6781569 -2.3781772 -0.98355913 0
-3.7766175 7.1635871 -0.0098810792 0
7.0452757 3.8393674 1.1000924 0
7.192328 3.6847436 0.53211796 0
7.1631856 -3.694042 0.79974997 0
6.509449 4.3580017 2.0582662 0
3.7668676 7.0785656 1.1500726 0
4.5356665 6.3312798 2.228734 0
7.0308003 -3.6991048 1.5840838 0
6.3342581 4.5242982 2.2444868 0
7.204917 3.6910617 0.31903613 0
7.6819525 2.3790905 -0.98446047 0
7.10286 3.7770388 -0.96338582 0
3.6675043 7.1731911 0.86319721 0
7.2146931 3.6524937 0.50853872 0
7.7324219 -2.2110641 -0.98729157 0
7.2291231 3.6593704 -0.09036845 0
7.1732597 -3.7026737 -0.70683849 0
6.9438844 3.9442334 1.3761435 0
7.0568256 3.809974 1.1666093 0
3.6155107 7.2274752 -0.61182535 0
3.684798 7.1616659 0.90404606 0
7.1230526 3.7470701 0.9561739 0
6.8824525 3.9906547 1.554791 0
7.2146707 -3.6959569 0.10487628 0
6.8522415 -3.6876671 2.2745118 0
7.7122416 -2.2963073 -0.98693228 0
4.6904068 6.1559191 2.414844 0
4.5064592 6.3598285 2.2298415 0
6.684968 4.187891 1.8712077 0
3.6896386 7.1505818 0.99427485 0
7.2465549 3.6305301 -0.20072019 0
7.1701674 3.7000244 0.80023181 0
6.7468348 4.1242685 1.7936838 0
6.0131149 4.8678789 2.4282808 0
4.9315243 5.9476986 2.4618001 0
6.8730402 4.0020189 1.5859389 0
4.1198549 6.7310839 1.8687344 0
7.2123065 -3.6947706 -0.3256231 0
-3.7809954 7.1685147 -0.30202836 0
-3.7816839 7.1692901 0.28049111 0
6.5712318 4.3119211 2.0020604 0
4.0370369 6.834053 1.6673789 0
-3.7808518 6.6879401 2.6019337 0
7.2513223 3.6344979 0.05013442 0
7.1886415 3.6828935 0.74499726 0
4.8442965 6.0191822 2.4695899 0
7.664916 -2.4649665 -0.98541963 0
4.24121 6.6265917 1.9764066 0
7.21455 -3.6958964 0.31884801 0
3.8651195 6.9872613 1.4344902 0
7.6664462 2.4653578 -0.98578417 0
7.0336647 3.8334198 1.2957389 0
7.7196293 2.2979736 -0.98868072 0
3.6146631 7.2246327 0.76885092 0
7.0265088 3.8458617 1.301795 0
4.4136553 6.4320679 2.2380519 0
3.9827328 6.8742809 1.6567826 0
7.6418366 -2.5493455 -0.98523045 0
7.1305947 3.7509916 -0.97609603 0
7.6426554 2.5495675 -0.98542631 0
7.2078233 -3.6925206 -0.54266554 0
6.6226721 4.2450595 2.0032952 0
3.8566163 6.9883056 1.4781489 0
6.2316704 4.6428299 2.3471808 0
-3.7754741 7.1623001 -0.59459794 0
-3.7770467 6.9173918 1.9479294 0
7.1073322 3.7809832 1.0514355 0
7.2104454 -3.6938365 0.53247178 0
3.7670107 7.0882058 1.2192764 0
7.2165203 3.6533644 0.70635557 0
-3.7757516 6.8155351 2.2850897 0
6.9998269 3.8770828 1.3786128 0
7.2537422 3.6365125 0.30055821 0
6.744832 4.1417141 1.8130324 0
7.6198473 2.6340313 -0.98559189 0
7.620203 -2.6341333 -0.98567724 0
3.6819966 7.1568131 1.0964234 0
4.7594538 6.098412 2.479955 0
6.2993646 4.5636306 2.3421788 0
6.8602028 4.0133533 1.6826954 0
-3.780735 7.168222 0.57088387 0
7.2517552 3.6348584 -0.45427012 0
7.1991043 3.6881444 -0.76084864 0
7.5644612 -2.8000124 -0.98443389 0
4.3607674 6.4835205 2.2311549 0
7.1706934 -3.7004745 -0.96357226 0
7.2322412 -3.7047753 -0.1115976 0
7.5653319 2.8002892 -0.98464489 0
3.5685833 7.2789545 0.57282734 0
6.5923543 4.277709 2.0718589 0
3.6160159 7.2291698 -0.84796643 0
3.8400607 7.0163932 1.4422886 0
0.2187562 8.0645018 -0.98861575 0
4.197031 6.6535516 2.0448203 0
7.2039442 -3.6905735 0.74589467 0
7.2737617 3.627223 0.10369134 0
-3.7779274 6.9887371 1.7216601 0
7.172533 3.7020514 -0.96404338 0
4.0488009 6.7947454 1.8762395 0
7.5973043 -2.7186153 -0.98611295 0
4.1827326 6.6506343 2.087146 0
3.9596367 6.8893576 1.7159939 0
7.2749295 3.6277883 -0.11196935 0
-3.7825165 6.8660011 2.1585894 0
6.95362 3.9175169 1.5550039 0
4.2599239 6.6058211 2.0844135 0
7.2722845 3.6265078 0.31847966 0
7.0166035 -3.7009609 1.7924294 0
7.1854692 3.6813011 -0.98005807 0
7.3014069 3.4468558 -0.98099828 0
4.0267735 6.8184214 1.8575869 0
7.5096912 2.9660568 -0.98457193 0
3.7600703 7.0671549 1.4458532 0
7.2551718 3.6377022 0.55087411 0
6.8125749 4.0651298 1.7993259 0
7.6040826 2.7206633 -0.98774767 0
6.3701844 4.4888983 2.339026 0
6.1790237 4.700985 2.4349618 0
7.2757926 3.628206 -0.32900113 0
3.5457921 7.3254895 0.078479767 0
7.5465016 -2.8861747 -0.98665202 0
7.0263128 -3.6967716 1.8003609 0
-3.774961 7.1617227 0.86115026 0
7.5482621 2.8867621 -0.98708045 0
3.9114499 6.9436936 1.6646314 0
3.6152873 7.2267265 0.99874163 0
4.5830226 6.2491264 2.4993341 0
6.6884661 4.187417 2.0094233 0
0.32250369 8.0767241 -0.98685753 0
4.6761422 6.1843381 2.4925518 0
7.4866714 -3.0507274 -0.98615122 0
6.662065 4.2029443 2.0703168 0
7.1763968 -3.7053616 1.0516548 0
7.4871583 3.0509055 -0.9862709 0
7.4197445 -3.212472 -0.98504543 0
7.1336484 3.7525792 1.1716514 0
7.0996108 3.774173 1.3026142 0
7.2223587 3.656147 0.90405262 0
7.455184 -3.1323912 -0.98594511 0
7.5211992 -2.9700801 -0.98738635 0
7.275105 3.6278734 0.53297496 0
3.6694405 7.181365 1.1567855 0
4.5301399 6.3242626 2.4204597 0
3.5466323 7.3284626 0.30999994 0
7.198586 -3.6878846 -0.98344636 0
3.7670493 7.0792856 1.4424005 0
7.2557893 3.6382163 -0.71023798 0
3.5480719 7.3335533 -0.1546768 0
7.2770233 3.5317078 -0.98403513 0
7.1794004 3.7079356 1.052001 0
7.457242 3.1331775 -0.98645377 0
7.0340586 3.8336215 1.4921463 0
6.9489946 3.9471757 1.5932958 0
7.0667853 3.8153348 1.3832183 0
6.8687816 3.9994855 1.802588 0
7.2520504 3.6351039 0.80131519 0
7.1537328 -3.6859419 1.3005216 0
7.3550181 3.375025 -0.98563731 0
4.1532254 6.7275372 1.9898472 0
6.4425879 4.4164534 2.3370066 0
7.3920279 -3.2956579 -0.98635662 0
7.3568845 -3.3758314 -0.98610663 0
3.8610868 6.9721746 1.724503 0
3.5477161 7.3322964 -0.38866013 0
6.825202 4.0775361 1.8152223 0
6.7430053 4.121839 2.012188 0
7.4289894 3.2161567 -0.98734307 0
6.8795667 3.9878805 1.8106198 0
4.0522771 6.7920203 1.9960907 0
6.6870461 4.1891112 2.0673051 0
7.2097273 3.693476 0.96079373 0
3.6953139 7.1686635 1.2259843 0
7.2289853 -3.7031415 -0.76734746 0
6.5154915 4.3617854 2.2550087 0
3.8586957 6.9916806 1.6708593 0
3.6860259 7.1637921 1.2893853 0
3.546545 7.3281527 0.54139423 0
4.3314209 6.5380764 2.254796 0
-3.7858186 7.173944 -0.89288771 0
7.1176739 3.7442734 1.3850791 0
3.8366165 7.0064292 1.6712785 0
7.0013638 3.8779387 1.5955222 0
7.1881323 3.6826377 1.1737018 0
7.3264456 -3.4581041 -0.98733544 0
7.3995953 3.2988005 -0.98824835 0
7.2875891 3.6339166 -0.5498932 0
7.2902179 -3.5378637 -0.9873966 0
4.1187811 6.7284732 2.0997515 0
3.9821653 6.8727794 1.8875034 0
3.5712347 7.2909088 0.86808288 0
7.2769856 3.6287835 0.74789631 0
3.5231512 7.3616295 0.31899142 0
6.8619041 4.0142875 1.8791761 0
7.2220211 3.6559861 1.1018918 0
7.2569876 -3.6191027 -0.98851883 0
7.257021 3.6191187 -0.9885273 0
-3.7782183 6.8571444 2.3399038 0
6.3462162 4.5322733 2.4429035 0
3.5485182 7.3351321 -0.62524056 0
7.0360746 3.8545454 1.5578542 0
7.2815914 3.6310134 -0.77032006 0
0.42329073 8.1036787 -0.9883101 0
4.2371278 6.6142097 2.2644858 0
7.1715708 3.7012269 1.303406 0
6.5173469 4.3469138 2.3363807 0
3.546134 7.3266988 0.77298605 0
7.2266278 -3.7019582 0.96244812 0
4.0254049 6.8163362 2.0502386 0
3.6166878 7.2314229 1.2305276 0
3.690299 7.1526856 1.4553645 0
4.1976051 6.6543736 2.2382777 0
6.9367204 3.9401088 1.8091998 0
7.0598741 3.8116148 1.5993066 0
0.52870941 8.1047564 -0.9849422 0
4.3610992 6.4839678 2.4250221 0
-3.7783279 7.1655126 1.1530769 0
6.7451644 4.1420527 2.0735636 0
7.2621045 3.6434724 -0.96999848 0
6.8095083 4.0632453 2.0189872 0
3.6818044 7.1564808 1.4819875 0
4.0483379 6.7935715 2.1088805 0
4.5043564 6.3542657 2.5180209 0
7.257473 3.6396177 1.0533628 0
6.5850787 4.269865 2.3333907 0
7.3059015 -3.6959581 0.10187507 0
6.9566159 3.920316 1.8124566 0
7.0986881 3.7733595 1.5566702 0
7.3019714 -3.6940851 0.30348659 0
7.2125826 -3.6949091 1.1770608 0
7.0144105 -3.6990263 2.0483084 0
7.0381384 3.8357117 1.6896019 0
3.9112711 6.9431992 1.8970747 0
7.0256 -3.6964009 2.0209374 0
7.3053493 -3.6956947 -0.30350947 0
3.5693595 7.2824545 1.163449 0
3.6692538 7.1805773 1.4516308 0
3.7645898 7.080863 1.6805081 0
7.2816281 3.6310313 0.96402037 0
6.8108239 4.0633116 2.0713856 0
3.8572366 6.9893126 1.8638055 0
-3.7771392 7.1620159 1.2841632 0
6.994863 3.8743186 1.8133962 0
4.4144611 6.4342957 2.5297785 0
7.31919 -3.7022903 -0.10202897 0
6.8711934 4.0009203 2.0244894 0
7.3209319 -3.6924374 0.29903233 0
3.9621286 6.8981714 2.0110183 0
7.3080387 -3.6969764 0.50372481 0
3.5368481 7.3870082 0.51302028 0
-3.7846742 6.9961157 2.0181353 0
7.3262334 -3.6968501 0.045026422 0
6.8545103 4.0102277 2.0753613 0
7.2322187 3.6608458 1.300472 0
7.1256728 3.7484324 1.6048689 0
-3.7766633 6.816504 2.5840931 0
7.3191676 -3.6909688 -0.46503937 0
3.5320582 7.3781333 0.7088753 0
3.7684183 7.0847168 1.7380674 0
3.6773627 7.148787 1.6747832 0
3.5533547 7.3522406 -0.86754262 0
3.5492063 7.3375659 1.0064416 0
7.1666012 -3.6969683 1.5568495 0
6.6901283 4.1909204 2.2649941 0
7.0481339 3.8052955 1.8165307 0
7.2039623 3.6905828 1.3933811 0
7.0271583 3.8464515 1.8128171 0
7.3795438 3.6062677 0.045877218 0
7.3779926 3.6050136 -0.20819527 0
7.3305655 -3.7004554 -0.21028304 0
-3.780827 6.9227791 2.2951641 0
7.2087641 3.6496685 1.4974022 0
7.2533159 3.6361578 1.3059194 0
7.358181 3.5889981 -0.71783257 0
3.6886554 7.147449 1.6883085 0
6.6644778 4.2054715 2.3354039 0
4.1502085 6.7179246 2.2811334 0
6.5192146 4.3641167 2.4530804 0
0.62886298 8.1366882 -0.9879477 0
3.5650525 7.2630358 1.4586396 0
7.323987 -3.6949804 0.55243695 0
3.8611183 6.9722924 2.0197043 0
7.3758693 3.6032975 -0.46359491 0
7.3824315 3.6086023 0.29913044 0
4.0492392 6.7818327 2.2884204 0
3.5294096 7.3732257 0.90404928 0
3.6192036 7.2398582 1.4652719 0
7.2151575 -3.6962013 1.395365 0
4.1923656 6.6468716 2.4313555 0
4.3248892 6.5191779 2.5432193 0
7.1814089 3.6792634 1.6083999 0
3.8416762 7.0210681 1.9086666 0
3.9845047 6.8789687 2.1240644 0
7.3769407 3.6041634 0.5521462 0
7.0329838 3.8330712 1.8869188 0
3.5450633 7.3229117 1.2388625 0
6.9348764 3.9390471 2.0308414 0
4.0267258 6.8183479 2.2448449 0
7.2894611 3.6348231 1.1822658 0
7.1814928 3.7097285 1.5599556 0
6.8909688 3.9988425 2.0742402 0
-3.7828531 7.1706061 1.4473619 0
-3.7842908 6.6926947 2.9530427 0
3.762033 7.0731072 1.9141679 0
0.73274684 8.1453972 -0.98667073 0
7.4122806 3.5948119 -0.12158424 0
7.3251762 -3.705143 0.70355701 0
7.3074551 -3.6966982 0.90405536 0
7.4131927 3.5952375 0.097810984 0
3.5263631 7.3675809 1.0989442 0
7.3296762 -3.6997154 -0.72546375 0
6.7392235 4.136004 2.335964 0
3.6120481 7.2158647 1.6966674 0
6.9904499 3.8718612 2.0349283 0
7.4144993 3.5958471 0.31646729 0
7.4149184 3.5960426 -0.34273469 0
7.2422156 3.6269186 1.5588408 0
7.3132939 -3.6860797 -0.98294449 0
6.955832 3.9195836 2.0725224 0
7.3770862 3.6042807 0.8053571 0
7.4091954 3.5933726 0.53483045 0
3.8614423 6.9961371 2.0591934 0
3.9120722 6.9454141 2.1340313 0
7.4092326 3.59339 -0.56453919 0
3.6702023 7.1845808 1.7497387 0
7.3371797 -3.705961 0.80711985 0
7.1126127 3.785641 1.8173134 0
6.6815939 4.1859107 2.4618316 0
7.2849951 3.6326611 1.4008367 0
7.2101092 -3.6936679 1.6146421 0
7.3051424 -3.695596 1.1040378 0
4.2369642 6.6137128 2.5596828 0
7.0176439 -3.7018788 2.3100796 0
7.1323528 3.7519057 1.8279533 0
3.6826522 7.157949 1.8702803 0
3.6870737 7.1424103 1.9240983 0
-3.7805262 7.3501725 -0.017372906 0
7.3681788 3.5970805 1.0584912 0
0.83501422 8.1656122 -0.98794162 0
7.1688757 3.6989176 1.814507 0
3.5262632 7.3673959 1.2940414 0
-3.7836843 7.1716337 1.6319251 0
7.4085474 3.59307 -0.78944278 0
-3.7817273 7.3515639 0.27809691 0
7.0254312 3.8448837 2.0726595 0
6.8144813 4.0669298 2.3370867 0
7.4130726 3.5951815 0.753582 0
3.546515 7.3280473 1.4754744 0
7.326026 -3.6966774 1.0611663 0
7.3817701 3.6080678 -0.98361814 0
0.94000196 8.1632843 -0.98508811 0
6.8681479 4.017715 2.2763855 0
3.9609509 6.8940053 2.3076048 0
7.1772695 -3.7061098 1.8166556 0
7.385263 -3.6108911 -0.98449111 0
7.0363865 3.8348143 2.0863943 0
3.4946346 7.5012927 0.3073318 0
7.411149 -3.6937315 -0.12520999 0
6.8760557 3.9845049 2.3334782 0
7.2327833 3.6611147 1.6986749 0
-3.7885733 7.3594956 -0.31503588 0
-3.7795033 7.3489871 0.57324362 0
3.4964654 7.5081415 -0.16820776 0
-3.777348 7.1644092 1.7422676 0
1.0446672 8.1601486 -0.98237467 0
3.8416328 7.0209427 2.1468184 0
7.0664701 3.8151653 2.0454996 0
3.4952445 7.5035734 -0.40722972 0
3.4978967 7.5134964 0.06964469 0
7.1947503 3.6859593 1.8338554 0
7.4137335 -3.6949828 0.31573653 0
4.0285683 6.8211541 2.4412379 0
3.5673366 7.2733335 1.7597985 0
-3.7883468 7.0001326 2.3183141 0
7.4196115 -3.6978283 0.095199108 0
7.2763858 3.6284931 1.6205957 0
3.7715559 7.0971661 2.0388234 0
7.3082132 -3.6970599 1.3043959 0
3.494554 7.5166321 0.27478659 0
3.4949841 7.5026007 0.5440917 0
3.8570373 6.9889889 2.2535405 0
7.4172583 -3.6966889 -0.34829915 0
4.1468563 6.7072463 2.5761456 0
-3.787015 7.3576903 -0.61358106 0
7.4162545 3.5966661 0.97336781 0
7.4480953 3.5282133 -0.98403013 0
3.6785901 7.1509132 2.0647092 0
3.4932353 7.5102577 0.5764997 0
7.0992684 3.7738712 2.0744307 0
7.4170599 -3.696593 0.53572786 0
3.4958363 7.5057878 -0.64909053 0
3.6148801 7.2253613 1.9375334 0
-3.7788415 7.3482203 0.86863768 0
7.2481961 3.6318963 1.8178811 0
7.4984102 3.5677111 0.29799175 0
7.5010009 3.5697448 -0.21469015 0
3.7664309 7.0864482 2.1570027 0
3.5440927 7.3194785 1.7123246 0
7.2190828 3.6545858 1.8971803 0
-3.7773962 7.3465457 -0.9125762 0
7.5053916 3.5731914 0.041798592 0
7.4583864 -3.5362918 -0.98657334 0
6.9528232 3.9167726 2.3359241 0
3.5326128 7.3791609 1.4905026 0
7.1321268 3.7517879 2.0531087 0
7.4093976 -3.6928837 -0.79792094 0
7.4984241 3.5677216 -0.47264302 0
7.3789716 3.6058052 1.3154845 0
-3.7829304 7.4000449 0.33642673 0
7.4274774 -3.7016361 -0.57450902 0
7.2210531 -3.6991603 1.8406496 0
7.5092731 -3.4443333 -0.98346066 0
3.6692038 7.1803656 2.0498095 0
7.1625519 3.6934988 2.0732827 0
7.4097395 3.5936265 1.1934328 0
7.1627917 -3.6937044 2.0733557 0
7.4981136 3.5674779 0.55340159 0
7.3349857 -3.7041352 1.3189664 0
3.4944563 7.5006251 -0.89231825 0
7.3059187 -3.695966 1.5049322 0
7.0309334 3.8320208 2.2857223 0
3.8682818 6.9990907 2.325325 0
-3.7730408 7.1559935 1.9786587 0
4.0539641 6.797677 2.5920322 0
7.1854987 3.6813161 2.0572534 0
3.4998612 7.5208454 0.78215384 0
1.1459017 8.1940079 -0.98717213 0
6.8681221 4.0177011 2.4767447 0
3.494117 7.5145197 0.87869501 0
-3.7887745 6.9341054 2.6492829 0
7.4969745 3.5665839 -0.73281467 0
7.5227575 3.4546101 -0.98675632 0
-3.773983 7.3425913 1.1644821 0
3.6913071 7.1558976 2.1685519 0
7.5439014 3.555793 -0.13063335 0
-3.7884684 7.4123416 0.52534568 0
7.4346433 -3.7051051 0.75707603 0
7.4142022 -3.6952097 0.97690666 0
3.7642565 7.0682058 2.334734 0
-3.7831998 7.4006433 0.71509469 0
1.2504144 8.1904297 -0.98495328 0
7.5431466 3.5554538 -0.35497552 0
7.5014048 3.5700619 0.80933571 0
7.320858 -3.6923759 1.5750465 0
7.5774226 -3.3656886 -0.98487473 0
7.2868862 3.6335764 1.8475876 0
7.4052186 3.591517 1.4152374 0
7.0315728 3.8504589 2.3394091 0
7.5538287 3.5602527 0.091872692 0
7.487709 -3.6937087 -0.22053844 0
7.4900775 -3.6956236 0.038428307 0
7.2974997 -3.6919544 1.7053704 0
3.4990218 7.517705 1.0204737 0
3.5663381 7.2688322 2.0621014 0
7.5527825 3.5597827 0.31453466 0
7.3749681 3.6025689 1.5726514 0
-3.7807536 7.1682425 2.042479 0
3.8609669 6.9953656 2.4519815 0
-3.7821875 7.398396 0.90404165 0
7.4906812 -3.6961114 0.29670072 0
3.5350389 7.383656 1.6874566 0
7.5848541 3.371186 -0.98667169 0
7.2219744 3.6559639 2.098645 0
7.5490022 3.5580845 0.53679287 0
3.9600229 6.8907232 2.608954 0
3.6842434 7.1607051 2.2632298 0
-3.7782617 6.9891024 2.6182923 0
7.5770159 3.5462947 -0.12181032 0
-3.7766948 7.3862004 1.0926199 0
7.635282 -3.2793748 -0.98408306 0
7.5729666 3.5445056 -0.3288281 0
1.3539342 8.1996422 -0.98551762 0
7.4926763 -3.6977241 -0.48203719 0
7.2187762 -3.6980176 2.06723 0
3.5462086 7.3269629 1.9556375 0
7.4155293 -3.695852 1.1994631 0
7.5693655 3.5429144 0.49565959 0
3.4951138 7.5030851 1.2585676 0
7.6392856 3.2822487 -0.98504102 0
7.4932156 -3.6981604 0.55475605 0
3.4955761 7.521574 1.1825526 0
7.5884161 3.551331 0.083539724 0
3.6178284 7.2352471 2.1831217 0
7.5618839 3.5638711 -0.58457613 0
7.5864468 3.5504611 0.2895999 0
7.5510559 3.5590069 0.75936782 0
7.5073776 3.5747507 1.0667994 0
3.6653953 7.1642866 2.3508623 0
7.1076155 3.7812335 2.3422246 0
3.527657 7.3699784 1.8830926 0
1.4579394 8.1991787 -0.98448753 0
7.4857349 -3.6921127 0.81267905 0
7.5690832 3.5427899 0.69997764 0
7.2726917 3.6267052 2.0717392 0
7.6936946 3.1935618 -0.98372412 0
-3.778337 7.3476357 1.4633503 0
7.4947753 -3.6994212 -0.74565196 0
3.8615212 6.9738007 2.6234198 0
7.1639051 -3.694658 2.3383875 0
7.1639943 3.6947348 2.338419 0
7.5404668 3.55425 0.98170388 0
7.5579777 3.5621164 -0.81334817 0
7.4079499 3.5927913 1.6407146 0
7.5882034 3.5512369 -0.54046333 0
7.2684445 3.6487496 2.0852947 0
7.0416174 3.8374939 2.4897118 0
7.7027726 -3.1998837 -0.98587441 0
-3.7793818 7.3921657 1.2817082 0
7.3019009 -3.6940515 1.9079077 0
7.6240044 3.5317733 -0.22116989 0
7.3256221 -3.6963413 1.8374622 0
1.5616794 8.2040949 -0.98479354 0
7.2168694 3.6535311 2.3001261 0
3.4962971 7.5075116 1.500773 0
7.4879041 -3.6938665 1.0719602 0
7.637536 3.5420864 0.037317991 0
7.3830929 3.6091368 1.8353486 0
3.6841457 7.1605358 2.4616373 0
7.7613306 -3.1140163 -0.98582172 0
7.538588 3.553406 1.2057619 0
7.6375589 3.5421035 0.29634404 0
7.6314211 3.5374258 -0.48328424 0
3.4955759 7.521574 1.4878926 0
7.5135603 3.5796039 1.3264058 0
7.5915041 3.5526955 0.90406096 0
-3.779634 7.1656809 2.3338761 0
7.7704329 3.1201632 -0.98795676 0
7.4382896 -3.7068701 1.4278116 0
-3.7765508 7.5337605 -0.32596743 0
-3.7789655 7.1662302 2.3453496 0
-3.7822404 7.5405469 -0.025030732 0
7.6365681 3.5413487 0.55503416 0
-3.7786527 6.9196806 3.0017028 0
-3.783741 7.4270191 1.3037455 0
3.4449191 7.7011614 0.060822845 0
3.4438219 7.6968088 0.30425143 0
3.7661934 7.0758905 2.6434777 0
7.4065156 3.5921223 1.8684244 0
3.5322943 7.3785706 2.082629 0
7.6244702 3.5321286 0.81322098 0
1.6653947 8.2175035 -0.98703885 0
3.5679872 7.276268 2.3710351 0
7.8208103 -3.0287364 -0.98627067 0
3.549983 7.3403139 2.2050867 0
7.5842829 3.549505 1.1085305 0
3.4469857 7.709362 -0.18415964 0
-3.7876177 7.5469604 0.27543235 0
7.6354694 3.5405109 -0.74763918 0
7.2561345 3.6385033 2.3475597 0
-3.7872972 7.4097414 1.472403 0
7.8645649 2.9333763 -0.98337781 0
-3.7778478 7.5353074 -0.62946343 0
7.4863563 -3.6926153 1.3324394 0
3.445334 7.7028079 0.54725647 0
7.8308868 3.0353332 -0.9886117 0
3.4478307 7.7127142 -0.43062216 0
-3.7848382 7.5436454 0.57589197 0
1.7694002 8.213726 -0.9862324 0
7.6856675 3.5179129 -0.36913067 0
7.3665295 3.5957472 2.0950422 0
7.6892047 3.5194414 0.31263947 0
7.6941738 3.521589 -0.1414578 0
7.3129845 -3.6993334 2.112819 0
7.5061584 3.5737932 1.5860639 0
7.4296637 -3.7026944 1.6536975 0
7.8761678 -2.9407372 -0.9860487 0
7.5467052 3.5570524 1.4333405 0
-3.7908411 7.362123 1.7672353 0
3.4408875 7.7320051 0.29868782 0
3.4980407 7.5140343 1.7464161 0
3.4444852 7.6994405 0.79048407 0
7.7032886 3.5255277 0.085438728 0
3.4472232 7.7103038 -0.67850864 0
7.921772 -2.8467586 -0.98389232 0
7.2236214 3.6567488 2.5053654 0
7.6269927 -3.6949856 0.085446835 0
-3.7832747 7.4008093 1.6619039 0
-3.7791233 7.5368285 0.87617636 0
7.6132751 -3.6885858 0.53876126 0
3.4407582 7.7317486 0.50085557 0
7.5858955 3.5502174 1.3133044 0
1.8733149 8.2103119 -0.9857856 0
7.332829 -3.7023399 2.1046343 0
3.4942985 7.5153961 1.7948632 0
7.6960564 3.5224025 0.53889072 0
7.6925845 3.5209022 -0.60077548 0
3.4371376 7.7245536 0.70275271 0
7.6351533 -3.6987932 -0.1431008 0
7.686305 3.5181885 0.76499164 0
7.621357 -3.6923563 -0.60161293 0
7.6333909 -3.6979709 -0.37233555 0
7.9368076 2.8559983 -0.98732269 0
7.6378441 -3.7000484 0.31216538 0
-3.7859044 7.5449171 -0.93738127 0
7.6441426 3.5471213 1.074785 0
3.4471941 7.7101879 -0.92943764 0
7.4857831 -3.6921518 1.5952206 0
7.6903648 3.519943 -0.83359146 0
-3.7839484 7.4273338 1.6580253 0
7.4102464 3.593863 2.1012511 0
3.6709366 7.1876812 2.6665154 0
7.2980185 -3.6922014 2.3149052 0
3.4359863 7.7222657 0.90405679 0
7.4219894 -3.6989794 1.8822412 0
7.9826961 2.762239 -0.98552477 0
7.6606688 -3.6950848 0.031453013 0
7.6582823 -3.6932113 -0.23218381 0
7.6568871 -3.692116 0.29447496 0
7.7570868 3.498594 0.033676267 0
7.5011158 3.5698349 1.8485324 0
3.5407922 7.3943162 2.2852683 0
7.9890599 -2.7660253 -0.98696423 0
3.4485922 7.7157354 1.0361347 0
7.5536952 3.5601926 1.6638355 0
-3.7805967 7.5385861 1.1779182 0
1.9777445 8.2242641 -0.98900509 0
-3.777895 7.3471236 2.0682731 0
7.7605095 3.5011261 -0.22911024 0
7.6914029 3.5203915 0.99259353 0
2.08094 8.2010546 -0.98528636 0
7.6329083 3.5385592 1.3349137 0
3.4223013 7.7966318 0.27024007 0
7.6609373 -3.6952956 -0.49801087 0
7.6394997 -3.7008209 0.76667643 0
7.7650533 3.5044873 0.29495859 0
7.5975399 3.555362 1.5193727 0
-3.7791357 7.1664219 2.6537437 0
7.756041 3.4978206 0.55624557 0
3.4985883 7.5160832 1.9948225 0
3.5659242 7.2669659 2.680933 0
-3.7882309 7.4118142 1.8543301 0
7.6653714 -3.6987765 0.55711317 0
-3.7757287 7.1599426 2.6904647 0
7.6399322 -3.7010226 -0.83907354 0
8.0401363 2.6754122 -0.98663521 0
7.7634273 3.5032842 -0.49372852 0
7.62643 -3.6947231 0.99365854 0
3.4448612 7.700932 1.2805302 0
3.4220922 7.7955418 0.58114052 0
7.6563997 -3.6917336 -0.76491582 0
3.4409657 7.732161 1.1055598 0
8.0441055 -2.6776969 -0.98752522 0
8.0782013 -2.577584 -0.98370337 0
7.3743525 3.602071 2.3658595 0
7.3269391 -3.697437 2.3722436 0
7.6601863 -3.6947062 0.81991482 0
8.086422 2.5821614 -0.98553216 0
7.6924829 3.5208583 1.2214422 0
7.7566972 3.498306 0.81769824 0
3.41991 7.784173 0.89179409 0
-3.7789536 7.3912153 2.0434971 0
7.4158454 -3.6960049 2.1143551 0
2.1855004 8.2089109 -0.98790169 0
2.2879133 8.182827 -0.98419547 0
3.4367192 7.7237225 1.3068409 0
7.5889196 3.5515532 1.724638 0
7.7682047 3.5068185 -0.76124668 0
7.6277804 3.534651 1.597508 0
7.4905915 -3.696039 1.8622181 0
8.1308784 -2.4880872 -0.98433006 0
-3.7758431 7.4150496 2.0129917 0
3.5391088 7.3911967 2.4862618 0
