# .PCD v0.7 - Point Cloud Data file format
VERSION 0.7
FIELDS x y z intensity
SIZE 4 4 4 4
TYPE F F F F
COUNT 1 1 1 1
WIDTH 1385
HEIGHT 1
VIEWPOINT 0 0 0 1 0 0 0
POINTS 1385
DATA ascii
0.79997492 -4.0223217 -0.10451838 0
-0.49026942 -3.993428 0.80181473 0
0.63702178 -4.0235844 -0.48568016 0
0.25851524 -3.9990375 0.87921238 0
0.58624458 -4.0142407 0.61242199 0
-0.82970071 -3.9839492 -0.52282727 0
0.46552563 -4.0269556 -0.63586712 0
0.039051771 -3.9866936 0.97105271 0
-0.67195773 -3.9951885 -0.65563256 0
0.58570015 -4.0152788 -0.61775243 0
-0.9165132 -3.982991 -0.37832564 0
0.44001901 -4.007997 0.76979387 0
0.85598636 -4.0146861 0.017156154 0
0.85640764 -4.0137205 -0.10073665 0
0.85685742 -4.0126901 0.13457346 0
-0.50978494 -3.99283 0.80944937 0
0.37523791 -4.0125508 0.78592503 0
-0.74363422 -3.9831839 -0.66505378 0
0.69490004 -4.0174394 0.48861447 0
-0.016090393 -4.0048847 0.90683514 0
-0.57963419 -3.982898 0.81428534 0
0.8055613 -4.010004 0.36834925 0
-0.66479909 -3.9932435 0.69168746 0
-0.78207999 -3.9878404 0.59662092 0
-0.28264308 -3.9905777 0.930758 0
0.7271468 -4.0115614 0.50079405 0
-0.35034513 -3.983978 0.93678266 0
0.74550462 -4.024663 -0.35090476 0
-0.89929092 -3.9776354 0.5007174 0
-0.083492041 -4.0050263 0.91317129 0
0.91141224 -4.0062709 0.019740731 0
-0.58492875 -3.9886887 -0.79354429 0
0.74958766 -4.0209913 0.40005466 0
0.75078177 -4.0134568 -0.47204977 0
-1.0035076 -3.9797812 0.23281896 0
-0.83531737 -3.9895859 0.53457856 0
-0.92165518 -3.9880059 0.38565058 0
0.53247786 -4.0094857 0.73714334 0
-0.81822944 -3.9724369 -0.6753521 0
0.51982403 -4.0069141 0.76742351 0
-0.66301382 -3.9825199 0.78592527 0
0.37412217 -4.0006199 0.87946159 0
-1.0060267 -3.9821684 -0.23153228 0
0.80086875 -4.0203505 -0.34562868 0
-0.91019678 -3.976831 -0.53297752 0
0.17242074 -4.0130267 0.89091802 0
0.67304671 -4.0179343 0.58197725 0
0.7486937 -4.0178909 0.48741645 0
-0.89812768 -3.9724901 0.5962044 0
0.2977978 -4.0100756 0.87982529 0
0.82469904 -4.0272593 0.21959674 0
-1.0860736 -3.9701216 -0.080346614 0
-0.86005259 -3.9791968 0.61357677 0
0.90845537 -4.01332 0.13560693 0
0.63803971 -4.021574 -0.61282676 0
0.82834482 -4.0140014 0.39956325 0
0.23343611 -4.0150981 0.88592875 0
0.4672538 -4.0238781 0.74256164 0
-0.086102851 -4.0011115 0.9723525 0
0.79204166 -4.0398135 0.13189378 0
-0.65954089 -3.9819925 0.82087618 0
0.79459679 -4.0341797 0.2505874 0
0.11614633 -4.002193 0.96907836 0
0.85222578 -4.0233035 0.2511698 0
-0.67097664 -3.9840472 0.80884087 0
0.35740364 -4.0108581 0.87501705 0
0.75364017 -4.0073867 -0.5958131 0
-0.20097877 -3.9996603 0.97247684 0
-0.77623582 -4.0007911 0.61225665 0
0.90804923 -4.0002174 0.39897153 0
-1.0026515 -3.9789696 -0.38771945 0
0.7274465 -4.0132151 0.59593165 0
0.85023236 -4.0278711 -0.22218305 0
-0.82642722 -3.980664 0.68400657 0
0.10246563 -4.02247 0.89832866 0
0.75293696 -4.0088797 0.60550547 0
0.90789747 -4.0146499 0.25169095 0
-0.4996593 -3.9814322 0.95193082 0
-0.43181753 -3.9916489 0.94606942 0
-0.3944459 -3.9840486 0.99379504 0
0.80240321 -4.0169673 0.48619154 0
0.9605782 -4.0111618 -0.09549889 0
0.14377734 -4.007216 0.97271401 0
-0.95119786 -3.9676931 0.61561108 0
0.69245231 -4.02245 -0.60654348 0
-0.055502176 -4.0085378 0.97822297 0
0.47690821 -4.0066857 0.8649416 0
-0.7601521 -3.9739773 0.81204742 0
0.8482002 -4.0187845 0.4024314 0
-0.66217005 -3.9774516 0.87979066 0
0.90538311 -4.0206442 -0.21769422 0
0.69206727 -4.0232382 0.60894144 0
-0.54789269 -3.9954944 0.87980676 0
0.61066985 -4.0235186 0.69119006 0
-0.92131472 -3.9876738 0.5377121 0
0.18344975 -3.9963109 1.0191181 0
0.85147178 -4.0250311 -0.34246123 0
-0.0091798306 -3.9953301 1.0402533 0
-0.31128836 -3.9963372 0.99045843 0
0.95843911 -4.0164733 0.020479441 0
0.90192258 -4.0238132 0.22000298 0
0.41380429 -4.0154519 0.87110347 0
-0.59013176 -4.0068445 0.80706561 0
0.49083695 -4.0054221 0.87986505 0
-1.0924063 -3.9759533 -0.23876166 0
0.64186633 -4.0140171 0.73139703 0
-0.14226007 -4.0098667 0.98284048 0
-0.22720504 -4.0049953 0.98681223 0
0.85121524 -4.025619 0.36827433 0
0.79823041 -4.0261679 -0.47011763 0
0.27860188 -4.008172 0.96230698 0
0.7493031 -4.0219712 0.58103788 0
0.49348649 -4.0270438 0.78592581 0
0.25910509 -4.0081615 0.97302788 0
0.90646458 -4.0180659 -0.33701116 0
-0.31665862 -4.0052357 0.97308409 0
0.051728964 -4.0021739 1.034467 0
0.95961535 -4.0135527 0.25205192 0
-0.78456354 -4.000504 0.69102466 0
0.53266478 -4.0091414 0.86101323 0
0.19319057 -4.0166264 0.96712077 0
0.02866954 -3.996295 1.0654252 0
-1.015187 -3.99085 0.38686195 0
0.91010237 -4.0093932 -0.45623654 0
0.89863563 -4.0367303 -0.10129434 0
0.67559624 -4.0096035 0.76347286 0
0.85411763 -4.0189681 0.48518556 0
-0.14641547 -3.9974368 1.0565243 0
0.57798421 -4.0299902 0.73673391 0
-1.0888362 -3.9726658 0.38758466 0
0.60955292 -4.0161595 0.78592598 0
0.90534472 -4.0207357 0.36782426 0
0.95544803 -4.0239005 0.13603044 0
0.25797656 -3.9907043 1.0656096 0
0.11264515 -4.0075121 1.0285888 0
-1.0206767 -3.9800389 0.49856398 0
-0.28102016 -3.9885848 1.0714056 0
-1.1009254 -3.9837987 0.23152849 0
-1.1066062 -3.9890304 0.074590012 0
-0.7479763 -3.9876683 0.82887793 0
-0.58218145 -3.9856842 0.96118158 0
0.37477699 -4.0076218 0.97342777 0
-0.91344357 -3.9799974 0.68937767 0
-0.43223262 -4.0019903 0.9734351 0
-0.083707809 -4.0053158 1.0503918 0
0.14351906 -4.0000172 1.0658585 0
-0.31549218 -3.9904821 1.0658824 0
0.69451189 -4.0182343 0.72898173 0
-0.21656227 -3.9974906 1.0649137 0
0.72856617 -4.019392 0.69083452 0
-1.0056593 -3.9818201 -0.54702675 0
0.23686552 -4.0097346 1.0156503 0
0.59144962 -4.0287714 0.7672776 0
-0.48916292 -3.9913895 1.0000658 0
0.80063963 -4.0208559 0.60470557 0
0.84965277 -4.0256667 0.49817792 0
0.84699941 -4.0130949 0.59486586 0
-0.78313637 -3.993227 0.78592616 0
1.0109521 -4.0118265 0.25240874 0
-1.1837292 -3.9718828 0.072201312 0
-0.91643143 -3.9829113 -0.69317031 0
-1.0087476 -3.9847472 0.54090911 0
0.35623491 -4.0175591 0.96001476 0
-0.54754162 -3.992934 0.97366989 0
-0.20112447 -4.0025597 1.0662097 0
0.79840457 -4.025784 -0.59525543 0
1.0066117 -4.0230656 0.021489382 0
-1.0968287 -3.980026 -0.39873362 0
0.35830832 -4.0093498 1.0031542 0
0.8474375 -4.0342755 -0.46720964 0
0.95567858 -4.0233278 -0.33432001 0
-0.43053806 -3.9863007 1.0663407 0
0.85482383 -4.0173502 -0.58704501 0
0.82536805 -4.0248265 0.58009738 0
0.2954849 -4.0138092 1.0102508 0
0.90539193 -4.0206232 0.48420817 0
1.0078095 -4.0199637 -0.21153331 0
1.0058765 -4.0249691 -0.095035106 0
0.749035 -4.0171657 0.725968 0
0.95135152 -4.0340724 -0.2168932 0
-1.1834841 -3.9716635 0.23060384 0
-1.0206889 -3.9800863 0.59452254 0
-0.20012017 -3.9825733 1.1582434 0
-0.086340718 -4.0121646 1.0665933 0
1.0050354 -4.0271473 0.13682573 0
0.85394919 -4.0193543 0.6026895 0
-1.0873034 -3.9712541 0.5434348 0
0.95430803 -4.026731 0.36759609 0
-0.90348411 -3.9961822 0.69055194 0
1.0089417 -4.0170321 -0.3293826 0
0.95785701 -4.0179186 -0.45386517 0
0.43568707 -4.0202465 0.95700669 0
0.72778207 -4.0150661 0.78592646 0
0.64085424 -4.016016 0.85401773 0
-0.36041522 -3.9959888 1.0823457 0
0.69976187 -4.0074873 0.8486529 0
1.0099691 -4.0143719 0.36703891 0
0.58097291 -4.024292 0.85952801 0
-0.99641252 -3.973057 -0.70490503 0
-1.1786001 -3.9672933 0.38868177 0
0.41469359 -4.0139203 0.99834871 0
-0.58155894 -3.9915774 1.0055699 0
1.0547377 -4.0154357 0.22077845 0
0.47507596 -4.0099487 0.99185818 0
-0.86330318 -3.9844439 0.81752688 0
0.97812748 -4.0217924 0.39903778 0
-0.43029904 -3.9898896 1.0902448 0
0.97431457 -4.0373912 0.22008196 0
-0.0050222874 -3.9895818 1.1757505 0
0.058842182 -3.9920368 1.1676567 0
-0.047916651 -3.9918125 1.1691443 0
0.61007833 -4.0196214 0.88057053 0
-0.66902542 -3.9806864 1.0097342 0
-0.83525229 -3.9895205 0.8365497 0
0.90723491 -4.0162296 0.60060412 0
0.49208063 -4.0155711 0.97438341 0
-1.1976483 -3.9843378 -0.088410437 0
-0.90153348 -3.9875543 0.7859267 0
-1.0199815 -3.9773281 0.6903429 0
0.51537406 -4.0200944 0.95379281 0
1.0098096 -4.0147848 -0.44879103 0
0.90454841 -4.022634 -0.58310509 0
-0.6702857 -3.9934115 0.97156882 0
0.90181243 -4.0242372 0.5790329 0
1.0547909 -4.0287151 0.022517443 0
1.055081 -4.0279303 -0.093239069 0
-1.1952293 -3.9821732 -0.24862313 0
-0.13482046 -3.9940679 1.1752435 0
-0.74130583 -3.9807794 0.97788846 0
-1.1420838 -3.9757667 0.4966259 0
0.033210039 -4.0000801 1.165117 0
0.74763072 -4.027729 0.76319146 0
0.82875669 -4.0125036 0.75997871 0
1.0557058 -4.0262413 -0.20978105 0
-0.91205072 -3.9786391 0.84231365 0
-0.14119983 -3.990644 1.1947364 0
1.0565145 -4.0240545 0.25249028 0
-1.0080595 -3.9840949 0.6955936 0
0.3751629 -4.0117488 1.0677239 0
0.19974613 -4.0003486 1.1549525 0
0.95314097 -4.0296292 0.48369324 0
1.1084006 -4.0180287 -0.089868814 0
0.59571195 -4.0155244 0.95017135 0
0.97070861 -4.0241942 0.49641186 0
0.79683709 -4.0292401 0.72485119 0
-0.78458929 -4.0006356 0.88083136 0
1.0530299 -4.0334764 0.13740478 0
1.05738 -4.0217142 -0.32690477 0
-0.30667853 -3.9872334 1.1862198 0
0.25847572 -3.9984257 1.1600342 0
0.95745385 -4.0189199 -0.57679474 0
0.52770102 -4.0182848 0.98833197 0
-1.2751572 -3.9654253 0.22947577 0
0.96828532 -4.0141478 0.59357274 0
-1.1017318 -3.9845414 -0.56103426 0
-0.31585628 -3.9950874 1.1601073 0
0.85373914 -4.0198355 0.72095585 0
0.24016643 -4.0045729 1.1467524 0
-0.50997138 -3.9930398 1.100908 0
0.14374389 -4.0062833 1.1602293 0
0.11412716 -4.0070062 1.1610837 0
0.74882829 -4.0176048 0.84673661 0
-0.086256295 -4.0082417 1.1602582 0
-1.2759707 -3.9661326 -0.2547555 0
-0.54827195 -3.9982598 1.0681734 0
0.02876924 -4.0101924 1.1603633 0
1.107739 -4.0198998 -0.20603323 0
-0.6667043 -4.0046873 0.97504508 0
-0.43069583 -3.9877615 1.1604247 0
0.84686679 -4.0124669 0.78592706 0
-0.95914173 -3.9801161 0.82167292 0
1.1598781 -4.011157 -0.087006599 0
0.17432499 -4.0101404 1.1561109 0
-1.2849126 -3.9739063 -0.093532622 0
-1.2854671 -3.9743884 0.068115622 0
1.0529439 -4.0232577 0.39876166 0
0.64346826 -4.0108533 0.97659945 0
-0.90063798 -3.9835935 0.88100129 0
0.4913899 -4.0099344 1.068471 0
1.1038243 -4.0309691 0.023791194 0
-1.197088 -3.9838364 -0.41089714 0
0.95494223 -4.0251565 0.59973955 0
1.0550075 -4.0281291 0.36698556 0
0.10883451 -4.0131111 1.1650977 0
0.58270991 -4.0209799 0.98375994 0
0.61003953 -4.0193658 0.97530574 0
-1.0911164 -3.9747655 0.70034635 0
-0.5848701 -3.9886246 1.1100177 0
0.29683673 -4.0116272 1.1411612 0
-0.78253746 -3.9901731 0.97534239 0
0.67341292 -4.0167375 0.9474563 0
0.360654 -4.0056105 1.1465478 0
1.1280336 -4.0213585 0.22095457 0
-1.143124 -3.979388 0.59305876 0
1.1075546 -4.020421 -0.32335085 0
-0.086339712 -4.0088472 1.1904467 0
-0.21776104 -3.9990067 1.207124 0
0.02863352 -3.9912744 1.2525264 0
-0.22784019 -4.0062952 1.1833618 0
0.85217315 -4.0376086 0.68986571 0
0.35698652 -4.0115538 1.1339184 0
1.105011 -4.0276136 0.25271982 0
-1.0909436 -3.9746063 -0.72109723 0
-0.28504634 -3.9935288 1.2158604 0
0.90499151 -4.0215778 0.71867681 0
1.1027205 -4.03409 0.13826038 0
0.97669733 -4.0276427 0.57824683 0
1.0024306 -4.0338922 0.48295325 0
1.0578411 -4.0204673 0.48126835 0
-1.1850233 -3.9730408 -0.57151955 0
1.0561112 -4.0251446 -0.44724876 0
1.1560067 -4.0226235 0.025972664 0
0.800614 -4.0209126 0.84377086 0
0.27614295 -4.0145392 1.1526034 0
0.41657162 -4.010685 1.126754 0
0.84524304 -4.0047731 0.88120788 0
-4.1509919 0.23845939 0.49513808 0
-4.1581702 -1.1034078e-05 0.49511471 0
-0.56958914 -3.9702623 1.203457 0
-0.085968189 -3.9948537 1.2530411 0
-0.89815271 -3.9726009 0.97565389 0
0.73028523 -4.0288754 0.88124347 0
-0.83050084 -3.9847522 0.9882372 0
-1.1909885 -3.9783788 0.54770923 0
0.90290129 -4.0200438 0.75894082 0
-1.1410179 -3.9720566 0.68972301 0
-0.54690802 -3.9883137 1.1617962 0
1.1559114 -4.0229058 -0.20399082 0
1.129158 -4.0161119 0.39835182 0
-4.1597929 -0.11938959 0.49488148 0
-0.6654864 -3.9973717 1.0693426 0
-0.42405653 -3.982657 1.2345581 0
-0.85674882 -3.9738634 1.0208732 0
-0.90343118 -3.9702327 0.99483144 0
0.85504162 -4.0168509 0.83967865 0
1.1051784 -4.0271406 0.36667144 0
-0.35794163 -3.9930384 1.2264931 0
1.1580009 -4.016717 -0.31946713 0
1.0039647 -4.0299196 -0.57496363 0
-4.1480017 0.35791782 0.49474803 0
1.1077416 -4.0198922 -0.44205374 0
-0.77211928 -3.9939277 1.0175679 0
-0.78036112 -3.9790761 1.0695167 0
-4.1578708 -0.23885454 0.49465638 0
-1.0555189 -3.9741104 0.82582557 0
0.4729141 -4.0137982 1.120928 0
-4.1639662 0.11950936 0.49458966 0
-1.0064328 -3.9825532 0.85100102 0
-0.40342283 -4.0011644 1.1952012 0
1.160944 -4.0079999 -0.43544644 0
0.75036144 -4.0183272 0.94494313 0
1.0041239 -4.0295072 0.5985148 0
1.1549057 -4.0258851 0.25303283 0
-0.66557884 -3.9884093 1.1206559 0
-1.2861662 -3.9749961 0.39017886 0
1.1580294 -4.0166326 0.36619675 0
-0.43000323 -3.9813488 1.2540612 0
1.1080571 -4.0190001 0.48030081 0
1.1522934 -4.0336218 0.13913225 0
-1.0242517 -3.9939792 0.78592771 0
0.69173348 -4.0239215 0.97469544 0
-4.1422992 0.47748467 0.49430665 0
0.43691206 -4.0167828 1.1441033 0
0.37571594 -4.0176625 1.1626886 0
0.52996361 -4.0141172 1.1146257 0
0.95435655 -4.0266104 0.71694386 0
-0.66280806 -3.9812837 1.1627715 0
-1.2876337 -3.9762719 -0.42086017 0
0.97168291 -4.0282331 0.68946552 0
-0.31598729 -3.9967446 1.2546124 0
-0.20123607 -4.0047808 1.2546846 0
-1.0205646 -3.9796014 0.88156635 0
0.74773026 -4.0199366 0.9692893 0
1.0945213 -4.026968 0.4940736 0
-0.49207258 -3.9967487 1.2011948 0
-1.2667642 -3.9762101 0.49406949 0
-4.1591616 -0.11937147 0.59210193 0
1.20228 -4.0211134 0.22122124 0
0.58769476 -4.011476 1.1078126 0
0.057188034 -3.9943941 1.3062295 0
-1.3815761 -3.9692018 0.064467624 0
-1.2632607 -3.9652131 0.59206909 0
-4.1548667 0.23868197 0.59206271 0
-4.1626134 1.1045869e-05 0.59202099 0
1.0542692 -4.0301256 -0.57024932 0
1.2027608 -4.0288501 0.026736021 0
1.0557387 -4.0261521 0.59664357 0
0.61023283 -4.0206394 1.0703429 0
1.2053566 -4.0207825 0.25339314 0
0.51706934 -4.0150733 1.1397002 0
1.0511529 -4.0310674 0.57752216 0
0.25898272 -4.006269 1.2552456 0
0.97848749 -4.020319 0.757348 0
-0.5034225 -3.9856682 1.2471523 0
-4.1774187 1.1085156e-05 0.49376902 0
1.2028227 -4.0286579 0.14020847 0
-4.1656513 -1.1053929e-05 0.59187955 0
1.2034316 -4.0267653 -0.2022149 0
-4.1632347 -0.35923222 0.49367917 0
0.90424657 -4.0233541 0.8375597 0
0.73005402 -4.0276003 0.97660315 0
0.11689758 -4.0012631 1.2986476 0
-0.5457083 -3.9795644 1.2554998 0
-4.1599526 -0.23897414 0.59182554 0
0.14403744 -4.0144649 1.2555282 0
0.49201527 -4.015038 1.1636114 0
0.96965265 -4.0198164 0.78592807 0
-1.1880217 -3.9757237 0.7066803 0
1.2544243 -4.0182137 0.028977513 0
-4.1525531 0.35831052 0.59177101 0
1.200896 -4.034646 -0.08816883 0
-0.89812863 -3.9724946 1.0707678 0
0.17784667 -4.0048032 1.2903441 0
0.64215302 -4.0134511 1.1024579 0
-1.1854887 -3.9734571 -0.73708081 0
1.2563297 -4.0119882 0.25380605 0
-4.1684003 0.11963663 0.59167165 0
-0.20734453 -3.9858346 1.3467644 0
1.2536426 -4.0207682 -0.084603488 0
-1.3894479 -3.9758499 -0.10058826 0
-1.2853026 -3.9742453 0.55127299 0
0.95789254 -4.0178308 0.83352005 0
0.79966116 -4.0230131 0.96559703 0
0.30035961 -4.00594 1.2729142 0
-0.01449132 -4.0026741 1.3191808 0
0.59601164 -4.0145926 1.1357131 0
-1.3846459 -3.9717944 -0.26534069 0
-1.1432704 -3.9798977 0.78592819 0
1.155212 -4.0249772 0.47978961 0
-1.153558 -3.9681017 0.83016378 0
1.1282108 -4.0205321 0.57610857 0
1.2044743 -4.0235248 0.36605716 0
1.0031271 -4.0320883 0.7153722 0
-0.75148273 -3.9912896 1.1325908 0
1.1040038 -4.0304618 -0.56580096 0
-0.08078599 -4.0013957 1.3294181 0
-4.1608453 1.1041177e-05 0.6890685 0
1.1053444 -4.0266709 0.59520996 0
0.036222219 -3.9931777 1.358063 0
1.095428 -4.030304 0.59137356 0
0.23585832 -4.0113101 1.2833385 0
1.2550954 -4.0160213 -0.31355703 0
-0.82374048 -3.9779675 1.1405859 0
-0.67158365 -3.9850929 1.2135074 0
-1.3910363 -3.9771912 0.22780617 0
0.60858685 -4.0097947 1.1646055 0
1.2016327 -4.0323563 -0.31969881 0
1.2514063 -4.0280757 0.14100011 0
1.2011057 -4.0270042 0.39828363 0
-1.1010036 -3.9838707 0.85959673 0
-0.99986029 -3.9763243 1.0065104 0
-0.086094022 -4.000701 1.3484104 0
-0.31539193 -3.9892142 1.3484153 0
-1.2895098 -3.9779029 -0.58737701 0
-0.14974904 -4.0017781 1.3406483 0
0.82306659 -4.033196 0.94427139 0
-4.1655235 0.11955407 0.68891984 0
1.2039921 -4.0250235 -0.43606734 0
0.028721461 -4.0035324 1.3486927 0
-4.1683912 -0.48049232 0.4924705 0
0.69358134 -4.0201387 1.0985525 0
-4.1495175 -0.11909468 0.78592849 0
-4.1618123 0.23908098 0.68888646 0
-0.42998227 -3.9811549 1.3487871 0
1.0532902 -4.0217471 0.75596118 0
-4.1565366 0.4791258 0.59102255 0
-4.1694288 -1.1063954e-05 0.68886888 0
-1.0213588 -3.9826989 0.9774583 0
-0.78188378 -3.98684 1.1652659 0
0.41483045 -4.0136843 1.2589148 0
1.1561602 -4.0221686 0.59338534 0
1.1542974 -4.0276866 -0.56069601 0
-0.58768129 -3.9916992 1.2612102 0
-1.3838453 -3.9711182 -0.43190074 0
-1.3873782 -3.9741018 0.39151028 0
1.0940214 -4.0251288 0.68882877 0
-4.1557803 0.60028785 0.49226651 0
-4.1646938 -0.23924649 0.68881935 0
-0.89640546 -3.9648728 1.1654673 0
1.2038478 -4.0254722 0.47901618 0
0.67289495 -4.0184302 1.1326463 0
1.0069225 -4.0222607 0.83132327 0
-1.2721155 -3.962781 -0.75044966 0
-4.155601 1.102726e-05 0.78592861 0
0.35241485 -4.0191751 1.268682 0
1.0529742 -4.033627 0.71338487 0
1.2548739 -4.0167446 -0.43072575 0
-0.2213378 -3.992985 1.3790385 0
-1.4786875 -3.9622431 -0.10582754 0
0.37607983 -4.021554 1.2581067 0
-4.1738167 -0.36014533 0.5907774 0
0.84866285 -4.0314679 0.96322638 0
-4.1594911 -0.35890919 0.68874061 0
-4.1732349 -0.1197754 0.68874049 0
0.49147525 -4.0106311 1.2582859 0
-4.1485853 0.47820929 0.6887148 0
-0.053986311 -4.0051956 1.3673257 0
-4.1607327 0.35901636 0.68871164 0
0.53170216 -4.0109143 1.2429328 0
0.25881886 -4.0037341 1.3498814 0
1.2741892 -4.0312076 0.22128481 0
-0.13863325 -4.0021648 1.3736943 0
-0.9663825 -3.9914396 1.0298704 0
0.47085297 -4.0174689 1.2523518 0
1.0597131 -4.0154057 0.82735127 0
0.19612777 -4.0093336 1.3489349 0
1.2471137 -4.0421023 -0.20246059 0
0.73077559 -4.0315809 1.0724833 0
-1.1437464 -3.9815545 0.88236338 0
-1.2838392 -3.9729731 0.71280819 0
-1.4766541 -3.9605749 -0.27314252 0
0.74592292 -4.0237746 1.0940828 0
-0.20151733 -4.0103779 1.350352 0
-1.4848094 -3.9672649 0.0603742 0
-1.0181481 -3.9701788 1.0725796 0
-4.1562843 0.23876341 0.78592885 0
0.90264881 -4.027163 0.95832872 0
0.14399748 -4.013351 1.3504217 0
-1.2638218 -3.9669745 0.78592885 0
-0.29115248 -4.0010271 1.3639948 0
-4.1620841 0.11945535 0.78592885 0
-0.76656055 -3.9846609 1.221094 0
1.276036 -4.0211992 0.39793757 0
-4.1531553 0.59990865 0.59045458 0
-4.1691742 -0.48058257 0.59043026 0
1.2999302 -4.0261822 0.25378615 0
0.85165995 -4.0351768 0.97804075 0
1.2971231 -4.0358472 0.028566718 0
0.89918447 -4.034358 0.94199568 0
-1.3817317 -3.9693332 0.55494308 0
1.2978196 -4.0334492 0.14142539 0
-0.54595447 -3.98136 1.3507991 0
-1.2699587 -3.9862373 0.68853837 0
-4.1665339 -1.1056271e-05 0.78592896 0
-0.35954118 -3.9949462 1.3744115 0
1.2969651 -4.0363913 -0.084921539 0
-4.1397514 0.47719097 0.78592896 0
1.2012713 -4.0261731 0.57562256 0
-0.91152358 -3.9781249 1.1527379 0
0.58636642 -4.0140085 1.2367681 0
1.3504044 -4.0155396 -0.19385654 0
-0.66505498 -3.9947805 1.2593534 0
1.1574699 -4.01829 0.707331 0
0.109869 -4.017158 1.3567166 0
-0.66761613 -3.9905744 1.2735698 0
-0.39610529 -3.9872124 1.3933856 0
0.2762326 -4.014307 1.3441207 0
1.1025833 -4.0344782 0.71141112 0
-1.0572464 -3.9767292 1.0344334 0
1.2973241 -4.0351553 -0.1991334 0
-1.4859972 -3.9682393 0.22663212 0
-4.1546798 0.35849404 0.78592902 0
0.84788334 -4.0172834 1.0730786 0
1.0111256 -4.0113773 0.94760424 0
1.2477226 -4.040112 0.36610734 0
-1.1927276 -3.9799347 0.86761099 0
-1.3853648 -3.9526684 0.68842745 0
0.60825962 -4.0076385 1.2597947 0
1.0941628 -4.0256491 0.78592908 0
-1.3947145 -3.9793446 0.49102414 0
0.35795534 -4.012907 1.3382496 0
0.97387487 -4.0373201 0.88260907 0
-1.4732349 -3.9577701 -0.44143015 0
-4.1533985 -1.1021415e-05 0.88261563 0
1.3000653 -4.0257177 0.36560544 0
0.74870014 -4.0240469 1.1300675 0
1.1274886 -4.0239015 0.75473952 0
0.79826736 -4.0260863 1.0894971 0
-1.383306 -3.9706628 -0.60030633 0
1.2022824 -4.0303369 0.59280062 0
0.37491006 -4.0090451 1.3519125 0
-4.1441169 0.72051853 0.58998775 0
-4.1673994 -0.23940194 0.78592914 0
1.2003484 -4.0363479 -0.55903667 0
0.85446525 -4.0181713 1.0825531 0
-0.74169111 -3.9811773 1.2838089 0
-0.43283463 -3.9928274 1.3867043 0
1.2549934 -4.0163541 0.59025234 0
-4.1501603 0.59947604 0.68831545 0
-4.1586123 0.72303879 0.4907223 0
1.3497903 -4.0177732 -0.3087495 0
1.2497165 -4.033597 0.47870252 0
1.2974564 -4.0346999 -0.3146832 0
-0.31523442 -4.0041299 1.3891069 0
0.64027059 -4.0171685 1.2309036 0
-4.151268 0.23847525 0.88272548 0
0.14337367 -3.9959648 1.4432093 0
-4.1668892 -0.60189241 0.58980858 0
-4.1797714 -0.60375327 0.49057189 0
0.97602725 -4.0303845 0.93921667 0
0.69729388 -4.0125394 1.222988 0
-1.2617793 -3.9741027 0.83597869 0
-1.3929973 -3.9744451 0.58974552 0
1.3449998 -4.0351939 0.029761255 0
-0.86114216 -3.9809554 1.2283905 0
-0.5042603 -3.9866111 1.3980596 0
1.3469826 -4.0279832 0.25397933 0
0.95047069 -4.0362592 0.95642978 0
1.3478198 -4.0306273 0.22151898 0
-1.1435788 -3.9809709 0.97887492 0
-4.163785 1.1048977e-05 0.88285774 0
-1.1006534 -3.9835484 1.0189571 0
1.0921466 -4.0182314 0.88286293 0
0.49089244 -4.0058751 1.3532205 0
-0.43001288 -3.9814382 1.444205 0
0.82630968 -4.0214024 1.1263204 0
1.3440835 -4.0385251 -0.083599776 0
0.028729074 -4.0045938 1.4442222 0
1.3444662 -4.0371342 0.14190461 0
-0.3156704 -3.9927366 1.4443042 0
1.2982215 -4.0320654 -0.43125534 0
1.2223368 -4.0360007 0.58948725 0
-1.4882708 -3.9701042 0.39281923 0
-1.017254 -3.9666927 1.1682794 0
-0.78278881 -3.9914548 1.2614263 0
0.43547714 -4.0208402 1.3345739 0
1.3974905 -4.0152531 0.25442168 0
-4.1705766 -0.35986575 0.7859295 0
0.97201747 -4.0296202 0.97902536 0
1.1042751 -4.0296946 0.8270787 0
1.2264317 -4.0495219 0.4900116 0
1.2492852 -4.0350065 -0.55476677 0
1.2989109 -4.0296917 0.47776958 0
1.3511922 -4.0126753 0.47616601 0
-0.49017358 -3.9932511 1.4030302 0
-4.1669426 0.1195948 0.88297129 0
-4.1478348 0.84441364 0.48988935 0
-4.1779461 -0.48159373 0.68802762 0
0.73093659 -4.0324693 1.1685715 0
1.2034638 -4.0266657 0.70653951 0
0.51668847 -4.0162015 1.328565 0
1.2194591 -4.0264988 0.68799281 0
-4.1722784 -0.72541487 0.48975256 0
1.0528029 -4.0238724 0.93626577 0
-1.3816779 -3.9692876 0.71909845 0
-0.20132215 -4.0064936 1.4453487 0
-0.57910371 -3.9823179 1.4106314 0
-0.086326867 -4.0115213 1.4454968 0
1.4449444 -4.012001 -0.077334493 0
-1.1558456 -3.9714634 1.0406358 0
-1.266757 -3.9761877 0.88307476 0
0.95874548 -4.0157127 1.0727162 0
1.3932443 -4.0316057 0.031154543 0
-0.66429716 -3.9902284 1.3545289 0
1.0568644 -4.0231085 0.9465937 0
1.0890737 -4.0069246 0.97935611 0
-4.1724329 -0.11975238 0.88309932 0
1.2742215 -4.0310321 0.57515192 0
-4.1673388 -0.23939845 0.88310069 0
-1.3871349 -3.9577191 0.78592974 0
-1.0038159 -3.9800732 1.1659331 0
0.84748608 -4.0154009 1.1691022 0
-4.1499882 0.72153938 0.68787336 0
-4.1422672 0.8432802 0.58901262 0
1.2542084 -4.018919 0.70376605 0
0.90132487 -4.0303192 1.0808754 0
-1.3787611 -3.9668245 -0.76975381 0
-0.82826591 -3.9825091 1.2980349 0
1.3932285 -4.0316668 -0.19457263 0
-0.58000779 -3.9888155 1.4107164 0
1.2008262 -4.0284066 0.7538259 0
-1.2878892 -3.9764941 0.87609464 0
0.25922212 -4.0099721 1.4464655 0
-0.19999547 -3.9800916 1.5366457 0
1.3922491 -4.0354385 0.14263715 0
0.96936166 -4.01861 1.0750437 0
-4.1426377 1.0407075 -0.02239117 0
-1.5850658 -3.9600804 0.22537684 0
-0.95699191 -3.976754 1.2359142 0
-0.66619992 -3.9758193 1.4168304 0
0.59447873 -4.0193567 1.3244131 0
1.343524 -4.0405602 0.36564839 0
1.3909488 -4.0404463 -0.082341641 0
-4.1347709 0.96605861 0.48896563 0
-4.1547642 0.4789215 0.88328868 0
1.1525277 -4.032928 0.82506627 0
-0.90057087 -3.9832966 1.2633373 0
1.3466295 -4.0376377 0.39800519 0
-4.161252 1.1042256e-05 0.97977376 0
-4.1674352 0.35959467 0.8833037 0
-4.1618981 -1.104397e-05 0.97980386 0
1.2985535 -4.0309224 0.5903846 0
1.2967956 -4.0369744 -0.55163389 0
-1.4881053 -3.9699686 0.55924922 0
-4.1433263 1.0407172 0.19908087 0
-1.1428268 -3.9783535 1.0754198 0
1.3444393 -4.0372319 -0.42950034 0
-4.1366596 0.84213859 0.68765801 0
-4.1424346 1.0407045 -0.24466968 0
-1.5951881 -3.9681442 -0.1140787 0
1.3927668 -4.0334449 -0.30953521 0
-1.1912038 -3.9785712 1.0290465 0
0.72908235 -4.0222397 1.2637993 0
1.0083835 -4.0184774 1.0691049 0
-1.5969257 -3.9695284 0.055730104 0
-0.7811147 -3.9829185 1.3564471 0
0.7413367 -4.0335135 1.2229512 0
-1.4841056 -3.9666874 -0.61487174 0
-1.5208577 -3.970499 0.48856854 0
-0.54724771 -3.9907906 1.448076 0
-4.1804433 -0.48188159 0.78593016 0
1.2197872 -4.0275826 0.78593016 0
-4.1652751 0.6016593 0.78593016 0
1.3469181 -4.0282178 -0.54572225 0
-4.147501 0.59909195 0.88348144 0
-1.365804 -3.9710252 0.84104013 0
0.89945745 -4.0333071 1.12515 0
-4.1626043 -0.23912646 0.98015666 0
0.97931683 -4.0169263 1.119543 0
1.1271292 -4.025579 0.93449414 0
-4.1846733 -0.60446131 0.68750471 0
-4.1545987 0.35848707 0.98018324 0
1.4223719 -4.0216956 0.39751855 0
-4.1493783 0.72143334 0.78593022 0
1.1038977 -4.0307617 0.94488287 0
-4.1815453 -0.72702605 0.58821917 0
-4.164485 0.23923449 0.98024446 0
0.37549627 -4.0153136 1.448848 0
0.67206275 -4.0211492 1.3202292 0
-4.1782556 -0.36052835 0.88355684 0
-1.5187507 -3.9649982 0.58814275 0
0.90817869 -4.0139794 1.1999904 0
0.85199845 -4.0238242 1.2083378 0
0.11871386 -3.9960716 1.5479771 0
1.350984 -4.0392561 0.48805207 0
-0.66479397 -3.9875751 1.4272788 0
1.4390864 -4.0359659 0.14321026 0
-1.5963237 -3.9690487 -0.28522366 0
1.4382992 -4.039187 0.03147471 0
1.1566157 -4.0208197 0.93970889 0
1.4402339 -4.0312719 0.25433287 0
0.61045557 -4.0221071 1.3577657 0
-1.1392379 -3.9658599 1.1711929 0
-4.1741791 -0.11980249 0.98045647 0
0.79391038 -4.0356927 1.2175709 0
1.3476596 -4.03157 0.57450837 0
1.3922701 -4.0353575 -0.42623049 0
1.2995232 -4.0275836 0.70319545 0
-4.175106 0.11982909 0.98049963 0
-4.1410708 1.0406849 0.42027977 0
-4.1388474 1.1313267 -0.022294551 0
1.0581731 -4.0195699 1.0652765 0
-1.2680845 -3.9803545 0.98052973 0
-0.31565943 -3.9925978 1.5404031 0
0.14361118 -4.0025845 1.5404227 0
-4.1505733 0.47843844 0.98055708 0
1.1999896 -4.0374632 0.82339483 0
-1.592366 -3.9658961 0.39418611 0
-4.1379828 1.0406408 -0.46777457 0
1.2175512 -4.0201998 0.88371408 0
-0.050377607 -3.9972389 1.5638397 0
-4.1767507 -0.6033169 0.78593045 0
1.4880381 -4.0259156 -0.077777445 0
1.3453629 -4.0338731 0.5895189 0
0.49147987 -4.0106688 1.4501367 0
1.4185177 -4.0465474 0.22144252 0
-4.1831822 -0.94998306 0.19839652 0
-4.1807909 -0.8511228 0.48753813 0
1.3891318 -4.0474443 0.36555889 0
1.4393702 -4.0348058 -0.30757779 0
0.96011126 -4.0123215 1.1942887 0
-4.1579027 -1.1033368e-05 1.0767251 0
-0.91876197 -3.9851842 1.3133219 0
1.3922225 -4.0355411 0.4767684 0
-4.1763263 -0.48140702 0.88379461 0
-4.170085 -0.84894335 0.58769101 0
-1.4833336 -3.9660542 0.72575331 0
1.3496704 -4.0182085 0.70041263 0
0.031527758 -4.0039349 1.5575649 0
-4.1526194 0.23855288 1.0768346 0
1.4950415 -4.0219989 0.22206168 0
1.2736893 -4.0339165 0.75309765 0
-4.1911006 -0.95001692 -0.024897009 0
-4.1412883 1.1313965 0.19908246 0
1.4398444 -4.032865 0.36509579 0
-4.160665 1.1040697e-05 1.0769184 0
-0.77855313 -3.969857 1.4509274 0
-4.1917815 -0.94998306 -0.024932683 0
1.0549754 -4.0143991 1.1163914 0
1.3507899 -4.0386758 0.58755308 0
-0.086339481 -4.0121074 1.5419066 0
0.25890553 -4.0050745 1.5419816 0
0.02879246 -4.0134292 1.5420001 0
-4.1708951 -0.35989323 0.98094565 0
-1.5184321 -3.9641664 0.68711126 0
1.4863372 -4.0333323 0.14391534 0
0.97037411 -4.0228071 1.1723082 0
-1.1032569 -3.9859459 1.1808373 0
-4.1902933 -0.95001692 0.19827241 0
-4.1493716 0.96946996 0.58743495 0
-1.5844238 -3.959569 0.56283224 0
1.4854772 -4.0370827 0.032605261 0
0.27840376 -4.0086851 1.5369046 0
1.2494762 -4.0343823 0.82058191 0
-0.13861275 -4.0021214 1.5734097 0
-4.1486959 0.72131467 0.88395667 0
1.4398886 -4.0326848 -0.42294532 0
-4.1641498 -0.11951464 1.0772822 0
1.2014681 -4.0251861 0.93259817 0
-0.43138039 -3.9940996 1.5427151 0
-4.1898179 -0.95001692 -0.24875838 0
-0.22313738 -3.9966681 1.5807146 0
-1.0217352 -3.9841666 1.2667587 0
0.84940672 -4.0245008 1.2667669 0
-0.66536099 -3.9966185 1.4519377 0
1.4348745 -4.0531974 -0.19626737 0
0.19464636 -4.0130119 1.5449293 0
-0.54593939 -3.9812498 1.5429373 0
-0.74692178 -3.9865792 1.4422807 0
0.82766986 -4.0164561 1.3109156 0
-1.2867565 -3.9755092 1.040076 0
-4.1301832 1.2217023 -0.022010237 0
-0.76950407 -3.989568 1.4293379 0
1.3911521 -4.0396633 -0.5456242 0
1.2027802 -4.0287895 0.93837059 0
-1.3932991 -3.9791024 0.88613141 0
1.4878995 -4.0265198 0.36479467 0
-4.1902661 -0.72854227 0.68692285 0
1.5342457 -4.0258355 0.03448984 0
1.094162 -4.0256457 1.07769 0
0.74592757 -4.0335927 1.3184438 0
-1.6018412 -3.9734442 -0.45883179 0
1.105224 -4.0270109 1.0631971 0
1.484637 -4.0407467 -0.19253176 0
-4.1506667 1.1316651 -0.24556059 0
1.4854325 -4.0372777 0.25441271 0
-1.6972935 -3.95948 -0.12063745 0
-4.1824942 -0.95001692 0.42099148 0
0.35810053 -4.0125146 1.5312259 0
-1.3951929 -3.9807096 0.88412434 0
1.0086845 -4.0176978 1.1908531 0
1.3488592 -4.0245047 0.75113964 0
-4.1541524 0.60005271 0.98145247 0
-4.1719952 0.11973981 1.0778314 0
-1.2669942 -3.9769323 1.077843 0
1.0629207 -4.0067325 1.1829664 0
0.72955912 -4.0248699 1.3608991 0
1.4211774 -4.0293975 0.57377827 0
-4.1537232 0.84561247 0.78593099 0
1.4855494 -4.0367675 -0.30587989 0
-1.2697148 -3.9854119 1.0499936 0
-4.143065 1.094232 0.48623905 0
0.60933346 -4.0147138 1.4534283 0
1.4385568 -4.0381331 0.47630668 0
-4.1783733 -0.72647452 0.78593105 0
-1.1513631 -3.9648769 1.2512999 0
1.2981696 -4.0322442 0.81805331 0
1.3906015 -4.0417838 0.58916545 0
-1.7035332 -3.9643066 0.051504284 0
1.4399505 -4.0324316 -0.54054964 0
-4.1533604 -1.1021315e-05 1.1737252 0
-1.699734 -3.9613678 0.22378853 0
-4.152185 0.11917123 1.1737752 0
-4.131813 1.0405525 -0.69221652 0
1.2526958 -4.0238614 0.93455088 0
-0.85980296 -3.9787934 1.436686 0
-4.182436 -1.0412772 -0.24816966 0
1.3519722 -4.0422106 0.68670934 0
-4.1824727 -0.60414344 0.884305 0
1.2186538 -4.0238404 0.98178178 0
-4.1741247 -0.23978828 1.0783417 0
-4.1408534 1.1313841 -0.46836615 0
-0.82631445 -3.9805508 1.4560359 0
-1.0075858 -3.9836459 1.327859 0
-4.1860075 -0.95001692 -0.47359157 0
-4.1421752 0.84326148 0.88433433 0
-4.1665678 0.35951984 1.0784147 0
1.4863294 -4.0333662 -0.42062718 0
-1.6494511 -3.9620364 0.48578188 0
-4.1527085 0.97024965 0.68665731 0
-4.1556582 0.47902459 1.0784935 0
1.5318961 -4.0367994 0.14425495 0
-1.5195149 -3.9669936 0.78593129 0
-1.1909337 -3.9783297 1.1924613 0
-1.4950066 -3.9756296 -0.79168177 0
-4.144217 1.04073 0.64187396 0
-4.1389771 1.0931522 0.58651412 0
1.5321155 -4.0357761 -0.19013479 0
-4.1493087 1.1316262 0.4204576 0
-4.1947327 -0.94998306 0.4212051 0
-0.90439516 -4.0002117 1.3624058 0
1.154209 -4.0279484 1.0597073 0
0.72593218 -4.0048604 1.4549786 0
-4.1818476 -0.48204345 0.98202449 0
1.5324659 -4.0341411 0.25464392 0
-4.1190233 1.311798 -0.021662503 0
-1.0712495 -3.9979522 1.248588 0
-0.40112233 -3.9967782 1.5993022 0
-0.48557496 -3.9847801 1.6060381 0
1.1277652 -4.0226116 1.1151649 0
-4.1599431 -0.11939391 1.1745001 0
-1.6963179 -3.9587255 0.39553609 0
1.3925529 -4.0342684 0.70095795 0
-1.7037151 -3.9644473 -0.29524702 0
0.37608552 -4.0216146 1.5468287 0
1.4797517 -4.0355248 0.48532039 0
1.5325389 -4.0338006 -0.30333906 0
0.51635969 -4.0171752 1.5200573 0
-4.1569281 0.23880039 1.1746986 0
1.346501 -4.0297346 0.8155883 0
-4.1949282 -1.041456 0.19818008 0
1.5297372 -4.0468736 -0.079181075 0
-4.1519012 0.72187203 0.98224121 0
1.3497313 -4.035511 0.78593147 0
-4.1865954 -0.85230452 0.68647313 0
-1.020227 -3.9782851 1.3632278 0
-1.5989919 -3.9711745 -0.63278717 0
1.4921362 -4.0426836 0.39770293 0
-4.1657572 1.1054211e-05 1.1748831 0
-0.89886737 -3.9757619 1.4559627 0
0.9013356 -4.0260735 1.3090239 0
-4.1768017 -0.36040288 1.0791334 0
-4.1767297 -0.97586203 0.58612698 0
1.4767056 -4.0272174 0.58611745 0
-0.31954575 -4.0126443 1.5939299 0
-4.1737704 -0.60288644 0.9823764 0
0.43272424 -4.0286245 1.5288632 0
-4.1529274 0.35834286 1.1751261 0
0.84886611 -4.0219393 1.3637233 0
-4.1277142 1.2178664 0.48494574 0
-4.1476855 1.2224543 -0.24558413 0
1.4371687 -4.0438118 0.58834183 0
-4.1487703 0.96932954 0.78593165 0
-4.2053308 -1.041605 -0.025677115 0
-4.1786208 -0.72651756 0.8846646 0
-4.1518588 1.2226336 0.19884109 0
0.59565377 -4.0157051 1.5140032 0
1.5783637 -4.0348082 -0.076521009 0
-0.66462892 -3.9922211 1.5483372 0
-4.1536517 0.59998035 1.0794439 0
1.5659008 -4.0344357 0.22200975 0
-1.5899694 -3.9639866 0.73289502 0
-1.396046 -3.9831438 0.98254514 0
-1.3828504 -3.970278 1.0510945 0
1.4858418 -4.0354924 -0.53851354 0
1.2032236 -4.0274119 1.0560466 0
0.97184545 -4.0289068 1.270427 0
-4.1380038 1.2220383 0.42031687 0
-0.95560741 -3.9745891 1.4459144 0
1.4832826 -4.0466528 0.47620088 0
-4.1881962 -1.0413597 0.42110243 0
1.2986331 -4.0306482 0.93326312 0
1.1068459 -4.0224252 1.1829169 0
1.5309708 -4.0411177 0.36488062 0
1.2726188 -4.0397167 0.9327035 0
1.4867034 -4.0317349 0.5863148 0
0.4927859 -4.0213265 1.5491362 0
-1.3896587 -3.9649196 1.0797683 0
-4.1977611 -0.98077583 0.48444343 0
1.3470563 -4.0275126 0.88479292 0
1.5788232 -4.0325036 0.25483581 0
-4.1804852 -1.132519 -0.24817044 0
1.5318067 -4.0372167 -0.41922152 0
-1.493032 -3.97401 0.89514357 0
1.4210846 -4.0299959 0.75060081 0
1.5775071 -4.0391045 0.14462081 0
-1.7023189 -3.9633672 -0.47036439 0
-1.3716416 -3.9790967 1.0566239 0
-1.1457304 -3.9884613 1.2710465 0
-0.78026873 -3.9786048 1.5496988 0
-1.2682835 -3.9809792 1.1760384 0
-4.1520171 0.47860485 1.1761677 0
-1.5205569 -3.9697139 0.88488972 0
1.5761318 -4.0460029 0.033504188 0
1.2530211 -4.022799 1.0515875 0
-4.1433268 1.1314549 0.64192939 0
1.4928328 -4.0377245 0.57366109 0
-4.1895218 -1.0413786 -0.47410333 0
1.2192874 -4.0259323 1.0801266 0
1.5320032 -4.0363002 0.47511828 0
-4.146656 1.0951803 0.6860925 0
-4.1416655 1.2221956 -0.46886474 0
0.67330599 -4.017087 1.5089387 0
-0.91595888 -3.9824505 1.47347 0
1.1574605 -4.0183182 1.1774466 0
1.4768664 -4.0276561 0.68606818 0
-4.1367579 1.3128144 0.19902553 0
-0.58077812 -3.9901874 1.6177557 0
1.5764109 -4.0446029 -0.19008291 0
-4.1475496 0.84435558 0.98310053 0
-4.1816144 -0.48201653 1.0803216 0
0.60927755 -4.0143456 1.5508151 0
-4.1833892 -0.94998306 -0.70028257 0
1.3920066 -4.0363727 0.81474268 0
-1.256038 -3.9659207 1.2608614 0
-4.1483574 0.72125584 1.0804117 0
0.9761349 -4.0299444 1.3062 0
-4.1371732 1.3128382 -0.24506152 0
1.5656691 -4.0362768 0.39742267 0
1.5772457 -4.0404158 -0.30283815 0
1.5782214 -4.035522 0.36461794 0
-1.1398526 -3.9680002 1.366244 0
1.4370853 -4.0441532 0.70079851 0
-4.1591558 -0.47942773 1.1768388 0
1.3465258 -4.0296445 0.93054277 0
-4.1861901 -0.95001692 -0.70072627 0
-1.1041207 -3.9867413 1.3446329 0
-1.2873847 -3.9760554 1.2062297 0
1.2005391 -4.0298457 1.1139524 0
-4.1560521 0.95001686 0.86520427 0
-4.1812897 -0.24019988 1.1769776 0
-4.2004251 -1.13309 -0.025523007 0
1.0985672 -4.0418539 1.1770061 0
0.751863 -4.0131574 1.5028861 0
-4.1455598 0.59881151 1.1770152 0
-1.6516155 -3.9672351 0.68589586 0
-4.1975646 -0.95001698 0.6446358 0
-4.1598797 0.11939209 1.2724299 0
-4.1446152 1.1314919 -0.6945529 0
-4.1746359 -0.36021602 1.1771612 0
1.3474764 -4.0326495 0.93024576 0
-4.1622972 -1.1045029e-05 1.2725123 0
-1.7046564 -3.9651754 0.56797016 0
-4.1782255 -0.72644883 0.98348665 0
1.6248072 -4.0312061 0.25500935 0
-4.1773777 -0.85042799 0.88517165 0
-1.6582724 -3.9832253 0.58494431 0
-4.1966071 -0.8543427 0.78593224 0
1.6239812 -4.0356827 -0.18727508 0
-4.1383796 1.2210132 0.58493835 0
-4.2001319 -0.949983 0.64477032 0
1.6263626 -4.0227776 0.36424106 0
1.4864383 -4.0328918 0.69805628 0
1.5325046 -4.0339603 0.58563715 0
0.96957195 -4.0194817 1.3671288 0
1.6233695 -4.0389977 0.14507942 0
0.038860559 -3.9871314 1.7530788 0
-4.2012067 -1.1331124 0.19803615 0
1.53062 -4.0427547 -0.53781521 0
-4.1853294 -1.1326578 0.42108661 0
1.6248708 -4.0308619 -0.2992692 0
1.0532362 -4.0219827 1.3012397 0
1.6386919 -4.0304284 0.2222289 0
-4.1515656 0.35822532 1.2730613 0
-4.1807818 -1.1325275 -0.47327071 0
-4.1329713 1.221822 0.6415565 0
1.5771998 -4.0406461 -0.41787428 0
-4.1780653 -0.6035068 1.0811698 0
1.578528 -4.0339842 0.47450557 0
-4.1426902 1.0407082 0.86409205 0
-1.4685135 -3.963383 1.0621083 0
1.6223738 -4.0443931 -0.07665813 0
-4.1615043 0.23906328 1.2732219 0
-4.145113 1.0947728 0.78593236 0
-0.6729455 -3.9874389 1.627756 0
1.6712607 -4.0254984 -0.073326647 0
-1.2656509 -3.9727156 1.273349 0
-0.99820852 -3.9747591 1.4879293 0
1.3948238 -4.0255232 0.92734438 0
-4.1700792 1.1065679e-05 1.2734222 0
-4.189858 -1.1065905 0.48285562 0
-4.1323304 1.3125606 -0.46827549 0
1.2991769 -4.0287757 1.0498645 0
-1.0208304 -3.9806385 1.4614446 0
-4.1381917 1.3128966 0.42039958 0
-1.4805348 -3.9637582 1.0623256 0
1.6254909 -4.0275016 -0.41279227 0
-4.1599565 0.97194302 0.88537973 0
1.094516 -4.0269485 1.2737687 0
-1.8168778 -3.9612393 0.22216357 0
-4.1462121 0.4779357 1.2738419 0
1.2035317 -4.0264544 1.1756518 0
-4.1398253 0.7197724 1.1782618 0
-4.1322279 1.4034684 -0.022662342 0
-4.1402535 0.96733952 0.9839924 0
1.6209658 -4.0520229 0.033726364 0
1.4780376 -4.0308504 0.78593254 0
-4.1847935 -1.2240487 0.19826567 0
-4.1893678 -1.0413765 0.6442405 0
-1.7049868 -3.965431 -0.64830446 0
-1.8232083 -3.9659927 0.046462268 0
0.82779086 -4.016016 1.4987524 0
-0.21563029 -3.9813015 1.7802765 0
1.4933209 -4.0342493 0.75004506 0
1.5656922 -4.0360918 0.5730722 0
1.2751008 -4.0262671 1.1111696 0
-4.1101885 1.4018885 -0.46626842 0
-4.2004919 -0.98141384 0.68551642 0
0.85000837 -4.0273519 1.462534 0
-4.1841016 -1.041301 -0.70049894 0
-1.8245158 -3.9669745 -0.1298877 0
-4.1382174 1.2209653 0.68549407 0
1.4217761 -4.025537 0.92792112 0
1.4876945 -4.0274134 0.80976522 0
-1.1908944 -3.9782944 1.3581556 0
-4.1373639 1.2220109 -0.69391811 0
1.4366372 -4.0459867 0.81449169 0
1.2197948 -4.0276074 1.1788535 0
-4.149147 0.84468085 1.0820673 0
-4.1881032 -1.224191 -0.24912345 0
-4.18677 -0.97820783 0.78593272 0
-0.13421559 -3.9927838 1.7736154 0
-1.5234005 -3.9771378 0.98432612 0
0.11526203 -4.0043006 1.7492546 0
-1.6526661 -3.9697587 0.78593278 0
-0.900868 -3.9846108 1.5554991 0
-1.0609162 -3.982291 1.4583209 0
-4.1247244 1.2169843 0.78593278 0
-4.1517334 1.1016997e-05 1.3695142 0
-0.051277637 -3.999223 1.7658577 0
-4.1310015 1.3488094 0.48200983 0
-4.1362128 1.403754 0.19893286 0
-4.175601 -0.23987307 1.2748729 0
0.72884756 -4.0209441 1.5557417 0
-4.1810818 -0.1200006 1.2749101 0
-4.1978326 -1.224609 -0.025558829 0
1.3514597 -4.0406785 0.98440897 0
1.5319898 -4.0363626 0.69726121 0
-1.5970073 -3.9695935 0.90473104 0
1.6688039 -4.0399699 0.14544459 0
0.36166215 -4.0028844 1.7246706 0
-1.8215547 -3.964751 -0.3067776 0
-4.1524715 0.11917946 1.3698584 0
1.6680665 -4.044313 0.035109341 0
-1.780566 -3.9533587 0.58395672 0
0.27893329 -4.0073137 1.7336187 0
1.3466069 -4.0293493 1.047013 0
-4.1375408 1.4038492 -0.24560612 0
-1.3939354 -3.9771218 1.1794195 0
-4.1776829 -0.72635454 1.0824943 0
1.5757416 -4.0479598 -0.53673214 0
-4.183568 -0.94998306 0.86761159 0
-1.3823555 -3.9698598 1.2194645 0
-1.7031698 -3.9640255 0.74068743 0
-4.1946211 -1.1078485 0.58383483 0
-4.1398563 1.1313555 0.86401445 0
1.6375307 -4.0408549 0.39735425 0
1.6688411 -4.0397496 0.2549966 0
1.2510833 -4.0291314 1.1725204 0
1.0908382 -4.0134172 1.3705386 0
-4.1835947 -1.2239972 0.4211134 0
0.19468844 -4.0129075 1.743296 0
1.6690784 -4.038353 -0.29920411 0
-4.1745348 -0.36020729 1.2757571 0
-4.1750283 -0.60306811 1.179796 0
1.623018 -4.0409017 0.4744221 0
1.4400356 -4.032083 0.92643309 0
1.1263665 -4.0291381 1.2995195 0
-1.6489855 -3.9609179 0.88581014 0
0.96827072 -4.0140872 1.4646947 0
1.5347433 -4.0235138 0.80754864 0
-1.1516678 -3.9653246 1.4654015 0
-1.7885159 -3.97101 0.48134091 0
-4.1489944 1.0957979 0.88582891 0
-4.1604242 -0.11940771 1.3709769 0
-1.1403625 -3.9697747 1.4648757 0
1.6164714 -4.0453815 0.48125759 0
-1.8230672 -3.9658868 0.39737156 0
1.6253269 -4.0283904 0.5835712 0
-4.1900492 -0.95001692 0.86817861 0
1.6237192 -4.0371017 -0.53145146 0
-4.1334596 1.3126254 0.64182031 0
1.3493845 -4.0214105 1.1083598 0
1.6123296 -4.0350161 0.58351964 0
-4.1514807 0.59966671 1.2762856 0
-4.131422 1.3489467 0.5834803 0
-4.1869845 -1.1327051 0.64421833 0
1.7165834 -4.024579 -0.29508084 0
1.6667188 -4.0522509 -0.18867832 0
-4.127068 1.312259 -0.6930052 0
-4.1590409 0.23892176 1.3715056 0
1.6687226 -4.0404477 0.36441579 0
1.710375 -4.0342836 0.22229157 0
-4.1356401 1.403713 0.42045715 0
-4.1897159 -0.85293978 0.98510629 0
0.90146089 -4.0255909 1.4964957 0
1.4796972 -4.0353765 0.88598853 0
1.7146566 -4.037003 0.14598331 0
1.7141237 -4.0404387 0.036089957 0
-4.1272206 1.4941378 -0.022774428 0
-0.77393484 -3.9969552 1.6414981 0
1.5742059 -4.0556626 0.5867576 0
-0.39410377 -3.9833968 1.8023834 0
1.7139977 -4.0412512 -0.074394584 0
1.6384106 -4.0329552 0.57246 0
0.43736517 -4.015501 1.7209499 0
-4.1932535 -1.1074873 0.68497193 0
-4.1287093 1.2216389 0.86332244 0
-4.1909318 -1.2243124 -0.47491944 0
1.5774765 -4.039258 0.69647813 0
-4.1902404 -1.3158798 -0.025400966 0
-1.7816263 -3.9557128 0.68493986 0
1.6708202 -4.0280929 -0.52687311 0
1.3502295 -4.0370002 1.0836458 0
-1.8239365 -3.9665396 -0.48598957 0
1.4873559 -4.0288901 0.92370898 0
-4.1898375 -0.97892451 0.88609499 0
-4.1730795 -1.1073641e-05 1.3725153 0
0.51809347 -4.0120401 1.7130072 0
-4.1668663 -0.23937131 1.3726077 0
-0.312078 -3.9978964 1.7957677 0
1.7139409 -4.0416183 -0.18581691 0
1.6681511 -4.0438147 -0.41478282 0
-1.3699386 -3.976742 1.2727251 0
-1.8160834 -3.9606428 0.57247078 0
1.2188128 -4.0243654 1.2774917 0
-4.1483111 0.96922219 1.0838709 0
1.4940609 -4.0289807 0.92704201 0
1.3919625 -4.0365419 1.045913 0
-1.0977118 -3.9808393 1.5085247 0
-4.1501637 0.84488773 1.1813774 0
-4.1904702 -1.132805 -0.7018187 0
-4.173039 -0.97499967 0.98556173 0
-4.1799998 -0.48183045 1.2778188 0
0.8490656 -4.0228848 1.5604601 0
-1.5246348 -3.9803598 1.0840342 0
1.3438964 -4.018065 1.1815231 0
-4.1935773 -1.237299 0.48014507 0
-4.1448784 1.0947108 0.98563534 0
-4.1635046 0.35925552 1.3733442 0
-4.1469245 0.72100675 1.2779894 0
-1.2871206 -3.9758258 1.37444 0
-1.2687916 -3.9825737 1.3734601 0
1.7148893 -4.035502 0.3642014 0
1.6681213 -4.0439901 0.47416916 0
1.2963768 -4.0384164 1.1714363 0
-1.5801733 -3.9648006 1.0705186 0
-4.1317234 1.4945254 -0.24572259 0
1.2004666 -4.0302095 1.2968061 0
-4.1948066 -1.3161415 0.19801062 0
-4.1348386 1.4947935 0.1988318 0
-0.86508918 -3.9873269 1.6505543 0
-4.1804233 -0.85104793 1.0843004 0
-4.1390648 0.59787333 1.3737726 0
1.5644817 -4.0457082 0.75021702 0
0.59624815 -4.0138578 1.7069129 0
-1.0225229 -3.9872384 1.5613556 0
1.7604384 -4.0324917 0.14656796 0
-4.1796918 -0.72670376 1.1820409 0
-4.1171942 1.4932746 -0.4680084 0
1.0891541 -4.0072212 1.4685388 0
1.6698256 -4.0339518 0.58337122 0
-4.1527171 -1.1019608e-05 1.4685582 0
0.97668684 -4.0276861 1.4927202 0
1.7124946 -4.0509434 0.25492588 0
-1.7801602 -3.9524579 0.78593373 0
1.7595551 -4.0387812 0.036814451 0
-1.8143597 -3.9593487 -0.6644972 0
-1.6504004 -3.9643164 0.98596787 0
-4.152153 0.11917032 1.4687465 0
-4.1921716 -1.1072015 0.78593379 0
1.7096102 -4.0421739 0.39724684 0
-1.3949363 -3.9799776 1.2789501 0
-4.1425066 1.0407056 1.0877302 0
1.7142333 -4.0397329 -0.41214699 0
-4.1397657 1.351671 0.68455791 0
1.6233307 -4.0392075 0.69541073 0
1.7591207 -4.0418735 -0.073660284 0
1.6160939 -4.0444365 0.68454576 0
-1.9358263 -3.959111 -0.13730782 0
-1.5194442 -3.9668088 1.182551 0
-1.9381142 -3.960778 0.041783392 0
-4.1928225 -1.2370763 0.58229578 0
1.4799016 -4.0359335 0.98618072 0
-4.1967402 -1.041482 0.86882126 0
1.7611873 -4.0271602 0.3639392 0
-1.9291587 -3.9542522 -0.31663299 0
-1.9347539 -3.9583292 0.22053961 0
-4.1451931 1.2230234 0.8865419 0
-1.9237494 -3.9503102 0.39862275 0
-4.178915 -0.60362959 1.2795269 0
1.7144241 -4.0385022 0.4734962 0
1.711055 -4.0272655 0.57176906 0
-4.2044244 -1.3166927 -0.25095487 0
-1.2631068 -3.96473 1.4699318 0
1.4381914 -4.0396276 1.0439955 0
1.5769587 -4.0418553 0.80903924 0
1.8061172 -4.0263162 -0.071005046 0
1.5322484 -4.0351558 0.9230085 0
1.3440056 -4.0388093 1.1680655 0
-1.1821351 -3.9704566 1.5234042 0
-4.1791286 -0.36060366 1.3755491 0
-1.5991132 -3.9712713 1.0776794 0
-4.1674237 0.48038077 1.3755999 0
1.7596285 -4.0382576 -0.29648817 0
-4.1615162 -0.11943904 1.4702866 0
-1.1400144 -3.9685631 1.5637664 0
1.6385413 -4.0317802 0.74824369 0
-4.1791477 -1.1324807 0.8674534 0
-4.1342192 1.4947402 0.42055738 0
-0.95812273 -3.9785225 1.6602755 0
-1.8122635 -3.9577746 0.74794722 0
1.8055549 -4.0307832 0.038039327 0
1.4206395 -4.0328665 1.1083415 0
1.7458365 -4.0296206 0.47879863 0
1.6703115 -4.0310893 0.69342297 0
1.0525906 -4.0247984 1.4880325 0
-4.1331978 1.3495265 0.78593409 0
-4.1400266 1.4040275 0.64247215 0
-1.2585123 -3.9694464 1.4778682 0
-4.1672077 1.105806e-05 1.4709406 0
1.7584342 -4.0467606 0.25511533 0
1.7155374 -4.031323 0.58250302 0
-4.1525421 0.3583096 1.4710662 0
-4.1426935 1.0941337 1.0855999 0
-4.1980038 -1.2246163 0.64496779 0
-4.1885014 -1.2358015 0.68427515 0
-1.4919033 -3.973084 1.2362323 0
-4.1616383 0.23907098 1.471153 0
-1.7124817 -3.9712281 0.91600788 0
-0.493366 -3.9991314 1.8186256 0
-4.1690626 -0.72485572 1.2806168 0
-4.1417384 0.47742003 1.4712622 0
-4.1270776 1.5853763 -0.023211181 0
1.7576194 -4.0525618 -0.18652037 0
1.4866565 -4.0319395 1.0396893 0
-4.1345663 1.403636 -0.69512188 0
-4.1257882 1.4793719 0.58176106 0
1.7138427 -4.0422506 -0.52876943 0
1.566371 -4.0307007 0.92607933 0
-4.1406617 0.71991777 1.376691 0
1.6150495 -4.0418229 0.78593427 0
-4.1501169 0.96964413 1.1838615 0
-1.4728334 -3.9691789 1.2814047 0
1.7607652 -4.0301652 0.47270894 0
0.75095618 -4.0162797 1.6954013 0
-4.1766315 -0.85027605 1.1839002 0
0.97027814 -4.0224094 1.5654094 0
-4.1365175 1.1312599 1.0872335 0
1.2734756 -4.0350742 1.2950594 0
1.1296757 -4.0136957 1.4816763 0
1.7825605 -4.0309744 0.39693835 0
1.8047425 -4.0372357 -0.18312889 0
-4.18928 -1.4075583 -0.2501443 0
0.66940558 -4.0298319 1.7051263 0
-4.1169782 1.4762129 0.68412095 0
1.3915653 -4.0380721 1.1645837 0
1.8043808 -4.0401087 0.14647624 0
1.6232667 -4.0395541 0.80729866 0
-4.1987839 -1.4082396 -0.026159346 0
-4.1445222 1.4860892 0.4780058 0
-4.1405511 1.3130318 0.86475754 0
-4.2076697 -1.3168787 0.42161429 0
-4.1981525 -1.2246227 -0.70355487 0
-4.1286435 1.5855336 -0.24619401 0
1.2202532 -4.0291214 1.3776851 0
-4.1313081 1.5858016 0.19874556 0
-4.1864371 -0.95001692 1.0930443 0
-4.1553278 0.84593904 1.2816639 0
1.8508914 -4.0252028 -0.070221603 0
-1.3857677 -3.9727416 1.391271 0
1.8044512 -4.0395494 0.25534615 0
-0.58317947 -3.9944632 1.8291636 0
1.4792266 -4.0340929 1.0864395 0
-1.9331107 -3.9571321 -0.49900502 0
-4.2054663 -1.3167524 -0.47727019 0
-4.1893988 -0.94998306 1.093408 0
1.7806964 -4.053575 0.22206584 0
1.5773766 -4.0397596 0.92210805 0
-1.3938831 -3.9769726 1.3782922 0
1.7580597 -4.0494261 -0.41288185 0
1.440455 -4.0303674 1.1593803 0
-4.1757269 -0.23988031 1.4734731 0
1.5333307 -4.0301051 1.0369425 0
-1.7849158 -3.9630165 0.88711464 0
1.3470395 -4.0274625 1.2823887 0
1.759638 -4.0381904 -0.52589947 0
-4.1894813 -0.48292336 1.3787215 0
1.3487544 -4.0251212 1.290602 0
-4.1489172 1.2241223 0.98744065 0
1.494056 -4.029016 1.1060383 0
-1.6534748 -3.9717014 1.0868168 0
-1.9263276 -3.9688225 0.47739697 0
-4.134685 1.3500119 0.88718629 0
-4.1762109 -0.60323894 1.3790493 0
-4.1955228 -1.3698761 0.47726479 0
1.6140896 -4.0394211 0.88719714 0
-4.1286664 1.2181473 1.0869906 0
-4.1535516 1.1021822e-05 1.5683811 0
-1.931396 -3.9558823 0.57718098 0
-4.1726179 -0.36004186 1.4743792 0
-4.2060542 -1.4087608 0.19771063 0
1.6696403 -4.0350432 0.80531389 0
-4.1399555 0.96726996 1.2829373 0
-4.1298375 1.2216874 1.0868111 0
-4.1250086 1.4029509 0.86390686 0
-1.9229838 -3.9619334 0.58078557 0
-4.1284208 1.5855112 0.42060381 0
-4.1786323 -1.0412227 1.0921662 0
1.8044659 -4.039433 -0.40918052 0
1.7106076 -4.0318828 0.74759948 0
-4.2098503 -1.1118706 0.88729596 0
-4.155952 0.11927935 1.5691557 0
-4.1577516 -1.1032967e-05 1.5691724 0
-4.1960998 -0.98038763 1.0873045 0
