# .PCD v0.7 - Point Cloud Data file format
VERSION 0.7
FIELDS x y z intensity
SIZE 4 4 4 4
TYPE F F F F
COUNT 1 1 1 1
WIDTH 1412
HEIGHT 1
VIEWPOINT 0 0 0 1 0 0 0
POINTS 1412
DATA ascii
-4.483161 5.6017299 1.5484977 0
-4.4391632 -5.4349623 2.1532979 0
-4.4963264 5.7764745 0.56339467 0
-4.4451442 -5.7368846 1.1101956 0
6.8676295 2.4047115 -0.98829377 0
-2.5099001 6.8306966 -0.9850378 0
-4.4831772 5.1225667 2.7561817 0
-4.4773703 5.7618113 0.83786416 0
6.9014068 2.3223317 -0.98454523 0
-4.4449892 -5.5487123 1.8650804 0
1.7652999 7.0682125 -0.9868077 0
1.7653025 -7.0689297 -0.98697317 0
-4.4316554 -5.8693013 0.011941791 0
-4.4873509 5.7695317 -0.82192278 0
-4.4431648 -5.3241882 2.4558804 0
6.9092975 -2.3273375 -0.98670256 0
-2.5195751 -6.8440733 -0.9882468 0
6.9420891 -2.2447197 -0.9830215 0
-4.4378276 -5.8742185 -0.26571137 0
-4.4395676 -5.4557433 2.1919641 0
-4.5044885 5.5030537 1.9284272 0
1.8528515 -7.0667167 -0.98667932 0
-2.4257665 -6.8916321 -0.98519564 0
-4.489234 5.3050003 2.464287 0
-4.4431801 -5.8784828 0.28763545 0
6.9534597 2.2517071 -0.98610258 0
-4.4843388 5.6033654 1.7111738 0
-2.4294753 6.8969183 -0.98645079 0
-4.4347596 -5.8833675 0.40704799 0
1.8529845 7.0741496 -0.98839557 0
-4.437387 -5.873868 0.56363523 0
-4.4428473 -5.7351079 1.3859878 0
-4.4410143 -5.543191 2.0268056 0
1.9403578 -7.0637493 -0.98650038 0
-4.4912925 5.6315088 1.6605678 0
6.9963408 -2.1753802 -0.98545575 0
1.9404765 7.0674348 -0.98735166 0
-4.4483328 -5.8825874 -0.54629934 0
-4.4422855 -5.5947108 1.9293027 0
7.0045233 2.1802485 -0.98765385 0
-4.4334354 -5.8707194 -0.82510197 0
-4.4422722 -5.8944592 0.57237852 0
-4.4450841 -5.6268754 1.8560121 0
-4.4984193 5.7780933 1.1160882 0
7.037704 -2.0982509 -0.98470199 0
2.0277479 7.0583749 -0.98605454 0
2.0278633 -7.0608544 -0.98662758 0
-4.4894891 5.4869356 2.1673605 0
-4.4778252 5.483623 2.2028933 0
-4.4420824 -5.8776083 0.84015679 0
-2.3491921 -6.9637551 -0.98826694 0
-4.4924607 5.3590426 2.4720573 0
-4.4418592 -5.8938494 0.73830283 0
7.0456419 2.1028214 -0.98681676 0
-2.3512311 6.9667511 -0.98897135 0
-4.4427786 -5.2583785 2.7740805 0
7.0743804 -2.0185986 -0.98300874 0
-4.436141 -5.8854065 0.90401292 0
-4.4737062 5.902801 0.56444573 0
-4.4875593 5.913837 0.28664505 0
-4.4899597 5.9157491 -0.27154273 0
-4.4926214 5.6148691 1.8765416 0
-4.494369 5.9192619 0.0077396631 0
-4.4411387 -5.543364 2.1907775 0
-2.2578688 -7.0143833 -0.98656011 0
-4.4833999 5.7664757 1.3922827 0
7.0872407 2.0257599 -0.98640716 0
-4.4304338 -5.8683286 1.1162844 0
-4.4317107 -5.8788657 1.0693021 0
-4.4754562 5.6196179 1.9373655 0
2.1158743 -7.0657082 -0.98883665 0
2.1159029 7.0661769 -0.98894501 0
-2.2622871 7.02108 -0.98811972 0
-4.4407668 -5.4366188 2.4781244 0
2.2023652 -7.0464811 -0.98576438 0
-4.4475923 -5.7387781 1.6653614 0
7.1238108 -1.9460289 -0.98497248 0
2.2025211 7.0485535 -0.9862442 0
7.1261826 1.9473054 -0.98559439 0
5.3505993 -5.1903505 0.13394165 0
-2.1674681 -7.0660276 -0.9854064 0
-4.4394779 -5.455678 2.4756238 0
-4.4828434 5.6012888 2.0385756 0
5.5012751 -5.0423961 -0.0078274608 0
2.2891235 -7.0342994 -0.98460805 0
5.1269312 -5.422677 -0.064962745 0
-4.4823084 5.9535718 0.40112019 0
-4.5027132 5.9259095 -0.55483621 0
5.2425427 -5.3102784 0.13270378 0
5.2450948 -5.3134584 -0.063779712 0
5.1402779 -5.4153657 0.047576785 0
-2.1734638 7.0754042 -0.98756981 0
5.1928244 -5.3663836 -0.0062986612 0
-4.4872947 5.6717353 1.865768 0
-4.4343443 -5.8827538 1.2349899 0
-4.4355602 -5.5896606 2.2096078 0
5.3693314 -5.1941409 0.051809072 0
5.5809441 -4.957746 0.3027339 0
7.1665521 -1.8696868 -0.98545241 0
5.2200255 -5.3461671 0.048769951 0
5.4147806 -5.1427011 -0.25857133 0
5.4677906 -5.0823822 0.32859647 0
5.2448778 -5.3131876 0.32804883 0
-4.4904237 5.9161191 -0.83664203 0
5.3037472 -5.2587337 0.32813692 0
5.4747257 -5.0900774 0.13360977 0
5.075943 -5.4888549 0.13059735 0
-4.4361782 -6.0191579 0.0068199635 0
5.2986908 -5.2763448 0.049942017 0
4.9847322 -5.5663309 0.29866278 0
5.5834842 -4.9729891 0.13423264 0
5.1252942 -5.4205132 0.52354586 0
5.067534 -5.4996228 0.045437098 0
5.1945801 -5.3680534 0.35924613 0
5.3098392 -5.2661061 -0.064144135 0
5.5126028 -5.0519938 0.17434907 0
5.5314946 -5.0339847 -0.061640143 0
5.4438262 -5.1201801 0.30160916 0
5.3601913 -5.2164412 -0.0087720752 0
5.1929712 -5.3768392 -0.26338679 0
5.4220452 -5.1509976 0.13305652 0
5.4473372 -5.1259389 0.052771449 0
5.2968421 -5.2731066 0.30061412 0
5.5190725 -5.0487218 0.054231882 0
5.3102398 -5.2665911 0.13223875 0
5.1954293 -5.3799939 0.13136947 0
5.1348362 -5.4331264 -0.26452154 0
5.4778805 -5.0935774 -0.062322855 0
2.3759966 -7.0244308 -0.98427498 0
5.3673487 -5.2100396 -0.063617885 0
2.290736 7.052278 -0.98877537 0
5.6359396 -4.9128046 -0.25634146 0
5.5898762 -4.9714961 0.055642605 0
5.2933936 -5.267067 -0.45333993 0
5.3588796 -5.2000842 -0.45806277 0
5.3087673 -5.2648091 -0.26155728 0
5.2457132 -5.3142295 -0.46058238 0
4.9586287 -5.6025734 -0.069087267 0
-4.4356704 -6.0187411 0.28619814 0
7.1758871 1.8745403 -0.98788142 0
-4.4962392 5.9207516 0.84378552 0
5.3722954 -5.1991639 0.30106914 0
5.1972022 -5.3822694 -0.06590277 0
-4.4845176 5.3002667 2.7899253 0
5.3742795 -5.2025261 -0.19931889 0
5.1385441 -5.4380274 0.13077259 0
5.5848246 -4.9743938 -0.25740826 0
5.2029896 -5.3760505 0.17564642 0
5.5177193 -5.0465717 0.30202222 0
5.300437 -5.2794023 -0.20189208 0
-4.4880075 5.9619856 0.5685817 0
5.6669645 -4.8883729 -0.01134187 0
4.8986349 -5.6584449 -0.07017529 0
5.3021612 -5.256814 0.52321947 0
5.1462574 -5.4265714 0.29953957 0
5.4262524 -5.1558022 -0.063392878 0
5.6579337 -4.89152 0.30295873 0
5.5911226 -4.9734154 -0.19226772 0
-2.0804234 -7.122808 -0.98573434 0
4.9604406 -5.605196 0.12914371 0
5.0791841 -5.4932694 -0.26635915 0
5.0218496 -5.5518179 -0.068629265 0
5.6620836 -4.8977132 0.05678606 0
5.2550783 -5.3258991 -0.26321101 0
5.6676731 -4.8889389 -0.19674468 0
5.5366721 -5.0395665 0.13337266 0
5.7467046 -4.7987533 0.13466334 0
5.7307253 -4.8198314 0.058136582 0
5.3680983 -5.2109208 0.32805479 0
5.0452299 -5.5347795 -0.0077368021 0
-4.4293132 -6.0135264 -0.55459076 0
4.8386822 -5.7150636 0.12791252 0
-4.4412055 -5.6227536 2.1799774 0
4.9928017 -5.5825534 0.043328881 0
5.5358543 -5.0386848 -0.2590369 0
5.4517069 -5.1331067 -0.19759506 0
5.5880022 -4.9777226 0.32850885 0
5.2264962 -5.3578854 0.29992509 0
-4.443027 -6.024776 -0.27434629 0
5.5237255 -5.0561142 -0.19518679 0
5.0847931 -5.5009089 -0.068247616 0
5.4184976 -5.1469464 0.52307451 0
5.045661 -5.5352135 0.17575014 0
5.0712128 -5.5067601 0.29890847 0
5.0813484 -5.4962173 0.32725286 0
5.4832392 -5.0995235 -0.26019061 0
5.1407905 -5.4409971 0.32740569 0
5.4470158 -5.1254125 -0.44794697 0
5.3726921 -5.2163215 -0.26203799 0
2.3773475 7.0374022 -0.98728585 0
5.6647253 -4.9016557 -0.19057381 0
-4.4381518 -5.8744769 1.396101 0
5.5320196 -5.0345507 -0.45667487 0
4.9628534 -5.6086879 -0.26961374 0
5.0179386 -5.5463281 -0.46813768 0
5.1957908 -5.3804579 -0.46390563 0
5.3541775 -5.1945572 0.71774769 0
5.1440811 -5.4224935 0.55177963 0
5.7524509 -4.8042779 -0.06084919 0
4.8802176 -5.6858964 0.17635012 0
5.3716683 -5.198101 0.55030918 0
5.7336736 -4.8240976 -0.18835789 0
5.1258678 -5.4212708 0.71952605 0
5.5165348 -5.0446906 0.54933894 0
5.3117132 -5.268374 -0.46155155 0
5.4240742 -5.1533151 -0.45920187 0
5.7280416 -4.8159485 -0.4348734 0
5.5121746 -5.0516315 0.54000843 0
4.9144397 -5.6606288 0.04145503 0
5.596735 -4.9868712 -0.06254971 0
5.7020369 -4.8663645 -0.061484039 0
5.8544803 -4.6819263 -0.060064316 0
5.0444098 -5.5339541 0.35863662 0
5.0252562 -5.5565991 -0.26877934 0
5.4293957 -5.1593924 0.32803667 0
5.3671436 -5.222682 0.357283 0
5.1895199 -5.3632412 0.72286153 0
4.9060011 -5.6430368 0.55333698 0
5.0180721 -5.5465155 0.52421105 0
5.7330017 -4.8231258 0.30320847 0
5.5219707 -5.0599313 0.35660481 0
5.6461105 -4.9231591 0.32848752 0
5.4807148 -5.0967221 -0.4584589 0
5.588624 -4.978374 -0.45633858 0
5.0283723 -5.5609732 0.1289959 0
5.3771467 -5.2073846 -0.45216542 0
5.6388683 -4.9157858 0.52273202 0
5.2234421 -5.352354 0.55136454 0
5.254344 -5.3249841 0.52361512 0
-2.0881414 7.1352673 -0.98858321 0
5.3609552 -5.2171264 0.54024947 0
5.6523027 -4.9294629 -0.062323332 0
5.4791822 -5.0950217 0.52310038 0
5.0683327 -5.5011721 0.55238163 0
5.2025471 -5.3756299 0.54065776 0
4.903688 -5.6659856 0.3266083 0
4.9653034 -5.6122322 0.32677889 0
5.673315 -4.8934479 0.35583067 0
5.3745031 -5.22929 0.17318511 0
5.5235047 -5.0557637 -0.44562274 0
5.5900722 -4.9717984 0.54895842 0
5.0822611 -5.4974604 -0.46783674 0
5.2047968 -5.3920155 0.32740343 0
5.0801778 -5.4946227 0.52411246 0
5.1981268 -5.3834553 0.52380705 0
7.21627 1.7967596 -0.98801434 0
5.7052402 -4.8695335 0.13362908 0
5.5947576 -4.9790111 -0.44239622 0
5.7013421 -4.8656774 0.32851779 0
5.415029 -5.1429853 0.71778524 0
4.8427992 -5.7214012 0.32638621 0
7.2391372 -1.7104614 -0.98394024 0
5.8047853 -4.7507911 -0.18668145 0
5.6669598 -4.8883696 0.53927386 0
5.5431309 -5.0465298 0.3281709 0
5.7039509 -4.868258 -0.25836122 0
5.1892033 -5.372004 0.71949959 0
4.825995 -5.7193799 0.55394757 0
5.6809788 -4.8995728 0.17125344 0
4.8470554 -5.7279539 -0.072766066 0
4.9154582 -5.6627522 0.29768121 0
4.8325977 -5.7336659 0.29717755 0
5.1436367 -5.4447594 -0.4669531 0
4.8377495 -5.7136278 0.52485192 0
-4.4928594 5.7737923 1.6744256 0
5.5151939 -5.0425601 -0.69578099 0
5.4501705 -5.1305866 0.55000341 0
2.4635687 -7.0206528 -0.98564613 0
4.9098382 -5.6751633 0.12760425 0
5.3720298 -5.2155428 0.52345097 0
5.2514715 -5.3214045 -0.66379523 0
5.0291634 -5.5620837 0.32685518 0
-4.4389896 -5.7321239 1.944984 0
5.8276291 -4.7281747 0.17024601 0
5.5912666 -4.981143 0.52297354 0
5.5267181 -5.0288343 0.71726012 0
5.755991 -4.8076816 0.32854176 0
4.9030704 -5.6650639 -0.47326607 0
5.8114834 -4.7505045 0.13393855 0
-4.4431238 -6.0248551 0.56536996 0
5.292171 -5.264926 0.80076885 0
5.3038378 -5.2853575 0.55103195 0
5.6670737 -4.9051595 -0.43971741 0
-4.4844165 5.4816976 2.4926109 0
5.4223213 -5.1513133 -0.65979528 0
5.7522111 -4.8040476 -0.45506787 0
5.249929 -5.3194823 0.71931458 0
4.9921103 -5.5811639 0.55302632 0
5.8241472 -4.7255526 0.35469484 0
5.3560276 -5.2127028 0.72239363 0
5.3720093 -5.1986785 -0.70509064 0
4.8370304 -5.7432566 0.039265633 0
4.718853 -5.84091 -0.0077513456 0
-1.9895303 -7.1733079 -0.98491967 0
-4.4850473 5.6043496 2.204936 0
5.658071 -4.9353356 0.13293099 0
7.2229385 -1.8001065 -0.98973703 0
5.7018008 -4.8661308 -0.45621735 0
5.2979841 -5.2751064 -0.70967305 0
4.8478069 -5.7291102 -0.27403355 0
4.7232676 -5.8381753 -0.075158536 0
5.6988425 -4.8632045 0.52282071 0
-4.4841356 5.9562693 0.90401542 0
-4.4827209 5.4871907 2.4899611 0
5.4461918 -5.1240606 -0.70099938 0
4.9033031 -5.665411 0.52477956 0
5.7609758 -4.8124733 -0.25859153 0
5.4792757 -5.0951252 -0.65898287 0
4.7855411 -5.7832999 -0.27552044 0
5.5876336 -4.9773364 -0.65651977 0
5.732935 -4.823029 0.5481894 0
2.4643478 7.0272207 -0.98717308 0
4.7883778 -5.7878065 -0.074412107 0
5.5416479 -5.0449305 0.52319086 0
5.2187786 -5.3439093 0.80249476 0
4.751771 -5.8112335 0.29652727 0
5.3561697 -5.1968989 -0.86154628 0
5.8116131 -4.760375 0.058252335 0
5.0480413 -5.537611 0.54052377 0
5.5898123 -4.9713979 -0.69265223 0
5.4767485 -5.0923214 0.71794856 0
4.8880692 -5.6942716 0.35815942 0
5.3698034 -5.2129259 -0.66219175 0
5.8067532 -4.7460856 -0.45502311 0
5.1422658 -5.4190912 0.80404437 0
4.9123611 -5.6789279 -0.27325571 0
-4.4966555 5.9747548 0.73603082 0
-4.49229 5.9176054 1.1232033 0
5.3139296 -5.2710567 -0.6638726 0
4.9668512 -5.6144724 0.52466857 0
5.8091927 -4.7569771 0.30338979 0
5.8177133 -4.7563248 -0.062107563 0
5.8341122 -4.7330575 -0.20179594 0
4.8954659 -5.7021627 -0.0096628666 0
4.7258492 -5.8424096 0.12541401 0
4.9696331 -5.6184974 -0.47310007 0
5.51548 -5.0544314 0.7220186 0
5.0819674 -5.4970603 -0.67081332 0
-4.4302626 -6.0143051 -0.83900857 0
5.6401377 -4.9170785 0.71712768 0
5.2004943 -5.3864942 -0.66757286 0
5.0196385 -5.5487142 0.7216152 0
-4.4447217 -5.8980761 1.4022226 0
5.8784719 -4.6818833 -0.18557465 0
5.0407619 -5.5302796 0.72261691 0
5.8072972 -4.7543168 -0.43426841 0
5.6970387 -4.8614197 -0.65534759 0
5.6557703 -4.9329929 -0.45857298 0
4.7822804 -5.7781196 0.52527869 0
5.8156743 -4.7544198 0.32842505 0
5.8771901 -4.6801376 0.30378091 0
7.2537689 1.7175443 -0.98769319 0
4.7247534 -5.8475776 0.17496455 0
4.8478842 -5.729229 -0.47693509 0
5.1438708 -5.4450693 -0.66990089 0
5.4718676 -5.0869055 -0.86003816 0
5.1899047 -5.3729043 -0.86881781 0
4.7263718 -5.8432674 -0.27795404 0
5.6685944 -4.8896756 0.72170377 0
5.5403862 -5.04357 -0.65960252 0
5.8410082 -4.7382517 -0.01665771 0
5.8823252 -4.6871319 0.05919075 0
5.3154235 -5.2728643 0.71958756 0
5.3739796 -5.2020173 0.80007005 0
4.662405 -5.8962536 -0.27949315 0
5.2837868 -5.2502427 1.0503542 0
5.0254111 -5.5568171 -0.67378259 0
7.277566 -1.6319609 -0.98417342 0
5.5194392 -5.049305 0.79720414 0
4.7587309 -5.8268771 0.036969423 0
5.8108072 -4.7498732 0.52285862 0
4.8876915 -5.6938686 0.54047167 0
5.6489878 -4.9260879 -0.65765941 0
4.673152 -5.896729 0.03540802 0
-1.9976735 7.1868834 -0.98799682 0
5.872179 -4.6979933 -0.25897318 0
-1.8942423 -7.2160406 -0.98265946 0
5.8703871 -4.6963663 0.32840896 0
5.9484978 -4.6087031 0.060414076 0
5.6731176 -4.9141788 0.54891729 0
5.8754153 -4.7009306 0.13323379 0
5.4491749 -5.1289539 0.79881346 0
5.8775449 -4.6806207 -0.43199122 0
5.3661957 -5.188828 -0.95986092 0
5.9209595 -4.634604 0.32846999 0
5.9751201 -4.5760264 -0.061851621 0
4.7925 -5.7943563 0.32578635 0
4.9670267 -5.6147261 -0.67647815 0
4.7959471 -5.7998333 0.12537622 0
4.9648361 -5.6115561 0.72266138 0
5.8022509 -4.7472334 -0.68222821 0
4.6678076 -5.9054084 -0.077706933 0
5.1974401 -5.3707733 0.90403247 0
4.667779 -5.9053597 0.12415028 0
5.0738134 -5.4859552 0.91802454 0
5.7361965 -4.8277488 -0.68665791 0
4.602509 -5.9571276 0.12352133 0
5.6384182 -4.915328 -0.85753882 0
5.8251729 -4.7632942 -0.26015913 0
5.0869293 -5.503818 0.72177541 0
5.2532964 -5.3236785 -0.8689816 0
5.0174456 -5.5456357 -0.87700117 0
4.7302303 -5.8495965 0.32553899 0
4.9914885 -5.5799127 0.8079164 0
5.2502656 -5.3199015 0.91590238 0
5.5966935 -4.9868279 0.71816993 0
5.8331003 -4.732296 0.53761697 0
5.9294515 -4.6420937 -0.062628567 0
5.8106194 -4.7589803 0.54805303 0
4.9075704 -5.6717792 -0.67914438 0
4.8431768 -5.7219825 0.72391975 0
5.3645573 -5.2067585 0.9146409 0
5.3118896 -5.2685881 -0.86766124 0
5.1380858 -5.4374218 -0.87334657 0
2.551435 7.0176592 -0.98749435 0
5.766315 -4.8176064 0.52310812 0
5.5952463 -4.9797645 0.79627395 0
5.0729141 -5.5100608 0.80657828 0
5.9304891 -4.6430087 0.13310719 0
5.9904728 -4.5672746 -0.01896888 0
5.3091812 -5.2653103 0.91545367 0
5.9281855 -4.6409769 -0.25942963 0
-4.4810057 6.0559301 0.0037813187 0
5.6709838 -4.9109945 -0.69174707 0
5.0168037 -5.5447354 0.91926837 0
2.5516541 -7.0193057 -0.98787773 0
4.726428 -5.843359 0.52573335 0
-4.4871917 5.6284299 2.2245142 0
5.4218783 -5.1508074 0.91421187 0
5.4258499 -5.1553426 -0.86479437 0
5.1949883 -5.3794284 0.91698766 0
5.8724074 -4.6982002 -0.45753455 0
5.2960024 -5.2716365 -0.96693134 0
4.6679716 -5.9056869 0.32525849 0
4.7926407 -5.7945795 -0.48094165 0
5.3611984 -5.2173448 0.90403295 0
5.1372128 -5.4362679 0.91785359 0
5.5899925 -4.9798079 -0.86045623 0
-1.8999162 7.2258139 -0.98485613 0
4.6063948 -5.9639325 -0.079437494 0
5.9519415 -4.613255 0.30393732 0
6.0308576 -4.5186491 0.13335347 0
-4.4460745 -6.027276 0.84525084 0
5.4454136 -5.1227837 -0.95677245 0
5.9928961 -4.5689926 0.16655958 0
4.7324324 -5.8562551 0.35711408 0
2.6363387 -6.992928 -0.98456657 0
5.0414162 -5.5309386 0.90403259 0
5.8723273 -4.6981273 0.5230366 0
5.6679096 -4.9064074 0.79516232 0
7.2918191 1.6386106 -0.98780441 0
-4.4878941 5.9618187 1.0716374 0
5.9838638 -4.5835185 0.13304162 0
5.988513 -4.5658846 0.35200477 0
5.7081766 -4.8724389 0.7179873 0
5.5882912 -4.9780254 0.91287971 0
6.0165324 -4.5337176 0.30435193 0
7.3123651 1.5517786 -0.98377168 0
4.8749247 -5.6802506 0.90403235 0
5.7604384 -4.8119569 0.71773505 0
5.4814949 -5.0975876 0.91419506 0
4.8895483 -5.6958504 0.72228742 0
4.7579165 -5.8250461 0.55513656 0
5.9821939 -4.5614033 0.536708 0
4.5930562 -5.9822187 0.032900095 0
5.8303366 -4.7302141 0.72100544 0
4.7323637 -5.8530955 -0.48379296 0
5.8171453 -4.755794 -0.65794849 0
6.0222168 -4.5410118 0.060875058 0
4.6784353 -5.9090757 0.29547393 0
6.0210872 -4.5395622 -0.18317181 0
4.9157996 -5.6634636 0.81010973 0
4.9613638 -5.6065321 0.92090809 0
5.9284554 -4.6412153 -0.45813155 0
5.9846511 -4.5841932 -0.26008761 0
5.0853209 -5.5016274 -0.87795234 0
5.696043 -4.8604345 0.91214633 0
5.5413737 -5.0446353 -0.86366427 0
4.543232 -6.020494 0.12214684 0
-4.4409533 -5.8925118 1.5685081 0
5.5374918 -5.0404501 0.91381156 0
4.8519716 -5.7355218 -0.68353462 0
4.5914536 -5.9783192 0.29494667 0
5.7389364 -4.8317132 0.7940203 0
5.7672219 -4.8184786 -0.65928662 0
6.0337472 -4.5210543 -0.25969106 0
5.7012157 -4.8655524 -0.85963178 0
5.8146386 -4.7534523 0.71768761 0
5.355835 -5.1965055 1.1102436 0
5.2996397 -5.2537632 1.1111977 0
4.5644703 -6.0051041 0.17356753 0
4.6675148 -5.9049129 0.52612579 0
4.9133368 -5.6803842 0.72412503 0
5.9792747 -4.579586 -0.45780182 0
5.7538252 -4.8055992 -0.8586632 0
5.9601254 -4.6240735 -0.18578833 0
7.3183742 -1.5544779 -0.98529243 0
4.6739588 -5.8986144 0.55572736 0
4.6695471 -5.9083557 -0.4861809 0
-4.437077 -5.8096561 1.8763752 0
4.7315235 -5.8552279 0.53981376 0
5.1434193 -5.4212523 1.0575161 0
5.3712564 -5.1974034 1.0501983 0
-4.4879594 6.0616345 0.28501773 0
5.523201 -5.0552816 -0.95358074 0
5.9863997 -4.5856915 0.32816815 0
5.7510357 -4.8029175 0.91207731 0
4.7891264 -5.7889957 0.72535253 0
4.8353572 -5.7396359 0.81192517 0
5.8720431 -4.6978693 -0.6581707 0
5.5256386 -5.0630393 0.90403366 0
4.7510161 -5.8095374 0.81343579 0
4.791554 -5.7928534 -0.68659663 0
5.9558802 -4.6184616 -0.43161947 0
4.6104116 -5.9709678 -0.28422183 0
5.9180236 -4.6320143 0.71742177 0
2.6380422 7.004457 -0.98725724 0
5.0658741 -5.4964018 1.0601873 0
5.9225545 -4.6360102 -0.65746951 0
5.9304862 -4.6430063 0.52315164 0
6.088397 -4.4642973 0.061877251 0
5.3543196 -5.2111688 1.0856187 0
6.0417552 -4.5277195 -0.063578725 0
4.5469265 -6.0271845 -0.081715167 0
5.8692126 -4.6953001 0.71772707 0
5.6575394 -4.8909321 1.0408444 0
5.881484 -4.685986 -0.68172252 0
5.5182991 -5.0474939 1.0456955 0
5.6654615 -4.9027534 -0.94377983 0
4.6110106 -5.9720159 0.32475638 0
5.9530196 -4.6146798 0.54749382 0
5.5963383 -4.9814448 -0.9491477 0
6.0037994 -4.576725 -0.20808423 0
4.7247248 -5.8475451 0.72226059 0
6.0390306 -4.5254517 0.32814467 0
5.1322374 -5.4296913 1.1153927 0
5.448143 -5.1272607 1.0483959 0
5.5906048 -4.9726191 1.0435846 0
4.5665483 -6.0075922 0.35665131 0
4.7830091 -5.7792768 -0.89168668 0
-4.4367948 -5.4325166 2.8062453 0
6.0223436 -4.5411744 -0.42906237 0
5.6519461 -4.9291005 0.91367877 0
5.224575 -5.3544068 1.055764 0
5.8124704 -4.7615786 0.79322505 0
4.7308636 -5.850636 -0.68993247 0
-4.4947858 6.067234 -0.28020322 0
4.9713793 -5.6210246 -0.88513994 0
-4.4865842 5.6709805 2.1928492 0
5.6811008 -4.8996706 0.90403414 0
6.0359683 -4.522903 -0.45886946 0
6.0887847 -4.4647799 0.30451345 0
5.8916807 -4.6998734 0.54804635 0
4.4826827 -6.0831065 -0.083333373 0
-4.4333382 -5.5879922 2.4953864 0
4.4825783 -6.082911 0.12078857 0
2.7228904 6.9804945 -0.98479223 0
5.5291557 -5.0314627 1.1092272 0
4.5998383 -5.9524503 0.72759628 0
5.5827975 -4.97227 1.1084476 0
5.950314 -4.6111035 -0.67872751 0
5.0388069 -5.5283108 1.0853837 0
4.6098251 -5.9699407 -0.48986757 0
-4.4440031 -5.879138 1.6786418 0
4.5433207 -6.0206552 -0.49171382 0
5.8275146 -4.7280884 0.90403438 0
5.9832802 -4.5621734 0.72044003 0
4.7212782 -5.8349118 -0.89510071 0
5.9863896 -4.5856829 0.52323151 0
4.6677771 -5.9053574 -0.6927464 0
-4.4908233 5.9164371 1.4043696 0
4.5490379 -6.0310082 -0.28696001 0
6.0938034 -4.471034 -0.18241531 0
-4.4354458 -6.0185571 1.1248884 0
4.6027794 -5.9576011 -0.69518566 0
5.2035847 -5.3766165 1.0856555 0
6.0969167 -4.4693899 0.13231409 0
5.422061 -5.1510158 1.1113281 0
5.51649 -5.0552878 1.0860791 0
4.9099231 -5.6752901 0.92334926 0
6.0362573 -4.5231433 0.52319217 0
5.4772749 -5.0929055 1.1104965 0
6.0930314 -4.466249 0.32807136 0
4.8479071 -5.7292647 0.92430282 0
5.1954622 -5.3800364 1.1152844 0
4.4828253 -6.083374 -0.28873187 0
6.0956116 -4.4683352 -0.26145858 0
5.6391373 -4.91606 1.1083016 0
-1.8094699 -7.2768626 -0.98475552 0
4.9919577 -5.5808563 1.063858 0
5.7401805 -4.8335137 -0.94082451 0
6.0162845 -4.5333991 -0.67532897 0
7.3529978 -1.4741518 -0.98512924 0
5.668067 -4.8892541 1.0863481 0
4.9140763 -5.6814876 -0.88923705 0
7.3537006 1.4744556 -0.98530591 0
5.2550292 -5.3258376 1.1146011 0
4.8519011 -5.7354131 -0.89172351 0
6.1495495 -4.4011197 -0.21097553 0
5.9478617 -4.607862 0.79093051 0
5.8190365 -4.7575612 -0.86196184 0
6.0247636 -4.5442805 0.54728174 0
6.1954284 -4.3430157 -0.06402576 0
5.0804768 -5.4950304 1.1180272 0
4.5947523 -5.9863443 0.55660462 0
4.5676498 -6.0089107 0.53936172 0
6.0918732 -4.4653125 -0.45993036 0
5.8660116 -4.6923943 0.91282678 0
6.1601901 -4.3952017 0.062309265 0
6.1447296 -4.4050651 0.32803094 0
4.6132421 -5.975925 0.52672219 0
6.150229 -4.4093823 -0.064450383 0
5.885335 -4.6912308 0.7924757 0
4.4804873 -6.0789928 -0.49508613 0
6.1035352 -4.47474 -0.064818025 0
6.1595707 -4.3944521 -0.18085325 0
6.0879493 -4.4637394 0.5468632 0
2.7247577 -6.991991 -0.98748124 0
4.5472536 -6.0277762 0.52694726 0
5.9858608 -4.5852294 -0.66028023 0
4.5124006 -6.0700822 0.29397631 0
4.7364054 -5.859726 0.72704875 0
4.5532446 -6.0386271 0.32423627 0
5.7366486 -4.828403 1.0402157 0
5.8771882 -4.6801353 -0.93199444 0
-4.4938283 6.0664487 0.56651473 0
4.6721201 -5.9127159 0.72769725 0
-4.4916601 5.9673786 1.239754 0
-4.4916835 5.7728829 1.9579332 0
6.1512327 -4.4022422 0.34911489 0
6.0951571 -4.4727211 -0.42801529 0
5.2891846 -5.2596955 1.3036976 0
4.5158091 -6.0787239 0.029721022 0
4.9148302 -5.6614432 1.0672312 0
5.8746529 -4.7002382 -0.86244202 0
6.1508975 -4.4099069 -0.26229799 0
5.699142 -4.8635006 1.1089306 0
-4.4965715 6.0686989 -0.56527209 0
7.3801789 -1.3907375 -0.98339462 0
6.1581364 -4.406846 0.16242814 0
-4.4377966 -5.8878512 1.7353323 0
5.1836019 -5.3648162 1.3121648 0
6.038445 -4.5249639 -0.66053092 0
2.8090372 6.9655128 -0.98471129 0
6.155304 -4.4133658 0.13175023 0
2.8091245 -6.9660058 -0.98482692 0
4.509181 -6.0619206 0.55727041 0
5.9868941 -4.5861149 0.71856749 0
4.7922792 -5.7940054 0.92645288 0
4.6763668 -5.9042411 0.81642008 0
4.9648571 -5.6115866 1.1214461 0
5.8149858 -4.7651091 -0.93829215 0
5.3558464 -5.1965189 1.3087213 0
5.0261078 -5.5577946 1.1203594 0
5.9272494 -4.6401515 -0.86224091 0
6.1459751 -4.398736 0.5347172 0
4.4893889 -6.0956731 0.32389295 0
6.1623125 -4.4096313 -0.025075674 0
4.6003256 -5.9533043 -0.90444899 0
5.9459386 -4.6053195 -0.92831981 0
5.9830408 -4.5620036 0.90403521 0
6.0260286 -4.5146294 -0.86070192 0
6.0982437 -4.4704623 0.52344561 0
4.7297373 -5.8532095 0.90403318 0
6.1602459 -4.3952689 -0.42568755 0
6.0381436 -4.5247135 0.71854317 0
6.0899963 -4.4637952 -0.66073751 0
5.8250318 -4.7631617 0.91438365 0
6.2273488 -4.3209915 0.063028216 0
5.1973038 -5.3706436 1.2670712 0
5.217504 -5.3416004 1.308157 0
4.485528 -6.0884385 0.5273639 0
4.8872061 -5.6933513 1.0856988 0
4.4235678 -6.1501727 -0.29261595 0
6.1657028 -4.4018736 0.30451703 0
5.8104763 -4.7587795 1.0389395 0
5.5245876 -5.0265379 1.3063438 0
4.906991 -5.6709146 1.1234713 0
4.5472536 -6.0277777 -0.70179498 0
5.8279428 -4.7284112 1.0869939 0
4.4265909 -6.1560378 0.11875749 0
4.4268789 -6.1565967 -0.086759686 0
4.4272976 -6.1504011 0.29320371 0
-4.4360476 -5.6172719 2.5075421 0
4.7330813 -5.8542733 0.92820787 0
5.4438095 -5.1201525 1.2985904 0
5.3707485 -5.1965423 1.3020196 0
4.3588753 -6.2081156 -0.088093102 0
-1.8210754 7.2975297 -0.98936284 0
4.8465323 -5.7271481 1.1251462 0
7.3917522 1.3955433 -0.98628771 0
5.8787761 -4.6822977 1.0370195 0
4.289319 -6.2574463 -0.089299917 0
4.4059629 -6.1665707 0.35509014 0
5.0392933 -5.5288005 1.266964 0
4.5710039 -6.0129275 0.72167456 0
4.720026 -5.8328576 1.127857 0
5.9310007 -4.6434603 0.91420925 0
4.4216604 -6.146471 -0.50022328 0
6.1524186 -4.4111009 0.52353954 0
6.1439853 -4.4044809 -0.66176176 0
4.784543 -5.7817144 1.1266904 0
6.2136273 -4.3568854 0.13114345 0
4.4118624 -6.1740613 0.17029071 0
-4.4434047 -5.735539 2.2314634 0
4.3379841 -6.2228703 0.29255795 0
4.6717882 -5.9121542 0.92979217 0
5.9835749 -4.5832705 0.91422558 0
5.3098125 -5.2660742 1.312479 0
5.865613 -4.6920323 1.1092842 0
-4.4873867 5.9610696 1.407546 0
4.4230375 -6.1491442 0.52779555 0
6.0969825 -4.4749956 -0.67600143 0
5.1463194 -5.4266868 1.3131685 0
6.1593614 -4.4165511 -0.46347874 0
4.6738443 -5.9156375 -0.90544999 0
5.660243 -4.8949661 1.2896106 0
4.5959816 -5.9893346 0.81890297 0
4.7563801 -5.8215933 1.0741341 0
4.3623314 -6.2150645 0.11751902 0
6.2121716 -4.3557758 0.32762623 0
5.6697569 -4.8906045 1.2689612 0
6.2629871 -4.2933416 0.13107455 0
6.2067499 -4.351644 -0.46312582 0
4.4291048 -6.1609149 0.3233732 0
6.2146749 -4.3576841 -0.26456898 0
6.1483011 -4.4002872 0.71941173 0
5.1373882 -5.4365001 1.3167126 0
4.5632715 -6.0036678 0.9040333 0
4.8415861 -5.7531118 1.0717568 0
7.416337 -1.3111136 -0.98419857 0
5.5921268 -4.9749618 1.2932034 0
-4.4927011 6.0655241 0.84841132 0
4.4045868 -6.1648226 0.53850555 0
4.725069 -5.8479342 1.0858176 0
5.766789 -4.8180623 1.1109815 0
6.1664548 -4.4027834 0.54690337 0
6.0352664 -4.5223184 0.91424 0
6.1464419 -4.4064093 0.71905923 0
5.3686314 -5.2240181 1.2682984 0
4.3616476 -6.2136893 -0.296139 0
5.5224414 -5.0540748 1.2967775 0
2.8959832 6.9546537 -0.98588872 0
5.5232134 -5.0609841 1.2687333 0
4.3616629 -6.2137208 0.32308269 0
4.553544 -6.0391698 0.73037112 0
6.1008348 -4.4725571 0.71934986 0
-4.4949245 6.067348 -0.85225499 0
6.3122263 -4.2296443 0.13095498 0
6.2642303 -4.2942615 -0.26475877 0
6.0323305 -4.5539908 0.7913872 0
5.6951251 -4.8595266 1.3061299 0
6.1547771 -4.3886509 0.78864527 0
6.2630291 -4.2933726 0.32757032 0
5.9941502 -4.5923324 -0.86665404 0
5.4274063 -5.1571198 1.3114028 0
6.2284842 -4.3223262 0.54652286 0
5.2580395 -5.3295894 1.3151016 0
6.085711 -4.4609499 -0.92288339 0
5.3475351 -5.2050781 1.4489419 0
6.2095637 -4.3537884 0.52371645 0
4.5101004 -6.06425 0.82086349 0
5.5915194 -4.9814072 1.3084025 0
6.2345386 -4.329443 -0.42535472 0
6.1634727 -4.3991742 -0.67333925 0
6.2701259 -4.2986221 -0.066919684 0
5.8206625 -4.7229276 1.2697272 0
5.8224378 -4.7607388 1.1110995 0
4.961566 -5.6068249 1.3222528 0
5.9226623 -4.6361055 1.1099253 0
5.9528637 -4.6144743 1.0361352 0
-4.4397454 -6.1718988 0.0015550852 0
5.4839573 -5.1003203 1.310626 0
6.0879135 -4.4621115 0.91446042 0
6.0965176 -4.4744158 0.79020262 0
6.0248823 -4.5444326 -0.92827761 0
4.2965164 -6.2724504 0.11633074 0
7.4243813 1.3143198 -0.98619783 0
4.489912 -6.096653 -0.70824325 0
-1.725652 -7.3401346 -0.98764658 0
5.0728893 -5.5100126 1.3180413 0
4.6123815 -5.9744172 0.93189371 0
4.4297209 -6.1568127 0.55831587 0
-1.7261746 7.3410969 -0.98785937 0
4.9930863 -5.5831261 1.3216238 0
-4.4818826 5.9093146 1.6863122 0
4.4223418 -6.1477938 -0.71094608 0
4.8396711 -5.7165856 1.325947 0
5.0849409 -5.5011101 1.3199537 0
6.3033409 -4.2574339 0.06294775 0
4.2956209 -6.2705836 -0.29885733 0
6.2415466 -4.3376813 0.30452514 0
6.3146181 -4.2359991 -0.21786213 0
4.5468426 -6.0270329 0.93309999 0
4.6759176 -5.903192 1.0778618 0
4.8859568 -5.6920185 1.2674768 0
-4.4394898 -6.1716828 -0.28233099 0
6.3164558 -4.2326803 -0.26548815 0
-4.4397702 -6.1719198 0.28443265 0
6.3005314 -4.2542257 0.30495524 0
-4.4342933 -5.8826785 1.9027174 0
6.3034506 -4.2575593 -0.17988712 0
5.6492834 -4.9263892 1.3085067 0
4.4909372 -6.0985751 0.73154187 0
6.2641969 -4.2942362 -0.46494216 0
5.9775257 -4.5780873 1.1103354 0
5.0271106 -5.5592022 1.3220413 0
-4.4384012 -6.0209813 1.407434 0
2.8985462 -6.9680057 -0.9890275 0
4.4237566 -6.1505384 0.73231816 0
6.2990866 -4.2525759 -0.42338818 0
6.0992823 -4.4713025 -0.86743367 0
5.2987013 -5.2526269 1.5106254 0
5.3551679 -5.1957211 1.509201 0
5.8062267 -4.7528148 1.2854419 0
4.4822125 -6.0822253 0.93464589 0
-1.6249967 7.3722658 -0.98394513 0
4.2520304 -6.3083711 0.29165125 0
5.7563262 -4.8080034 1.3073719 0
5.8074107 -4.7466998 1.3065655 0
4.4063616 -6.1670761 0.72130203 0
6.1433525 -4.4039841 0.91508543 0
6.3237381 -4.2417097 -0.030267477 0
4.9065924 -5.6703196 1.3256679 0
4.3637905 -6.2179976 0.52840066 0
-4.4345965 -5.8716445 1.9610586 0
6.2498922 -4.3474917 -0.18278193 0
2.9818873 -6.9379463 -0.98598385 0
4.2992086 -6.2780638 0.32255197 0
4.9160538 -5.6639934 1.3263936 0
5.1998005 -5.3730183 1.4493248 0
4.4847412 -6.0869641 -0.91856468 0
6.2323351 -4.3268528 -0.67156899 0
6.267549 -4.2967162 0.52392769 0
4.3418741 -6.2336245 0.5590415 0
6.3102369 -4.2332554 0.53247643 0
5.5131712 -5.0524755 1.4506574 0
4.6707535 -5.9104004 1.13291 0
5.8748198 -4.6769094 1.2828259 0
6.025425 -4.5451288 1.0351892 0
6.3735662 -4.174274 -0.067927599 0
6.1574588 -4.3918962 -0.92128158 0
4.358192 -6.2067423 0.73339379 0
4.5538692 -6.0397582 -0.91660094 0
6.3296223 -4.2421317 -0.068215728 0
6.3680077 -4.1812148 -0.17864484 0
5.9981451 -4.5727153 1.0880554 0
4.4264994 -6.1482897 0.8233937 0
6.2116976 -4.3554149 0.72012925 0
5.744031 -4.8390851 1.2897265 0
4.3671513 -6.2247543 -0.50738478 0
6.3224211 -4.2408848 0.34518695 0
4.8348989 -5.7386436 1.330441 0
6.0889435 -4.4649782 1.0331359 0
6.1540651 -4.4041314 0.90403664 0
6.2162962 -4.3589191 -0.6674614 0
6.3195524 -4.2349029 -0.46649325 0
5.0407085 -5.5302262 1.4490633 0
7.4569354 -1.2330604 -0.98637795 0
4.7849379 -5.7823415 1.3300512 0
2.9833524 6.9450302 -0.98765385 0
4.3605776 -6.2115374 -0.71657658 0
5.2485242 -5.3177319 1.5142798 0
6.3736215 -4.1743126 -0.26708192 0
-4.4862127 5.9593358 1.5760462 0
4.7517214 -5.8111219 1.3343272 0
-4.4399652 -6.1720848 0.56697166 0
6.2610059 -4.2918758 0.72019625 0
6.3730993 -4.1868639 0.063284516 0
-4.4874091 6.061183 1.1307683 0
6.3298936 -4.2423267 0.32715189 0
-4.4421387 -6.1739202 -0.56840038 0
5.2166128 -5.3399863 1.5637226 0
6.3212476 -4.2361202 0.52406228 0
6.1583185 -4.4157324 -0.87010026 0
6.3751416 -4.1753712 0.3271817 0
4.5964556 -5.9904876 1.0822155 0
7.4627032 1.2352641 -0.98780346 0
4.2336292 -6.3377604 0.32209694 0
-4.4905009 5.6309142 2.5145404 0
5.1355662 -5.4340916 1.5186253 0
5.1946144 -5.3789482 1.5171132 0
6.3356142 -4.2491469 0.15650523 0
6.2995477 -4.2531018 -0.66968167 0
4.6112022 -5.9723516 1.1358175 0
5.0766683 -5.4898429 1.520473 0
6.2693009 -4.2980123 -0.66859162 0
4.3011212 -6.2820506 -0.51094818 0
-4.4335442 -5.8057923 2.2050509 0
5.6727953 -4.8930326 1.4521925 0
6.0419412 -4.5278745 1.1124001 0
5.345294 5.3579593 -0.98625362 0
-1.6343787 -7.3901539 -0.98787153 0
-4.4262195 -6.1604757 0.84891689 0
6.3843575 -4.1817889 0.12931621 0
-4.4948192 5.8728099 1.8899283 0
5.4245377 -5.1538439 1.5118489 0
5.9224024 -4.6358767 1.3082533 0
3.0677724 -6.9210162 -0.9863168 0
4.7318497 -5.8555965 1.2682767 0
5.4449091 -5.1219559 1.5520091 0
4.23911 -6.3496189 -0.094724119 0
5.5351319 -5.0379057 1.5095005 0
5.4807224 -5.0967312 1.510803 0
5.588407 -4.9692349 1.5436435 0
4.6705694 -5.8906927 1.3392966 0
6.211462 -4.3552351 -0.87125969 0
5.2972775 -5.273869 1.5608473 0
5.1435175 -5.4214368 1.5695367 0
4.574729 -6.0173883 1.0865283 0
4.2504034 -6.3347821 0.35235238 0
7.4851856 -1.1501837 -0.98578584 0
4.4088326 -6.1702137 0.90403426 0
4.9595337 -5.6038842 1.5253165 0
5.3727279 -5.1998963 1.5567145 0
4.8840685 -5.6900048 1.4494994 0
7.4857507 1.1503904 -0.98592484 0
6.4325237 -4.1166492 0.12916517 0
5.0655756 -5.4958234 1.5742364 0
6.3171825 -4.233202 0.72076464 0
6.3780122 -4.1923151 0.30486488 0
4.1653881 -6.3966036 0.29067576 0
4.3042402 -6.2885523 0.52905095 0
6.2396555 -4.3354583 0.78936696 0
6.2977576 -4.2510581 0.78800809 0
5.5196152 -5.0495849 1.5484955 0
-4.4944291 5.4920378 2.8284457 0
6.2100959 -4.3541942 0.91703904 0
5.5919971 -4.9819078 1.5091481 0
3.0690064 6.9265814 -0.98763287 0
4.2565393 -6.3430514 0.16656423 0
4.5496006 -6.0320277 1.1385028 0
4.3418093 -6.2334461 0.82604003 0
5.6460981 -4.9231467 1.5082579 0
6.3761082 -4.1902027 -0.4239437 0
6.3140817 -4.2697001 0.54680371 0
6.1509466 -4.4020514 1.0887356 0
4.2567291 -6.3219647 0.5599997 0
4.2987404 -6.2770877 -0.72274935 0
4.7314091 -5.8515301 1.3349025 0
5.879014 -4.7041974 1.3103478 0
6.381228 -4.1796098 -0.46941364 0
6.3189201 -4.2386928 0.71811938 0
4.9014139 -5.6625924 1.5283947 0
6.3253093 -4.2390356 -0.67063856 0
6.4381905 -4.1204758 -0.069928408 0
4.1683187 -6.399941 0.32157934 0
4.1689959 -6.4014626 -0.30692226 0
5.9562464 -4.6189461 1.2830939 0
7.5076671 -1.0653489 -0.98407674 0
4.5144243 -6.0752134 1.0864105 0
6.4365926 -4.1193967 -0.26964492 0
6.439332 -4.1127343 0.30516779 0
4.6687999 -5.9070902 1.337348 0
5.3538599 -5.2107563 1.6322947 0
5.8303394 -4.730216 1.4539182 0
6.4429951 -4.116683 -0.17890513 0
6.167336 -4.4038496 1.0333197 0
4.2446556 -6.3616161 0.11326098 0
6.3757267 -4.1897793 0.54647541 0
4.2425146 -6.3569856 -0.30567729 0
6.2674394 -4.2966352 -0.87347078 0
6.2851334 -4.2366414 1.0288544 0
4.8420916 -5.7203116 1.531409 0
6.2369804 -4.3323135 -0.92233765 0
4.4310884 -6.1647644 0.93896341 0
6.1510329 -4.4100132 1.113719 0
5.430542 5.297863 -0.98447049 0
4.565527 -6.0063686 1.2685521 0
6.4461026 -4.1200333 0.063287735 0
6.1046195 -4.4756169 1.1142807 0
4.3021626 -6.2842216 0.7357533 0
4.487143 -6.0914645 1.1412578 0
5.6667008 -4.904603 1.5419283 0
5.0286283 -5.5613327 1.5262604 0
3.1531389 -6.9016409 -0.9863621 0
4.1737747 -6.4122033 0.11238086 0
6.0333066 -4.5206876 1.309721 0
6.0006599 -4.5744982 1.2724185 0
4.3633118 -6.2170353 -0.93241537 0
4.1741476 -6.4130411 -0.097429931 0
4.2444668 -6.3267808 0.72063816 0
4.4329348 -6.1683469 -0.92964852 0
5.0365686 -5.5260563 1.631114 0
-4.4823895 5.666522 2.5231545 0
4.2391243 -6.349649 0.52953148 0
7.5139298 1.0675385 -0.98560846 0
6.386972 -4.1836095 0.52446985 0
6.266768 -4.2961383 0.91795421 0
5.1999693 -5.373179 1.6320338 0
4.4042559 -6.164402 1.0866871 0
5.2976303 -5.2513313 1.7138929 0
4.9924326 -5.5818114 1.5811534 0
-4.4936528 5.7744064 2.2461295 0
-4.4421387 -6.1739202 -0.85662758 0
5.7365026 -4.8281913 1.5381432 0
6.3726759 -4.1863947 -0.66947544 0
6.0246525 -4.5441375 1.2809234 0
6.4805193 -4.0678897 -0.22554862 0
4.1679869 -6.3991942 0.52980626 0
-1.5397298 7.4336281 -0.98695433 0
-4.4362121 -5.8855119 2.0724995 0
6.4365039 -4.1096845 0.54615951 0
5.9882455 -4.5872731 1.3110728 0
4.2410789 -6.3538785 -0.51718909 0
6.4431596 -4.1238317 0.3267113 0
4.2562571 -6.3426709 0.53612161 0
6.5065155 -4.0399857 0.064173341 0
6.4870081 -4.0716982 -0.036281645 0
6.4859018 -4.0710487 0.15312982 0
4.1699305 -6.403563 -0.51970118 0
4.3660812 -6.2226028 0.94090867 0
5.8726664 -4.6739764 1.5307627 0
3.2361677 -6.8728929 -0.98446643 0
6.3217702 -4.2364955 -0.87543082 0
6.4368873 -4.119596 0.5245564 0
4.6095219 -5.9694095 1.3411708 0
4.9135017 -5.6586733 1.5866044 0
4.7274151 -5.8505855 1.4504249 0
5.1869526 -5.3691158 1.7191091 0
5.7123494 -4.8765669 1.5109339 0
6.4825001 -4.0690522 0.34184623 0
6.3805699 -4.1791511 0.72184181 0
5.8659501 -4.6923385 1.507971 0
4.2358856 -6.3426418 -0.72907233 0
5.5780106 -4.9672551 1.7078497 0
3.155509 6.9116464 -0.98873591 0
4.5934649 -5.9832125 1.3461103 0
5.519228 -5.0576077 1.6345322 0
6.4465799 -4.1205482 -0.42347062 0
6.3039327 -4.25811 -0.91992176 0
4.424108 -6.1512203 1.1441605 0
-4.4335093 -6.0169683 1.6910734 0
6.2076263 -4.3523121 1.1148808 0
6.3859658 -4.1829085 -0.67396736 0
-4.4879255 5.9618645 1.745785 0
6.4428902 -4.1236496 -0.47245526 0
6.3211317 -4.2360368 0.91870129 0
5.6703167 -4.8910518 1.6355438 0
6.0933528 -4.4704723 1.2790611 0
4.2985868 -6.2767677 -0.9382472 0
4.430768 -6.1595821 1.0906594 0
6.4997163 -4.0638475 -0.071667492 0
4.1064701 -6.4724112 0.11089969 0
5.8109498 -4.7594438 1.5360026 0
6.1394343 -4.400908 1.3108661 0
-4.4257183 -6.2488918 0.38603187 0
6.0927272 -4.4660034 1.3115044 0
6.3741698 -4.1880522 0.78819919 0
4.081851 -6.4886389 0.16506314 0
-4.4865708 6.2114449 0.28336334 0
6.2396779 -4.3354845 1.0328026 0
6.5087419 -4.0423179 0.30523276 0
5.7690258 -4.8202128 1.5111728 0
4.1074114 -6.4746122 -0.10003179 0
4.8337655 -5.7361922 1.5923319 0
4.8802748 -5.6859574 1.6317267 0
6.5018601 -4.0652509 0.12763083 0
6.435245 -4.1184869 -0.67478478 0
4.1059494 -6.4711947 -0.31167346 0
6.4320178 -4.1163077 0.72220278 0
-4.4351797 -5.7291765 2.5187106 0
4.1674347 -6.397953 -0.73336792 0
7.543067 -0.9850288 -0.98581612 0
4.1709671 -6.4135256 0.56103516 0
5.3651862 -5.2074981 1.7161589 0
5.4762778 -5.0917993 1.7129591 0
5.6899529 -4.8544097 1.7073741 0
5.4214964 -5.1503711 1.7146688 0
6.490036 -4.0575099 0.52472889 0
5.9903498 -4.5671868 1.4562259 0
6.4995894 -4.0637646 0.32647169 0
4.7913837 -5.792582 1.5379343 0
6.3281031 -4.2444429 0.90403831 0
5.0762072 -5.4892154 1.7257972 0
7.5457697 0.9859305 -0.98647392 0
4.2591801 -6.3290582 0.82932031 0
5.5323162 -5.0348701 1.7119892 0
5.8245926 -4.7627516 1.5113294 0
5.2534971 -5.3239284 1.7204556 0
4.7281704 -5.8462172 1.5403266 0
5.823019 -4.7247024 1.6372876 0
6.5040326 -4.0666728 -0.27295583 0
-4.4971933 6.2204156 -0.0023856163 0
6.5173049 -4.0512886 -0.17919362 0
3.2400107 6.8881412 -0.98809683 0
4.2416439 -6.3551002 0.73776269 0
4.3032756 -6.2865419 0.94352305 0
6.4440818 -4.1178546 -0.6690954 0
-1.5495629 -7.4530463 -0.99118531 0
-4.4837008 5.9107633 1.9732623 0
5.947535 -4.6074305 1.529398 0
5.9271107 -4.6400294 1.5100503 0
6.2655234 -4.2952175 1.1163561 0
5.6420717 -4.9190474 1.7101424 0
6.3811178 -4.1795325 -0.87902617 0
4.0846567 -6.4926558 0.35016584 0
4.3431334 -6.2371063 1.0943613 0
-4.4919057 6.0648713 1.415931 0
5.5208273 5.2464919 -0.98493481 0
5.977881 -4.578392 1.5096376 0
5.1395421 -5.4393468 1.7253036 0
6.4993348 -4.0635977 -0.47463316 0
4.2335124 -6.3375082 0.94495678 0
4.5110121 -6.0665631 1.3518217 0
4.4848204 -6.0871119 1.3479435 0
4.2494011 -6.3334312 0.90403521 0
5.4393311 -5.1128063 1.8059011 0
4.5527754 -6.0377769 1.3462114 0
4.1056671 -6.4705358 0.53051257 0
-4.497447 6.2206297 -0.28896791 0
-4.4246697 -5.8637366 2.2463369 0
4.363307 -6.2170258 1.1479964 0
-1.446393 -7.479528 -0.98686266 0
6.5149713 -4.0488439 -0.42281318 0
6.3744345 -4.1883459 -0.91888547 0
4.0390406 -6.534492 -0.10254914 0
6.5566916 -4.0036383 -0.073003769 0
5.0215645 -5.5514174 1.7300401 0
6.5517678 -4.0005145 0.3263042 0
4.0780869 -6.4881516 0.56177855 0
4.6677866 -5.9053731 1.5441499 0
6.1625004 -4.4097562 1.2742825 0
5.513751 -5.040267 1.8015323 0
6.4932842 -4.0753818 0.52900052 0
5.3508673 -5.2080693 1.8153787 0
4.7559404 -5.8206053 1.5994167 0
4.0831242 -6.5041995 0.28932774 0
-1.4478807 7.4825735 -0.98752153 0
4.1075182 -6.4748611 -0.52609748 0
6.1678138 -4.404428 1.2785463 0
-4.4889016 6.2134132 -0.57591581 0
7.570169 -0.90182644 -0.9858166 0
4.1740999 -6.4129333 0.73906088 0
6.3844824 -4.1818757 0.92049122 0
4.2367764 -6.3445687 -0.94632912 0
3.3236351 -6.8615904 -0.98701596 0
4.4200344 -6.1433167 1.3510611 0
4.0410156 -6.5392957 0.10899401 0
-4.431386 -6.2578001 0.55851543 0
3.3240161 6.8630166 -0.98735666 0
4.1134481 -6.4887199 0.3205421 0
7.5725417 0.90258044 -0.98639131 0
6.5152702 -4.0491571 0.54633224 0
6.0822144 -4.4575043 1.5101924 0
4.4243231 -6.1425328 1.3566887 0
4.0400105 -6.5368514 -0.3159759 0
4.7234592 -5.8461151 1.6329229 0
6.0194235 -4.5374274 1.5275378 0
-4.4928098 6.2167139 0.56817901 0
6.3707647 -4.1842737 1.030405 0
6.5605092 -4.0060601 -0.27475286 0
4.5713778 -6.0133762 1.4519451 0
4.2981191 -6.2757921 1.1509666 0
6.3255939 -4.2428722 1.0901403 0
4.966939 -5.6145997 1.7347369 0
5.3730612 -5.2004609 1.8138864 0
6.4954081 -4.0610266 0.72336495 0
5.8086114 -4.7478218 1.7100682 0
6.5665655 -4.0099025 0.12635183 0
5.7580233 -4.8096352 1.7114077 0
4.1679144 -6.3990316 0.94748831 0
4.1708574 -6.4131923 0.8320173 0
-4.4464917 -6.1775966 1.1345327 0
4.0884256 -6.4980516 0.53481638 0
5.1446428 -5.4235458 1.8299599 0
6.3254957 -4.2391696 1.1182542 0
5.5136404 -5.0528731 1.8177941 0
4.4134808 -6.1761169 1.2702336 0
4.042119 -6.5419807 0.32016647 0
5.2992392 -5.2773037 1.8195999 0
3.4061756 6.8316331 -0.98539996 0
5.2229753 -5.3515091 1.8249183 0
6.4406404 -4.1141443 -0.91692472 0
6.4507313 -4.1250234 0.78846884 0
4.25595 -6.3197112 1.0986319 0
4.6089153 -5.9683471 1.5489907 0
5.0398693 -5.5293798 1.8149185 0
4.8449039 -5.7246413 1.7401578 0
-1.3485749 -7.5159311 -0.98501909 0
6.5066423 -4.0401182 0.78723621 0
6.0865564 -4.4620037 1.5247629 0
6.4932814 -4.0753798 0.71662176 0
5.2037859 -5.3768077 1.8161383 0
6.1482258 -4.4002371 1.4587076 0
4.6759634 -5.9032984 1.6063542 0
5.8632545 -4.6898913 1.7102878 0
6.5156808 -4.0495877 -0.66899204 0
6.5039358 -4.0666099 -0.68031991 0
6.0431747 -4.5289011 1.5131271 0
4.9094858 -5.6746378 1.7387333 0
4.170784 -6.4054813 -0.95284343 0
5.0686545 -5.5017967 1.8365693 0
4.1074886 -6.4747925 0.74063599 0
6.214735 -4.3577294 1.3161159 0
-4.482389 5.8592143 2.2191212 0
3.4079838 -6.8380284 -0.9869343 0
6.5598197 -4.0056224 0.52526212 0
4.0405006 -6.538044 -0.53121996 0
6.5923109 -3.9864395 0.063061476 0
6.4462037 -4.1258874 -0.88441408 0
4.0407305 -6.5386033 0.53116977 0
5.6692982 -4.8902378 1.8197644 0
5.411521 -5.1389785 1.9176393 0
-4.4888039 5.9631624 1.9163837 0
-4.4331093 -6.2605081 0.73128748 0
4.2508373 -6.3353662 1.0876811 0
3.9733782 -6.6035304 0.10719562 0
-4.4403267 -5.6218195 2.8435912 0
6.3793998 -4.1783361 1.1193464 0
5.2437811 -5.3118219 1.9242539 0
6.2419767 -4.3381872 1.2781641 0
7.6006665 0.81963116 -0.98692381 0
6.503201 -4.0365133 -0.91426814 0
5.7362971 -4.8278942 1.7908967 0
3.9716477 -6.5991445 0.31970036 0
6.4465938 -4.1261511 0.92221546 0
4.1097841 -6.4801579 -0.74353135 0
4.5919461 -5.9795184 1.6123395 0
5.5987692 -4.9851871 1.801415 0
3.9921861 -6.5905266 0.2883513 0
-4.4406433 -5.8920541 2.2445903 0
4.3616753 -6.2137451 1.3568373 0
5.6701164 -4.9096999 1.7968051 0
6.5979567 -3.9921868 -0.18038744 0
4.0379076 -6.5317354 0.74197745 0
7.6070638 -0.8215639 -0.98846662 0
5.4728761 -5.0880251 1.9183512 0
5.6143856 5.2001538 -0.98685467 0
6.4908152 -4.0739326 0.90403974 0
5.1909637 -5.3742638 1.9285989 0
6.5730762 -4.0140328 -0.48019773 0
-4.431097 -6.3178616 -0.0030782223 0
4.0920649 -6.503262 0.71937847 0
6.2717299 -4.299809 1.3178263 0
5.9254785 -4.6385894 1.7130957 0
5.3072228 -5.2629399 1.9248319 0
5.8093324 -4.757174 1.7877984 0
4.2378139 -6.3468137 1.1557014 0
4.5520205 -6.0364099 1.5551116 0
5.9978342 -4.572495 1.6420808 0
6.3075366 -4.2622256 1.2763629 0
6.5988193 -3.9930656 0.30475652 0
-1.3571615 7.5341649 -0.98893678 0
-4.4458003 -6.0168505 1.9016776 0
-4.4942002 6.2178879 0.85358024 0
6.5623422 -4.0072231 -0.68360925 0
4.8302279 -5.7285371 1.8558319 0
5.689621 -4.8540812 1.9131055 0
4.0396709 -6.536026 -0.74827409 0
3.9780388 -6.6153469 -0.10711718 0
5.8256016 -4.7266479 1.8224783 0
3.9759789 -6.6101236 -0.32138431 0
6.1524224 -4.4111037 1.5152466 0
6.4993601 -4.0636139 0.92303014 0
4.8876629 -5.6938386 1.816401 0
6.5029612 -4.0659714 -0.88766611 0
4.1681423 -6.4049559 1.1032405 0
3.4925103 6.8150358 -0.98727977 0
6.4474597 -4.1214962 1.0308795 0
7.6231265 -0.73497111 -0.98637938 0
4.7935176 -5.7959728 1.7476411 0
5.1351671 -5.4335637 1.9320972 0
6.5913911 -3.985503 0.54645824 0
-4.4319983 -6.2587624 0.90402174 0
-1.2527254 -7.5560684 -0.9842844 0
4.1055169 -6.4701843 -0.96050787 0
4.48631 -6.0899043 1.558156 0
4.2439947 -6.3261452 1.2709913 0
3.9727607 -6.601965 0.53175247 0
4.7300878 -5.8493629 1.7504077 0
4.3438177 -6.2389979 1.3643692 0
5.5870581 -4.9767332 1.9172935 0
4.9977231 -5.5924473 1.8460612 0
-4.431849 -6.1652303 1.4181466 0
6.5632315 -4.0077872 0.72484112 0
4.915885 -5.6636419 1.8515129 0
5.3684025 -5.2112789 1.9247565 0
-4.4337826 -6.3201962 -0.29040635 0
4.0834661 -6.5052891 0.83520913 0
7.6277447 0.73629457 -0.98748851 0
5.5351191 -5.0378923 1.9196916 0
5.0788302 -5.4927874 1.9358003 0
4.2985773 -6.2767482 1.3614166 0
4.1697493 -6.4031558 1.1585498 0
3.9929619 -6.5931277 0.56309593 0
6.3259087 -4.2394657 1.3191323 0
4.4132385 -6.1758099 1.4538031 0
6.3305645 -4.2459846 1.2767179 0
-4.4305892 -5.8025603 2.5380487 0
4.5718346 -6.0139222 1.635576 0
4.1086397 -6.4774828 0.95170498 0
3.5741315 -6.7825847 -0.98563015 0
-4.4773722 5.9462829 2.0845668 0
6.0323277 -4.5198727 1.713994 0
3.4952087 -6.8240848 -0.98945987 0
6.4821548 -4.0688496 1.0911577 0
-4.5018988 6.2243896 -0.86901653 0
6.1676807 -4.4042668 1.5257854 0
6.373085 -4.1868482 1.2747891 0
5.8005271 -4.7402692 1.913393 0
3.9060793 -6.6714888 -0.10943115 0
7.641571 -0.64927346 -0.98516691 0
-4.4261374 -6.3135495 -0.57806408 0
-4.4389486 -6.324687 0.28270841 0
5.0215502 -5.5513978 1.9395308 0
5.9485922 -4.6088281 1.7805748 0
5.9859586 -4.5853133 1.7155633 0
3.8983541 -6.6725855 0.28743267 0
6.2089953 -4.3533554 1.517077 0
4.7513986 -5.8103976 1.8639941 0
3.9765325 -6.6115284 -0.53823137 0
4.7247725 -5.8475995 1.8168674 0
-1.2581525 7.5680346 -0.98683834 0
3.9250963 -6.6635594 0.15974927 0
6.512053 -4.0457869 1.0299282 0
-4.4369588 -6.0197983 1.9795208 0
3.9077921 -6.6760206 0.10488987 0
4.9626517 -5.6083956 1.9429674 0
3.9226372 -6.6598144 0.34684157 0
5.1979198 -5.3712292 1.9996152 0
3.971427 -6.5985847 0.74392569 0
5.8865891 -4.6929388 1.7864819 0
3.6549888 -6.7484112 -0.98383749 0
6.3098211 -4.232995 1.4618514 0
4.6723647 -5.9131308 1.7561779 0
6.5606241 -4.0061331 -0.89137208 0
7.6478901 0.65098697 -0.98667848 0
3.9066377 -6.672966 0.31890714 0
5.7001715 5.1412916 -0.98619854 0
4.4254513 -6.1538262 1.5636652 0
5.5119247 -5.0514193 2.0024281 0
4.0940552 -6.5061116 0.90403652 0
4.6072946 -5.9655089 1.7590935 0
4.5144644 -6.075314 1.6218293 0
6.4507933 -4.1289868 1.1231489 0
5.3589945 -5.2153664 2.0013757 0
6.2344728 -4.3293657 1.5234914 0
5.6522446 -4.9294038 1.9203334 0
6.3821812 -4.1802731 1.3209975 0
3.5786276 6.7969084 -0.98909616 0
5.0405598 -5.5300756 1.9994245 0
6.6136756 -4.0081902 -0.42765796 0
3.9046822 -6.6677933 -0.54244483 0
3.9049778 -6.6685753 0.53241086 0
4.2384272 -6.3186407 1.454314 0
-4.4951873 5.7755933 2.5390384 0
3.657865 6.7571354 -0.98595822 0
7.6639409 -0.56471688 -0.98518717 0
4.4029198 -6.1627059 1.6364322 0
6.4310989 -4.1156869 1.3216016 0
6.6037054 -3.99804 -0.6728251 0
3.9234364 -6.6610312 0.53284132 0
7.665411 0.5650931 -0.98553753 0
6.6552005 -3.9684198 0.12356305 0
6.5014362 -4.0649734 1.1239748 0
4.2364569 -6.3438787 1.3668442 0
4.2588177 -6.3280096 1.3711934 0
4.4269562 -6.149498 1.6277966 0
3.7371416 -6.7186117 -0.9833864 0
-4.5028715 6.0738668 1.7052827 0
4.0428243 -6.5436964 0.95481968 0
5.7630296 -4.8144479 1.9197729 0
4.9085207 -5.6731973 1.949162 0
5.9902611 -4.5671244 1.8270154 0
4.0869913 -6.4959979 1.0884881 0
6.5978856 -3.9921148 0.7887553 0
3.7375774 6.7198725 -0.98369431 0
6.0239701 -4.543262 1.7793889 0
6.2701917 -4.2986708 1.5202069 0
6.1611643 -4.408865 1.6459892 0
4.5466757 -6.0267305 1.764565 0
-4.4917884 6.2158513 1.13972 0
4.0812707 -6.4982944 1.1086864 0
6.653512 -3.9673822 0.32510412 0
4.0431147 -6.5444021 -0.97073603 0
3.911777 -6.6865625 -0.32729977 0
4.1068459 -6.47329 1.1633532 0
3.9774065 -6.6137438 -0.75776589 0
6.3173504 -4.2333226 1.520134 0
-4.4448261 -6.3297968 0.56882739 0
-1.1606202 -7.6045685 -0.98561966 0
4.1653681 -6.3965425 1.3754957 0
4.3638644 -6.2181458 1.5694113 0
3.9940391 -6.5967388 0.83842063 0
6.6581297 -3.9702199 -0.2825892 0
-4.4389515 -6.2696915 1.0770102 0
6.4472318 -4.1212506 1.2749882 0
4.2941332 -6.2674832 1.5720787 0
6.6632543 -3.9733691 -0.079509199 0
4.850018 -5.7325144 1.9537957 0
6.1496596 -4.4089351 1.7189589 0
3.9211447 -6.6575418 0.71863699 0
3.8366928 -6.7370234 -0.32991314 0
-1.162442 7.6087432 -0.98650503 0
5.3733478 -5.2009468 2.0745983 0
5.6771164 -4.8964858 2.0065203 0
5.448112 -5.1272101 2.0688787 0
6.5772691 -4.0166931 0.92653561 0
3.8396997 -6.7453365 0.1027205 0
5.6621265 -4.8977766 2.0508671 0
5.5210409 -5.0518494 2.0629544 0
6.307096 -4.2617226 1.5228963 0
3.9722052 -6.6005573 0.95712614 0
4.6770372 -5.905808 1.875211 0
-4.4309654 -6.3177471 0.85446894 0
5.7859221 5.0825129 -0.98584151 0
3.8383946 -6.7417283 0.31819463 0
-4.4307504 -6.3175602 -0.87006128 0
6.4882588 -4.0563464 1.3239362 0
6.1071568 -4.4776678 1.7211711 0
6.2011395 -4.3473682 1.7196631 0
