# .PCD v0.7 - Point Cloud Data file format
VERSION 0.7
FIELDS x y z intensity
SIZE 4 4 4 4
TYPE F F F F
COUNT 1 1 1 1
WIDTH 1429
HEIGHT 1
VIEWPOINT 0 0 0 1 0 0 0
POINTS 1429
DATA ascii
4.8646593 2.4780312 -0.69363332 0
4.8540134 2.4315839 0.90164882 0
4.8577099 2.335268 1.1143281 0
4.8619862 2.4864664 0.6877898 0
4.8120222 -2.6165097 0.54158366 0
4.8660007 2.5401366 -0.40827036 0
4.8137379 -2.6654732 0.14556247 0
4.3311839 3.3913407 -0.20426255 0
4.3327999 3.3931859 0.13950656 0
4.8133726 -2.6652339 -0.18627986 0
4.8399882 2.3745375 1.1150515 0
4.8069654 -2.6610391 0.36422676 0
4.8546524 2.5333848 0.58062327 0
4.8133373 -2.6183014 -0.55078781 0
4.8615074 2.5769613 0.23250559 0
4.8649263 2.5814807 -0.077711314 0
4.3362389 3.3971131 0.025125235 0
4.8605337 2.5890181 0.14563809 0
4.8151398 -2.6132786 0.58133769 0
4.8573265 2.5714347 -0.38965201 0
4.86658 2.5404813 0.47271681 0
4.2780743 3.4005857 0.70473838 0
4.3338833 3.3944237 0.25298625 0
4.8637705 2.591007 -0.075141996 0
4.8597555 2.5885396 0.2550731 0
4.8073301 -2.6083238 0.68978989 0
4.0512347 3.3916953 1.5750842 0
4.8022604 -2.6579592 -0.52582246 0
4.3337708 3.394295 -0.32183361 0
4.8605118 2.5756452 0.38686562 0
4.8174429 -2.6678989 -0.29994649 0
4.8502617 2.5827055 0.47313005 0
4.8101349 -2.4566128 1.1187627 0
4.8004637 -2.710597 -0.18855575 0
4.3332081 3.3936522 0.36639589 0
4.8597803 2.4717698 0.84233654 0
4.8611259 2.2784834 1.2765889 0
4.803987 -2.7143683 -0.083928019 0
4.2818718 3.4038131 0.73216546 0
4.8639278 2.4875846 0.79776716 0
4.8656883 2.5921855 -0.29998112 0
-4.2868438 3.4793196 -0.054867089 0
4.8247643 -2.6726916 0.25480193 0
4.344697 3.4067726 -0.091258377 0
4.8571892 2.5712531 0.54109645 0
4.8038559 -2.4000018 1.2901952 0
4.8549919 2.4321287 1.0130243 0
4.858583 2.3710823 1.1374209 0
4.8593392 2.5361733 0.69059253 0
4.8493767 2.5821617 0.5824365 0
4.8127651 -2.5596631 0.90730685 0
-4.2891889 3.4802349 0.18823245 0
4.8427811 2.6308146 -0.41466439 0
4.8069782 -2.6081007 0.79992628 0
4.8603077 2.5753751 -0.54955345 0
4.8122969 -2.313405 1.4308802 0
4.8161898 -2.6221859 0.69741875 0
4.8179855 -2.5194302 0.99872404 0
4.2743025 3.3880332 0.90045351 0
4.8071709 -2.7188377 -0.24340475 0
4.8188992 -2.5121121 1.0150169 0
4.8153429 -2.6210332 -0.71309566 0
4.2686167 3.389468 0.93224818 0
4.8097115 -2.7168419 0.254594 0
4.8700237 2.5948496 0.3645373 0
4.3369379 3.397912 0.4802227 0
4.8122263 -2.7259328 0.07316336 0
4.8208733 -2.6701446 0.47428453 0
4.8248339 -2.6727371 -0.41642493 0
4.8156338 -2.7208416 -0.07881102 0
4.2273097 3.4114387 1.046869 0
4.8689709 2.594203 -0.41531634 0
-4.2912755 3.4810493 -0.29931837 0
4.3605461 3.4068015 0.054682612 0
4.8058329 -2.7169595 0.38828918 0
4.8815441 2.6019294 -0.19002637 0
4.8580923 2.6405284 0.25461707 0
4.8177791 -2.7222903 0.14373732 0
4.8123183 -2.7260625 0.23091576 0
4.2845287 3.4081731 0.82085258 0
4.3594799 3.4046586 0.22480506 0
4.8062811 -2.7175882 -0.40352762 0
4.8030767 -2.7123616 0.47473297 0
4.8615489 2.6427214 -0.1907621 0
4.8135905 -2.7194617 -0.30487275 0
4.3340044 3.3945615 0.59397805 0
4.8647599 2.591615 -0.53044075 0
4.8172884 -2.6677973 0.58407968 0
4.8086567 -2.6119266 0.85227489 0
4.8085761 -2.7160754 -0.41883963 0
4.8659639 2.6455224 0.032796472 0
4.1325393 3.4081647 1.4109628 0
4.856606 2.6395855 0.36475223 0
4.3455648 3.407764 -0.44451445 0
4.8662767 2.645721 0.1438088 0
4.8665123 2.4890728 0.90926945 0
4.8607988 2.5370419 0.80129659 0
4.8244667 -2.7268066 0.031938672 0
-4.2907977 3.4808629 0.43119773 0
4.33951 3.4008491 -0.56319016 0
4.8023348 -2.7120497 -0.5643003 0
4.3588572 3.4034064 0.39457056 0
4.351655 3.3889267 0.56367117 0
4.804214 -2.7680731 -0.080934584 0
4.8019266 -2.7664802 -0.19375283 0
4.8605471 2.5756912 -0.71093881 0
4.8196158 -2.7235305 0.36501464 0
4.8169594 -2.5109582 1.127697 0
4.8559694 2.4830024 1.0190082 0
4.8118477 -2.5113158 1.1533401 0
4.874918 2.6512029 -0.080217838 0
4.864624 2.4779863 0.99801612 0
4.3929138 3.3904617 -0.093693197 0
-4.2893176 3.4802852 -0.54475898 0
4.8592052 2.4344747 1.1272812 0
4.2055602 3.4034302 1.2419369 0
4.8068438 -2.7149055 0.58560091 0
4.3947563 3.3925059 0.022026271 0
4.8112812 -2.7179022 -0.53672898 0
4.8558002 2.6930103 -0.08102563 0
4.8711038 2.6487832 -0.30670112 0
4.8630342 2.5905545 0.69443589 0
4.820241 -2.6697304 0.69520712 0
4.2262354 3.4101388 1.1648178 0
4.8598361 2.2769225 1.4313437 0
4.3372192 3.3982327 0.70926464 0
4.3890834 3.3862119 0.36694658 0
4.8135304 -2.7745607 0.030364782 0
4.8095546 -2.6627343 0.80495715 0
4.8039351 -2.767879 0.36522675 0
4.8010092 -2.7658415 -0.42389715 0
4.8686275 2.5863733 0.69764805 0
4.8594475 2.6953981 0.030911744 0
4.8122129 -2.7259142 0.54623544 0
4.8602486 2.5367143 0.91289681 0
4.3966169 3.3945704 -0.21152812 0
4.3984795 3.396637 0.13708518 0
4.8196011 -2.6161091 0.91424537 0
4.805872 -2.6081336 1.0088425 0
4.3967915 3.3947639 0.25225252 0
4.8584151 2.6407332 0.58582145 0
4.8582087 2.6945872 0.25410417 0
4.8173456 -2.7772176 0.14212795 0
4.3509617 3.3875325 0.73353899 0
4.855031 2.6925068 0.36522958 0
4.8683081 2.6931705 0.072832122 0
4.8655157 2.6893671 0.23089057 0
4.277297 3.399672 1.052202 0
4.8626919 2.6975224 -0.19561648 0
4.8283844 -2.5692613 1.0237182 0
4.8157301 -2.7760928 0.2539224 0
4.8069487 -2.7149761 0.69692421 0
4.8595171 2.6811967 -0.4037987 0
4.8655977 2.6894784 -0.24468803 0
-4.030035 3.4823101 1.6157216 0
-4.2904911 3.4807432 0.67447233 0
4.8722486 2.6495094 0.47596186 0
4.2781143 3.3959792 1.0731311 0
4.8676853 2.6466143 -0.53891128 0
4.8070602 -2.7186823 0.70379144 0
4.3913898 3.3887706 0.48175985 0
4.8706493 2.6963592 -0.086069345 0
4.8073816 -2.7702787 0.47663575 0
4.8061275 -2.7173729 -0.72987115 0
4.8029051 -2.7671616 -0.54234314 0
4.8685398 2.7013509 0.14212967 0
-4.2794447 3.4764316 -0.79082036 0
4.4006505 3.3990459 -0.33115828 0
4.2661452 3.3865628 1.1668477 0
4.8126874 -2.6117227 1.0258366 0
4.8505373 2.5828753 0.91592455 0
4.8026586 -2.8230064 -0.084672689 0
4.8646545 2.6988072 -0.31091517 0
4.8681564 2.3830116 1.2963269 0
4.1268573 3.3953946 1.5840975 0
4.8054209 -2.8249891 0.028396994 0
4.1975627 3.3861268 1.4125299 0
4.818799 -2.5633712 1.1353862 0
4.8524275 2.7456887 0.028986901 0
4.8615522 2.6967757 -0.42655706 0
4.7997417 -2.8209124 -0.31393367 0
4.3993492 3.3976026 -0.4510076 0
4.8138199 -2.4127891 1.4520217 0
4.8683434 2.6932182 0.38859284 0
4.8598967 2.6956923 0.47672892 0
4.8709641 2.5954278 0.80745959 0
4.3418207 3.4034877 0.82621986 0
4.8691616 2.5870793 0.85426819 0
4.3918295 3.3892589 0.5969913 0
4.8146253 -2.666054 0.91869181 0
4.825839 -2.7831318 -0.31383598 0
4.8606324 2.6827161 -0.56632125 0
4.8651867 2.6450293 0.69820285 0
4.8625679 2.6853521 0.54605961 0
4.44561 3.3781316 0.019952118 0
4.4329085 3.3951876 0.053512335 0
4.8112736 -2.7729893 0.58879471 0
4.8098817 -2.8361619 -0.092946887 0
4.8125367 -2.5122271 1.3119668 0
4.8682947 2.4826968 1.1556098 0
4.8688335 2.4904089 1.1369115 0
4.8595905 2.7505262 0.14109322 0
4.8110323 -2.8290172 0.25345603 0
4.8128958 -2.8303549 -0.20101213 0
4.3353653 3.3961163 0.94170415 0
4.861793 2.7520137 -0.085649967 0
4.8688087 2.5418074 1.0284247 0
4.8096151 -2.8357763 0.22937518 0
4.8575621 2.5717454 1.0091138 0
4.8506708 2.5310156 1.1382077 0
4.8035035 -2.8236129 -0.43206745 0
4.860806 2.7513471 -0.2000882 0
4.813427 -2.8412914 0.068178207 0
4.8652267 2.6991818 -0.54598832 0
4.8063745 -2.7695777 0.7006579 0
4.3909559 3.3882892 0.7127341 0
4.4021502 3.4007101 -0.57430995 0
4.8175964 -2.7221668 0.81123006 0
4.4352694 3.3997686 0.22428355 0
4.8122678 -2.8396146 -0.2559036 0
4.8624439 2.6432891 0.81032997 0
4.8095589 -2.7221892 0.86330998 0
4.8077765 -2.8331151 0.38996837 0
4.8105836 -2.663408 1.0318928 0
-4.2848969 3.4785595 0.91811931 0
4.3547077 3.3950641 0.90556282 0
4.821362 -2.8364322 0.14016443 0
4.8623738 2.7524059 -0.316315 0
4.8533401 2.7463052 0.47791153 0
4.8098955 -2.6136136 1.1690574 0
4.8663445 2.7550871 0.25340116 0
4.8151412 -2.8319666 0.36603227 0
4.8509159 2.7446685 -0.54954398 0
4.8002267 -2.8783867 -0.20387089 0
4.8615503 2.6839664 -0.73112071 0
4.8613882 2.374578 1.4518969 0
4.2781696 3.396095 1.2466602 0
4.8128052 -2.8302898 0.47868356 0
4.8573179 2.4686105 1.3102759 0
4.8619652 2.6970463 0.70133042 0
4.8216295 -2.6173961 1.1436968 0
4.8057899 -2.8302407 0.5505178 0
4.8629875 2.5905259 1.0330949 0
4.4601622 3.3938205 0.13501272 0
4.8751974 2.7057092 0.59013528 0
4.4376903 3.4044654 0.39520872 0
4.8085117 -2.8845158 0.025111198 0
4.8561692 2.8042526 0.025819033 0
4.8017278 -2.7111971 1.0216849 0
4.4623652 3.3961952 -0.099967122 0
4.8705416 2.7579217 0.36608726 0
4.8084249 -2.8271456 0.59132659 0
4.3361521 3.3970144 1.0606158 0
4.4598565 3.3934908 0.25152606 0
4.8128099 -2.8302934 -0.55427641 0
4.4615393 3.3953049 -0.21855277 0
4.8181639 -2.7225502 0.92534542 0
4.8100481 -2.7721357 0.81472033 0
4.8176165 -2.8473544 -0.42138356 0
4.8120537 -2.887136 -0.090242565 0
4.4329829 3.3953321 0.56589615 0
4.808651 -2.8846185 0.25291803 0
4.862071 2.795898 0.22941905 0
4.8717952 2.6979194 0.70563871 0
4.8650827 2.8001254 -0.093140066 0
4.8045049 -2.8815517 0.36639199 0
4.8593955 2.7503946 0.59114873 0
4.8657522 2.6453881 0.92486918 0
4.8575673 2.8052263 0.25303254 0
4.8139939 -2.8885713 0.13886721 0
4.8598952 2.8068473 -0.20494092 0
4.8628345 2.8088942 -0.089705467 0
4.8635674 2.7979989 -0.25533885 0
4.8595309 2.681216 0.86282945 0
4.8727536 2.7594156 -0.43671829 0
4.8672981 2.8032355 0.068189144 0
4.8576698 2.7897208 -0.41755509 0
4.8013921 -2.7661078 0.92744541 0
4.8059335 -2.8253572 0.70456767 0
4.8096452 -2.7167971 1.0385375 0
4.8051529 -2.8293192 0.71161926 0
4.8145475 -2.8429139 -0.58648694 0
4.4638886 3.3978379 0.36797744 0
4.4581566 3.3916578 0.48423272 0
4.8460903 2.7972341 -0.55644369 0
4.8615155 2.8079758 -0.32228667 0
4.4014215 3.3999014 0.83206481 0
4.8655033 2.6993625 0.8155486 0
4.1980824 3.3872516 1.5899935 0
4.8611059 2.5764308 1.1692108 0
4.3540282 3.393698 1.0780842 0
4.4679012 3.4021642 -0.3404268 0
4.3313136 3.391489 1.1792564 0
4.85606 2.787461 0.55019581 0
4.8133364 -2.5132842 1.4733015 0
4.4300556 3.389652 0.73683059 0
4.8576584 2.80529 -0.43983424 0
4.8168163 -2.8906589 -0.3246007 0
4.8190603 -2.6689577 1.1506028 0
4.8062468 -2.8309021 -0.75134277 0
4.4637585 3.3976972 -0.46105802 0
4.872715 2.8157747 0.1385919 0
4.8125429 -2.8874977 -0.44244057 0
-4.0187688 3.477726 1.8580719 0
4.8615608 2.6427288 1.039199 0
4.7986412 -2.9355271 0.25252417 0
4.8680782 2.8043303 0.39016169 0
4.8657513 2.5922246 1.1501527 0
4.8029242 -2.9387918 0.13775074 0
4.8102026 -2.6140316 1.3304904 0
4.8627625 2.8088439 0.48017251 0
4.3981419 3.3962626 0.94982994 0
4.805068 -2.713706 1.15412 0
4.8011761 -2.9374592 -0.32763207 0
4.808176 -2.9427946 -0.093965381 0
4.8629613 2.6976986 0.92992181 0
-4.0617366 3.4726713 1.7987925 0
4.8566303 2.8617487 0.13788924 0
4.808589 -2.8845725 0.59429717 0
4.46245 3.3962872 0.60161442 0
4.8109627 -2.9449182 0.021766543 0
4.8039255 -2.9455943 -0.26608539 0
4.4651232 3.3991687 -0.5853914 0
-4.2868347 3.4793162 1.1638318 0
4.8141356 -2.8886762 -0.56377691 0
4.8751464 2.8174677 0.36674142 0
4.8720627 2.758949 0.70657158 0
4.8596101 2.6813238 1.0232236 0
4.8617582 2.8654301 -0.09360528 0
4.7997856 -2.9363997 -0.44686449 0
4.848701 2.8560572 -0.4449122 0
4.8553162 2.8608053 -0.32723123 0
4.8095121 -2.953932 -0.10144705 0
4.8224506 -2.8948269 0.48108411 0
4.8519106 2.690464 1.0432967 0
4.8102727 -2.9550664 0.063341632 0
4.8644328 2.8673499 0.022041678 0
4.8043389 -2.881429 0.70846426 0
4.8594065 2.4712906 1.4718944 0
4.8133039 -2.946702 -0.21202427 0
4.863235 2.7529874 0.81995243 0
4.80935 -2.9536891 0.22767621 0
4.5129595 3.3965929 0.051498443 0
4.8614864 2.8652346 0.25237194 0
4.5108299 3.3926017 0.22378172 0
4.8594103 2.7921636 0.71168482 0
4.8692336 2.8059521 -0.58671147 0
4.8031387 -2.9444213 -0.43280363 0
4.8659124 2.8110373 0.59461975 0
4.8190355 -2.8347623 0.8216092 0
4.2815285 3.4030969 1.4243336 0
4.8101277 -2.8365178 0.87484145 0
4.4616222 3.3953943 0.71923304 0
4.395299 3.3931086 1.069011 0
4.5240335 3.3916433 -0.10474911 0
4.432373 3.3941486 0.90977061 0
4.8599081 2.8068564 0.7086677 0
4.8650761 2.6449592 1.1574833 0
4.5267248 3.3944626 0.014048278 0
4.8644485 2.8673613 0.36709175 0
4.8032122 -2.9390113 -0.5695349 0
4.8723564 2.8730378 -0.212605 0
4.527483 3.3952568 0.13254009 0
4.8148203 -2.729574 1.1878828 0
4.8029261 -2.9441037 0.55536681 0
4.5122495 3.3952625 0.39567095 0
4.8128295 -2.8303072 0.93646532 0
4.8625116 2.5782881 1.3310906 0
4.8027978 -2.9983902 -0.097619623 0
4.8127737 -2.9587989 0.39183116 0
4.8127136 -2.9462523 0.48229432 0
4.8612556 2.7516508 0.9354527 0
4.820611 -2.9522712 0.36735803 0
4.5282779 3.3960898 -0.22588712 0
4.8040905 -2.6057067 1.4916778 0
4.8228965 -2.7810829 1.0494547 0
4.8051305 -2.7687111 1.1624697 0
4.8670239 2.8028507 -0.75410116 0
4.807107 -3.0017729 0.01899001 0
4.8649349 2.8677104 0.48204654 0
4.5258436 3.3935392 0.36866391 0
4.5270824 3.3948374 -0.34727293 0
4.3586426 3.4029744 1.2547281 0
4.8503184 2.7442648 1.0498683 0
4.5322351 3.4002352 0.25057456 0
4.7996836 -2.9363222 0.71205437 0
4.8609877 2.9101138 -0.26642573 0
4.8645773 2.9153085 -0.1013639 0
4.8087044 -3.003027 -0.21690631 0
4.8561325 2.9030883 -0.43211371 0
4.5236015 3.3911905 0.48656535 0
4.8673754 2.9193575 0.063205078 0
4.8077412 -2.8330646 1.0380325 0
4.4666967 3.4008656 0.83915406 0
4.8586535 2.6948783 1.1632831 0
4.8653646 2.8680186 -0.57161081 0
4.5265412 3.3942704 -0.47041488 0
4.8094931 -2.8279123 1.0531697 0
4.8645182 2.8100665 0.82523316 0
4.3947973 3.3925514 1.190767 0
4.8650246 2.8677747 0.59742212 0
4.8619413 2.6844988 1.1861513 0
4.8167162 -2.9493029 0.59826636 0
4.8128991 -3.0063198 0.25157124 0
4.8620348 2.9116297 0.39163426 0
4.867712 2.9198446 0.22759145 0
4.8099594 -3.0040119 -0.33689767 0
4.8085127 -3.0028765 0.36773145 0
4.8668857 2.9276974 0.13541928 0
4.8677311 2.928323 -0.098746061 0
4.8172607 -3.0097435 0.13488135 0
4.8456373 2.853858 0.8267957 0
4.8677254 2.928319 -0.21716887 0
4.8674355 2.8034282 0.87555736 0
4.5238557 3.3914568 -0.59467119 0
4.4315453 3.3925416 1.0834675 0
4.8067169 -2.9497602 0.72040772 0
4.8726597 2.9319687 0.018130362 0
4.8631201 2.9249117 0.36766464 0
4.7974768 -3.0551403 0.016739696 0
4.8695631 2.929678 0.2515955 0
4.519021 3.4079521 0.56857634 0
4.4623504 3.3961794 0.95824009 0
4.8591366 2.9074359 0.55543548 0
4.8263865 -2.8977382 0.82842463 0
4.5275311 3.3953073 0.60545391 0
4.8116713 -3.0053558 -0.45877552 0
4.8189588 -2.9680283 -0.60707545 0
4.806787 -2.9498651 -0.77411914 0
4.8632526 2.9250102 -0.457003 0
4.2788949 3.3976066 1.6017293 0
4.8018646 -3.0586872 -0.1021432 0
4.8059282 -2.941081 0.82995558 0
4.8133702 -3.0066895 0.48425949 0
4.8570704 2.7888792 1.0367914 0
4.805203 -3.0002782 0.60019827 0
4.8728104 2.93208 -0.33813918 0
4.8692799 2.8708293 0.71414214 0
4.8193111 -2.8925047 0.94460404 0
4.8550062 2.9784849 -0.22032887 0
4.8164377 -2.7318449 1.3533735 0
-4.2885661 3.4799919 1.4117712 0
4.81005 -3.0040829 -0.58165216 0
4.5151529 3.4007037 0.74114501 0
4.856307 2.7483091 1.1706871 0
4.4566441 3.3900273 1.0780429 0
4.8620977 2.5777411 1.4949578 0
4.8601484 2.9227135 0.59990811 0
4.8610811 2.983115 -0.1021328 0
4.5812674 3.3809712 -0.3526634 0
4.8076906 -3.0633969 -0.22273862 0
4.5275736 3.3953514 0.72477853 0
4.8631573 2.9846969 0.016025156 0
4.5902843 3.3907564 0.049833775 0
4.803834 -3.0686586 -0.27869195 0
4.8737793 2.932797 0.48443013 0
4.5917873 3.3916814 -0.11053967 0
4.8652029 2.9862561 0.13364702 0
4.3576813 3.4010417 1.4316245 0
4.869904 2.9230168 -0.60541362 0
4.5207663 3.3882203 0.84356409 0
4.5933928 3.3933158 0.13021027 0
4.8069296 -3.0016336 0.7176646 0
4.8050299 -2.9403963 0.94797391 0
4.8158102 -3.0699608 0.13297436 0
4.8090448 -3.0644917 -0.34408391 0
4.8107395 -3.0792897 -0.1106607 0
4.8092651 -2.9535635 0.88666326 0
4.5086389 3.3884966 0.91350561 0
4.803484 -3.0599964 -0.46515745 0
4.8633232 2.8092346 1.060828 0
4.8720045 2.9314842 -0.58306432 0
4.8121033 -2.839376 1.2050511 0
4.8805895 2.8212578 0.9462046 0
4.8672848 2.9878426 0.25101769 0
4.816596 -3.070596 0.25082171 0
4.8224878 -2.8372402 1.1768684 0
4.8013315 -2.7106411 1.5140277 0
4.5983357 3.3983481 0.0094457269 0
4.8146567 -3.0853202 0.057517111 0
4.8128128 -3.067538 0.36849344 0
4.8183355 -2.891783 1.0635042 0
4.812705 -3.0823157 0.22576989 0
4.8621368 2.911777 -0.77403891 0
4.8663082 2.9870985 -0.34355015 0
4.8070221 -3.0628562 0.48583341 0
4.8653717 2.6891713 1.3520114 0
4.5922933 3.3921962 0.36945391 0
4.5975618 3.3975596 -0.23368806 0
4.8662591 2.9870608 0.36835983 0
4.5974436 3.3974392 0.24981782 0
4.8005104 -3.0635431 0.56052196 0
4.5961876 3.4014471 0.22293517 0
4.8619499 2.8655677 0.94821864 0
4.5917215 3.3933594 0.39630359 0
4.7983689 -3.1182361 0.13207647 0
4.8664103 2.927346 0.71794438 0
4.7995028 -2.9389951 1.0511692 0
4.8086529 -3.0760777 -0.45069021 0
4.8635855 2.9850235 0.48564643 0
4.8124266 -3.0818865 0.39362121 0
4.8607445 3.0303833 0.058590114 0
4.8559656 2.9792159 0.60258377 0
4.8559456 2.8040972 1.1790617 0
4.8728929 2.9273415 0.72204363 0
4.8015022 -3.1208441 -0.22775155 0
4.8044147 -3.1232681 -0.10741448 0
4.5940561 3.393991 -0.4812116 0
4.8045731 -2.940048 1.0676541 0
4.8695998 2.9896069 -0.46712965 0
4.8026247 -3.1217782 0.25044364 0
4.8604412 2.7936108 1.203166 0
4.8112707 -2.8865566 1.182222 0
4.8609428 2.9100494 0.8858161 0
4.4623194 3.3961461 1.2036867 0
4.8630886 2.9248884 0.83565527 0
4.5966401 3.3966217 0.4894326 0
4.4394016 3.4077861 1.2626543 0
4.8114519 -3.0664377 0.60423255 0
4.7941957 -3.1147625 0.487039 0
4.8617959 3.044704 0.13191411 0
4.8624372 3.0452073 -0.10692915 0
4.802485 -3.1216621 -0.35014617 0
4.8636088 3.0461271 0.012705564 0
4.8655005 3.0374811 0.22591558 0
4.8075433 -3.0743697 -0.62310731 0
4.5914783 3.3913667 0.60909814 0
4.8677993 3.0409117 -0.11060742 0
4.8594942 2.8638046 1.0673795 0
4.5932117 3.3960578 0.56988358 0
4.8124309 -3.1299405 0.011577606 0
4.8665619 2.9872918 -0.59087712 0
-4.5657706 3.4773216 0.18374072 0
4.8540049 2.9181688 0.95299232 0
4.8054819 -3.0616117 0.72211438 0
4.5088921 3.3889716 1.0886569 0
4.8197398 -3.0116897 0.83852839 0
4.805954 -3.0008676 0.9553079 0
4.8651953 3.0473721 0.25041077 0
-4.5741615 3.4804592 -0.068954647 0
4.8624592 3.0329425 -0.44968092 0
4.8096457 -2.8358204 1.3721231 0
4.6522903 3.3826337 0.0070876777 0
-4.2740054 3.4743087 1.6591995 0
4.8644848 2.9857085 0.72205818 0
4.6003723 3.4004214 -0.61065948 0
4.8246651 -3.0771191 -0.59690946 0
4.5361567 3.4043438 0.96922749 0
4.8672581 3.0489919 -0.35105723 0
4.8724976 3.0479228 -0.28120995 0
4.8664021 3.0483198 0.36901605 0
4.8600149 3.0292952 0.56074125 0
4.8601837 2.6821051 1.5170739 0
4.8620567 3.0449088 -0.47356397 0
4.8611383 3.0441875 0.48744211 0
4.5918317 3.3935587 0.74379635 0
4.8045883 -3.0608892 0.8415069 0
4.8173575 -3.1340411 0.36929098 0
4.5945501 3.3944941 0.73042375 0
4.8714962 3.0464287 0.39367244 0
4.8061075 -3.0721591 -0.79759967 0
4.8119888 -3.1295729 -0.47686327 0
4.8030362 -3.1221211 -0.60007632 0
4.4302988 3.3901236 1.4369497 0
4.807641 -2.9423862 1.1904268 0
4.6578965 3.3881798 0.12801479 0
4.8605185 3.0300469 -0.6215871 0
4.8126001 -3.0821545 0.73035955 0
4.877996 3.057421 -0.23085856 0
4.3606529 3.4070156 1.6136107 0
4.8030186 -3.1860991 -0.11226127 0
4.8044195 -2.9996629 1.0760469 0
4.8007135 -3.1924536 0.053180486 0
4.8603497 2.8644185 1.1893566 0
4.5306687 3.3985944 1.091195 0
4.7971296 -3.1810534 0.3695507 0
4.8029766 -3.1860631 -0.234595 0
4.8072867 -3.1897564 0.0085448027 0
4.8650651 2.986151 0.84173197 0
4.8621054 3.1073861 0.0094689429 0
-4.5878611 3.4855814 -0.32369924 0
4.6703324 3.3878262 -0.1273219 0
4.5916576 3.3915491 0.85175365 0
4.8077736 -2.9513369 1.2225699 0
4.804122 -3.1978695 -0.11908925 0
4.6636295 3.3938513 0.24904671 0
4.8061752 -3.0722635 0.89861977 0
4.7954578 -3.1796205 0.48928273 0
4.6649351 3.395143 -0.24094909 0
4.6602049 3.3904631 0.37026921 0
4.5879059 3.3864491 0.9179284 0
4.8113222 -3.1932142 0.12902242 0
4.8084316 -3.1907375 0.24958952 0
4.8575335 3.1036899 0.36949718 0
4.8698397 2.9229233 1.0553324 0
4.805953 -3.2007782 0.22409129 0
4.5081539 3.3875883 1.2653849 0
4.8709154 3.0518625 -0.60238576 0
4.8064346 -3.0623817 0.9628315 0
4.8708525 3.0518134 0.60750014 0
4.6715631 3.389981 -0.30393606 0
-4.589623 3.4862401 0.43610379 0
4.6576147 3.3879006 0.49136442 0
4.6745253 3.3951695 0.22236115 0
4.6729813 3.4031036 -0.11857009 0
4.8705931 3.1142471 -0.11299449 0
4.8704948 3.1141679 0.12928914 0
4.6773596 3.4001329 0.047170848 0
4.8031397 -3.1963089 0.39521655 0
4.8681726 2.8044631 1.3739582 0
4.8036633 -3.1866515 -0.48389733 0
4.8680124 3.041229 0.73004085 0
4.8086224 -3.2050197 -0.29311478 0
4.8118029 -3.1936264 -0.36055583 0
4.6721954 3.3910887 0.39695683 0
4.6626229 3.3928554 -0.49219954 0
4.8663397 3.0482707 0.72693837 0
4.8728709 3.1160889 -0.23601353 0
4.5279236 3.3957183 1.2156497 0
4.815196 -3.1322422 0.7285369 0
4.8662643 2.9870651 0.96293944 0
-4.2575464 3.4740102 1.8301765 0
-4.588975 3.4859979 -0.5793801 0
4.8636942 3.1086705 -0.48303205 0
4.7965016 -3.2459335 -0.11647761 0
4.6737847 3.403898 -0.36851424 0
4.8063664 -3.2014353 -0.46722269 0
4.8057976 -3.1244195 0.84803677 0
4.8790231 2.9366763 1.0809318 0
4.878314 3.1204889 0.24943641 0
4.67413 3.3944767 -0.48267227 0
4.8689518 3.0426309 -0.79989982 0
4.5957313 3.3956964 0.97607559 0
4.8029447 -3.0595603 1.0843973 0
4.8122616 -2.8396058 1.5439975 0
4.8313293 -3.1456704 0.60997361 0
4.8750377 3.1178403 -0.36057889 0
4.8114491 -3.0051816 1.2015289 0
4.8008642 -3.2497814 0.12749098 0
4.8593168 3.1051319 0.60961735 0
4.8638783 3.1610954 0.052781641 0
4.6643314 3.3945458 0.61379421 0
4.8642707 2.9257631 1.1998866 0
4.8649316 3.0471654 0.847628 0
-4.5881352 3.4856839 0.68913651 0
4.8721519 3.1155076 0.49022257 0
4.8019767 -3.2507625 0.24898714 0
4.8104734 -3.1924872 -0.61376446 0
4.8074017 -3.255547 0.0047607124 0
4.8620472 3.1712387 -0.1166214 0
4.8619275 3.1711388 0.12774263 0
4.8110218 -3.1929572 0.61128557 0
4.8658648 3.0380242 0.89914691 0
4.808115 -3.0752499 1.0699339 0
4.8679562 2.9201984 1.2241478 0
4.8093824 -3.2062266 0.56707245 0
4.8048434 -3.1990154 -0.64323729 0
4.6595449 3.3898103 0.73564935 0
4.8680992 3.1675928 -0.11987302 0
4.6766872 3.3989556 0.57215816 0
4.671946 3.3906524 -0.66189784 0
4.8675756 3.1667869 0.22401167 0
4.8656435 2.9865916 1.0853813 0
4.8029118 -3.2515874 0.37043467 0
4.8084764 -2.9523864 1.3942199 0
4.6719913 3.4021237 -0.62452805 0
4.8675218 3.1667039 -0.29304719 0
4.8609648 3.1703374 0.37028131 0
4.8616562 3.170913 -0.3651107 0
4.8620796 2.7959101 1.5420808 0
4.8714066 3.1790285 0.0048644543 0
4.8739471 3.1169586 -0.61388958 0
4.8132787 -3.2607307 -0.24358571 0
4.8048 -3.1989467 0.73860061 0
4.8101444 -3.1280372 0.97148323 0
4.8644915 3.1093147 0.73143119 0
4.7297039 3.3883879 0.12531297 0
4.8672571 3.1662967 0.39537814 0
4.595643 3.4004614 1.0968119 0
4.8586092 3.1683772 0.49143112 0
4.5974674 3.3974636 1.1017354 0
4.8037796 -3.2523525 0.49211276 0
4.8651772 3.047358 0.96994293 0
4.65797 3.3882523 0.85879725 0
4.4378123 3.4047019 1.6223979 0
4.6739058 3.3940847 0.74735248 0
4.5103474 3.3916981 1.4458556 0
4.7354193 3.3938825 0.0011937618 0
4.8081951 -3.0638046 1.2106346 0
4.8157949 -3.2629502 -0.36998254 0
4.7365694 3.3949883 -0.12346402 0
4.8177052 -3.1986835 0.73403603 0
4.8610544 2.9830942 1.2084217 0
4.8700786 3.1706398 -0.46854979 0
4.8777008 3.184268 0.24873862 0
4.7348361 3.393322 -0.24867386 0
-4.5830264 3.4837737 0.94264776 0
4.8802643 3.1864011 -0.24398202 0
4.8042278 -3.1231129 1.093932 0
4.7997479 -3.3159719 0.0017344952 0
4.8673034 3.1663678 0.56694788 0
4.8087816 -3.1910377 0.85520589 0
4.8132849 -3.2607365 -0.49679577 0
4.8589687 3.0424848 1.0920577 0
4.8054686 -3.0711758 1.241767 0
4.8615632 3.1708357 -0.62048006 0
4.7537193 3.3884618 0.045690596 0
4.8064337 -3.2546937 -0.62388366 0
4.8677349 3.0408156 1.070582 0
4.7362909 3.3947206 0.37127191 0
-4.2826719 3.4776912 1.9146671 0
4.800436 -3.3165967 -0.24797028 0
4.8646412 2.915401 1.3944559 0
4.8632531 3.2377121 0.0020967126 0
4.7555552 3.3915718 -0.13134882 0
4.8004088 -2.9403472 1.5645273 0
4.5945001 3.394443 1.227814 0
4.8019309 -3.3290346 0.047061741 0
4.7441597 3.4022853 0.24793759 0
4.7548432 3.3903658 0.22172979 0
4.8686552 3.1684492 -0.64491397 0
4.8608627 3.2356641 0.24838431 0
4.7983799 -3.3232095 -0.30478936 0
4.8712873 3.1148086 0.85509104 0
4.7333899 3.3919313 -0.50374722 0
4.7411513 3.3993933 -0.37727767 0
4.8013802 -3.3281314 0.22224352 0
4.8778315 3.1843762 -0.49664074 0
4.6721611 3.3910291 0.92348427 0
4.5899639 3.3901761 1.2734143 0
4.8084831 -3.3239014 -0.12395781 0
4.8035989 -3.3317711 -0.12902424 0
4.8633013 3.2377536 -0.24717736 0
4.751914 3.3854024 0.39756963 0
4.662138 3.3923755 0.98472965 0
4.8157845 -3.2629409 0.61561722 0
4.8076458 -3.3231411 0.24807093 0
4.7976217 -3.1176143 1.2175888 0
4.8110733 -3.3262529 0.12441975 0
4.805994 -3.2543058 0.73743176 0
4.8551106 3.2307353 -0.49953896 0
4.8708162 3.2441928 -0.12322378 0
4.8057117 -3.3213856 -0.37609631 0
4.8095794 -3.191721 0.97938663 0
4.7475863 3.3780696 0.57307702 0
4.8648553 3.1735759 0.73646998 0
4.8112564 -3.2092044 0.91312188 0
4.7327347 3.3913014 0.61788046 0
4.8772745 3.183913 0.61520356 0
4.8653526 3.2395115 0.37111893 0
4.8736067 3.2465837 0.12472381 0
4.7603006 3.3996131 -0.31042933 0
4.8663268 3.1107986 0.97780162 0
4.8033609 -3.3313801 0.39722291 0
4.7997351 -3.3254325 -0.48336542 0
4.7451773 3.403264 0.49521196 0
4.8115358 -3.3266723 0.3714208 0
4.8739672 3.1766264 0.74021548 0
4.8092499 -3.3245974 0.49485117 0
4.8097 -3.3250055 -0.50607324 0
4.8007946 -3.3271711 0.5722239 0
4.8035703 -3.1865721 1.1032691 0
4.7420349 3.4002426 -0.6376127 0
-4.5735097 3.4802153 1.1967528 0
4.760725 3.4003327 -0.4903605 0
4.802331 -3.066345 1.415399 0
4.8692493 3.2428503 0.4943755 0
4.6617403 3.3919826 1.1113131 0
4.87708 3.2495599 -0.37726533 0
4.7353134 3.3937809 0.74265015 0
4.8635445 3.2922785 -0.12884885 0
4.8056111 -3.2002351 1.0863981 0
4.8679113 3.1761198 0.86083657 0
4.8711681 3.0520613 1.2218721 0
4.8016219 -3.3866661 0.12263928 0
4.8602824 3.3021882 -0.12691978 0
4.8705835 3.0450661 1.2445015 0
4.7550673 3.3907454 -0.67002565 0
4.8026137 -3.3875926 -0.12872541 0
4.8077226 -3.3232107 -0.63638353 0
4.8616905 3.3034298 0.12324047 0
4.8145075 -3.2618144 0.86324519 0
4.7275829 3.386349 0.86648029 0
4.8003058 3.3854365 -0.25534129 0
4.8674612 3.2985008 0.046613544 0
4.8039756 3.388865 0.12247048 0
4.5139265 3.3984048 1.6303767 0
4.8570595 3.2324052 0.74039948 0
4.8107014 -3.3259146 0.61895972 0
4.8671455 3.2410479 -0.63376194 0
4.6747565 3.3955743 1.1022725 0
4.8063068 -3.3910427 -0.003136903 0
4.8007917 -3.3169193 0.74208236 0
4.8023167 -3.3873153 -0.25577712 0
4.8033571 -3.3313744 -0.66495723 0
4.8670902 3.308193 -0.0022023916 0
4.8717833 3.1732638 0.91340774 0
4.871944 3.2451591 0.61830461 0
4.8641052 3.3055601 -0.25431967 0
4.8097239 3.3942349 -0.0035459995 0
4.8692999 3.3014224 0.22201553 0
4.8066912 -3.3914015 0.24727602 0
4.8018832 3.3869102 0.37200916 0
4.8097563 3.3942654 -0.12992555 0
4.5901942 3.3905928 1.4544268 0
4.8753271 3.1180742 1.1058854 0
4.7573309 3.3945811 0.75105453 0
4.8057604 3.390532 -0.38520843 0
4.8704829 2.9238544 1.5714378 0
4.8077536 -3.3923945 -0.38573879 0
4.866869 3.3079972 -0.38322008 0
4.8090491 -3.3936048 0.37218034 0
4.7926989 3.3783298 -0.64342731 0
4.8707786 3.3037717 0.39743295 0
4.7937546 -3.3793163 -0.64381456 0
4.8748827 3.3102925 -0.30838782 0
4.6649213 3.3951294 1.2412634 0
4.8166847 -3.2637348 0.98961318 0
4.8710737 3.3117063 0.37202108 0
4.8172593 3.4012749 0.24702358 0
4.7299528 3.3886271 0.99365813 0
4.8048911 -3.3897202 -0.51537788 0
4.8051295 3.3899429 -0.51545316 0
4.8102779 -3.1923199 1.2330956 0
4.8649216 3.1096628 1.23018 0
4.8093452 -3.3411968 0.74939007 0
4.878768 3.3184927 0.24719986 0
4.8376551 3.3876359 0.043464899 0
4.8762684 3.1830754 0.98820621 0
4.8088317 3.3934016 0.49727783 0
4.8034811 -3.2520893 1.1131778 0
4.8067031 -3.3222854 0.86871082 0
4.8042593 -3.198087 1.262424 0
4.8644943 3.2387757 0.86682618 0
4.8553619 3.3664565 0.12128502 0
4.8689108 3.3008044 0.57292914 0
4.8706207 3.3113065 0.49678361 0
4.8697858 3.31057 -0.51418871 0
4.7965126 -3.4526174 0.12045603 0
4.8639784 3.2929676 -0.66481602 0
4.7998257 -3.0624883 1.5917591 0
4.8044238 -3.3892837 0.62231147 0
4.8614521 3.3032196 -0.6435405 0
4.6718197 3.3904312 1.2812483 0
4.8138499 -3.3980896 0.49763772 0
4.7561359 3.3925569 0.92882329 0
4.8720713 3.1737072 1.0885291 0
4.8702984 3.044641 1.4198586 0
4.877336 3.3141906 -0.48832434 0
4.8009801 -3.4569123 -0.13443473 0
4.7981148 -3.46369 0.041112691 0
4.8631349 3.3735127 -0.0057552755 0
4.8687444 3.1768126 1.1133113 0
4.8452091 3.4000285 -0.13601813 0
4.8649926 3.3751991 -0.13332874 0
4.8020411 -3.4579325 -0.26343936 0
4.8463116 3.4018362 0.2207368 0
4.8643603 3.374625 0.2467339 0
4.7978401 -3.4632242 -0.31949842 0
4.805706 -3.3213799 0.99549472 0
4.8076982 -3.338496 0.92638761 0
4.8018789 -3.4700677 -0.13932297 0
4.799612 -3.4555972 -0.39304113 0
4.8681746 3.2996352 0.74900937 0
4.8753486 3.3154764 0.62256575 0
-4.574676 3.4806514 1.4541401 0
4.8070421 -3.4627404 0.24641499 0
4.846549 3.4022267 -0.3161521 0
4.8176012 3.4015942 0.62388921 0
4.8667412 3.240701 0.99401879 0
4.8072996 -3.3919706 0.74891281 0
4.8034897 -3.4593248 0.37289903 0
4.8125916 -3.4680755 -0.008172065 0
4.8040609 -3.4737651 0.22003946 0
4.8652172 3.3754032 0.37268633 0
4.8710775 3.3807225 -0.26308101 0
4.8110685 3.3954911 0.74954605 0
4.8472929 3.4034464 0.39869612 0
4.8439288 3.397928 -0.49681282 0
4.8719349 3.3124659 0.7482276 0
4.8081698 -3.2562249 1.2439039 0
4.840457 3.3922331 0.57621729 0
4.8007002 -3.3858051 0.87482679 0
4.5916386 3.3932087 1.6390882 0
4.8699322 3.379683 -0.39295572 0
4.7998075 -3.4665577 -0.50253987 0
4.8034563 -3.4592929 -0.52618647 0
4.7422309 3.4004314 1.1259787 0
4.7550769 3.3907621 1.1080005 0
4.8331318 3.3802159 0.75338811 0
4.6671953 3.3823321 1.4614683 0
4.8703251 3.1781285 1.2429347 0
4.8064508 3.3911774 0.87607324 0
4.8703184 3.1710098 1.2649076 0
4.8098283 -3.4654188 0.49991202 0
4.8038988 -3.3322623 1.1040323 0
4.808919 -3.4819973 0.39952743 0
4.8414011 3.3937809 -0.67916411 0
4.8663702 3.2403834 1.1223623 0
4.8680382 3.2994177 0.92621017 0
4.8655677 3.0375814 1.59589 0
4.8625593 3.3729899 -0.65622807 0
4.8074417 -3.2031434 1.4426429 0
4.8098001 -3.3250971 1.1255047 0
4.8655787 3.375731 0.62544405 0
4.8031492 -3.4722202 0.5788064 0
4.805769 -3.4615164 0.62674409 0
4.8771887 3.3862703 0.49965993 0
4.8737898 3.3141017 0.87576497 0
4.7352462 3.3937163 1.2544895 0
4.8764229 3.3855751 -0.52687776 0
4.8010092 -3.5297637 -0.14068282 0
4.8020582 3.387074 1.0036238 0
4.7986021 -3.5273824 -0.27072954 0
4.8037 -3.5324261 -0.011546046 0
4.8081341 -3.4637899 -0.66218144 0
4.8013749 -3.4692142 -0.68773633 0
4.8052368 -3.390043 1.0044692 0
4.8312559 3.3771398 0.93194461 0
-4.4748697 3.4840777 1.8662806 0
4.8025279 -3.3184953 1.2539036 0
4.8697872 3.3105712 1.0033765 0
4.8624792 3.2370491 1.2515153 0
4.8636532 3.2924507 1.1036558 0
4.8052802 -3.5339894 -0.40446919 0
4.8144236 -3.5430353 0.11647545 0
4.8118296 -3.5404692 0.24540785 0
4.8003426 -3.5291042 0.50188649 0
4.8053617 -3.47597 0.75932264 0
4.8076777 -3.5363615 0.37389022 0
4.8578062 3.300004 1.1299009 0
4.7989826 -3.3842003 1.1329112 0
4.7552485 3.391053 1.289495 0
4.8140745 -3.4695015 0.75606513 0
4.8013287 -3.4572473 0.88268274 0
4.8666716 3.1653955 1.4426676 0
4.825634 3.3679173 1.110646 0
4.8057375 3.3905106 1.1350452 0
4.8810539 3.3897791 0.75539219 0
4.8069887 -3.5356798 -0.53908354 0
4.8076863 -3.3384759 1.2859739 0
4.8028994 -3.1959264 1.6223261 0
4.7932134 -3.3788106 1.263016 0
4.8743081 3.3836555 0.88317221 0
-4.5775852 3.4817393 1.7148396 0
-4.8874593 3.4826977 -0.084415406 0
4.8082676 -3.5369449 0.63150823 0
4.7967367 -3.6003304 0.24485363 0
4.7965393 -3.6088507 0.034574777 0
4.8013592 -3.4572768 1.0129123 0
4.8050385 -3.4754221 0.94063753 0
4.7973413 -3.610256 -0.14973095 0
-4.8907022 3.4838579 0.17837484 0
4.8029885 -3.6066949 0.11453511 0
4.8093266 -3.5379927 -0.67629248 0
4.6756129 3.397074 1.6510087 0
4.8019819 -3.6056705 -0.27989113 0
-4.8877602 3.4828055 -0.34825754 0
4.8070517 -3.6108317 -0.016612291 0
4.8062696 -3.6100349 -0.14812067 0
4.7984519 -3.6020763 -0.4129076 0
4.7991524 -3.6134279 -0.33552951 0
4.8027773 -3.6064801 0.37469685 0
4.8733759 3.3828094 1.0132599 0
4.7964993 -3.5253026 0.88966113 0
4.8033924 -3.6208532 0.21782488 0
4.7539253 3.3888109 1.472815 0
4.8688955 3.3097847 1.2655998 0
4.8117752 -3.540415 0.76194239 0
4.8010039 -3.6166699 0.40149108 0
4.8024111 -3.3298218 1.4668941 0
4.8711901 3.3044255 1.2868477 0
4.8142929 3.3985035 1.2707456 0
4.8048115 -3.6085505 0.50500125 0
4.8652468 3.3754294 1.1427929 0
4.8003592 -3.6155407 -0.52299124 0
4.805881 -3.4616241 1.146363 0
4.7942762 -3.5978253 -0.68480283 0
-4.9035864 3.4884663 0.44126403 0
4.7983356 -3.6119969 0.58501512 0
4.8703547 3.1710651 1.6264513 0
4.8046885 -3.474829 1.123461 0
4.8050613 -3.6088054 0.63576382 0
4.8113708 -3.6152282 -0.55280727 0
-4.901155 3.4875965 -0.61544669 0
4.8007593 -3.6162412 -0.71239293 0
4.8410234 3.3931625 1.2984233 0
4.8028135 -3.6837013 -0.020934433 0
-4.8995075 3.4870074 0.70448601 0
4.8039808 -3.6849248 -0.15453127 0
4.8083611 -3.5370371 1.0247116 0
4.8026853 -3.6835673 0.24373761 0
4.8048096 -3.4605937 1.2803457 0
4.8013949 -3.6173546 0.7698462 0
4.8014121 -3.6822336 0.37563023 0
4.8088703 -3.6126833 0.76797646 0
4.7966008 -3.6001918 0.89807487 0
4.7970567 -3.5258539 1.1552581 0
4.8710842 3.3807287 1.2787132 0
4.811821 -3.6931381 0.11095846 0
4.7527323 3.3867886 1.6590002 0
4.8726015 3.306668 1.4708836 0
4.8102632 -3.6915061 -0.29057044 0
4.8057442 -3.6867721 -0.42572117 0
4.8027558 -3.3303878 1.652935 0
-4.5750051 3.4807744 1.9779677 0
4.8076196 -3.6887367 0.50812268 0
4.8111615 -3.4857972 1.3108792 0
4.8074913 -3.6886022 -0.564354 0
4.8034058 -3.6843219 0.64040953 0
4.7981954 -3.6018152 1.0322366 0
4.7962093 -3.6767828 0.77254927 0
4.788825 -3.7481549 0.37631768 0
4.8412023 3.3934553 1.4840996 0
4.8049698 -3.6859603 -0.70376194 0
4.8067036 -3.626651 0.95679921 0
-4.906517 3.4895144 0.96940041 0
4.7973738 -3.765795 0.21567032 0
4.8044171 -3.7649653 -0.02620858 0
4.8008928 -3.7721679 0.02699998 0
4.8012228 -3.7615213 -0.2976656 0
4.8042669 -3.7648032 0.24268597 0
4.802496 -3.4711134 1.4948782 0
4.7971187 -3.7653334 0.4037205 0
4.8102732 -3.7712786 -0.16278279 0
4.8016548 -3.6824877 0.90799588 0
4.8165083 -3.5450978 1.2983994 0
4.8149376 -3.7763076 0.10767207 0
4.7928848 -3.752532 0.64412493 0
4.8750238 3.3105166 1.6586062 0
4.8074226 -3.7682056 -0.43747306 0
4.8049135 -3.7655003 0.51095545 0
4.8076782 -3.6114695 1.1709909 0
4.8062363 -3.6258328 1.1442684 0
4.7937741 -3.7534909 -0.71488464 0
4.8057923 -3.766448 -0.57717431 0
4.8014317 -3.6822541 1.0439072 0
-4.9015403 3.4877343 1.2348969 0
4.7956886 -3.837359 -0.030367672 0
4.7980413 -3.7580912 0.77997434 0
-4.6897869 3.4862421 1.9014636 0
4.8436708 3.397505 1.6739972 0
4.7987952 -3.8408058 -0.16813228 0
4.7954473 -3.8370912 -0.30588186 0
4.8094654 -3.7876933 0.59332949 0
4.8058624 -3.6096206 1.3086331 0
4.7998095 -3.7702067 0.78143865 0
4.8051367 -3.8478417 0.10525183 0
4.7986331 -3.679322 1.1807921 0
4.8036804 -3.6213577 1.3329382 0
4.7956228 -3.8372858 0.51340342 0
4.8049755 -3.8476632 0.37778983 0
4.8011413 -3.7614334 0.91704661 0
4.8111415 -3.8545046 0.24144943 0
4.8038578 -3.8464229 -0.44822639 0
4.8092909 -3.4826276 1.6888185 0
4.7958975 -3.8375907 0.649795 0
4.8006163 -3.8428261 -0.58938181 0
4.7932491 -3.8346519 0.78651512 0
4.8042026 -3.7781622 0.97286993 0
4.7983623 -3.8403256 -0.7328862 0
4.8019304 -3.7622845 1.0553032 0
4.7921953 -3.9198501 0.21335013 0
4.8037128 -3.6846437 1.3226743 0
4.7951717 -3.9212129 0.24076405 0
-4.9004951 3.4873605 1.5029707 0
4.7985992 -3.925127 0.10245129 0
4.8015876 -3.9285398 -0.03667438 0
4.7990842 -3.9327586 0.019648492 0
4.7965918 -3.9228346 0.37867361 0
4.7979345 -3.7668111 1.1630943 0
4.7877684 -3.9127586 -0.59948224 0
4.7979875 -3.9307034 0.40626463 0
4.8092737 -3.6311524 1.5276182 0
4.8058958 -3.93346 -0.31839204 0
4.7984858 -3.9249978 0.51693976 0
4.8062401 -3.7669306 1.1967263 0
4.8139052 -3.9426064 -0.17870933 0
4.796207 -3.9273665 0.59943128 0
4.8090863 -3.8522243 0.92850852 0
4.7947841 -3.7545798 1.3346826 0
4.8125739 -3.9410861 -0.4631083 0
4.7993474 -3.8414185 1.0663168 0
4.7916298 -3.9171684 0.79395771 0
4.8024902 -3.9295709 0.65619433 0
4.8037052 -3.9309585 -0.75199306 0
4.8018055 -3.6180742 1.7191993 0
4.7928658 -3.8342273 1.2061093 0
4.798593 -4.0124679 0.098986238 0
4.8016701 -3.7735755 1.3585461 0
4.7858915 -3.9975376 0.51938653 0
-4.8895435 3.4834433 1.7719032 0
4.801652 -4.0160642 -0.042475075 0
4.8005023 -4.0147123 -0.18433657 0
4.7947354 -3.9207146 0.9351089 0
4.8045921 -3.9430792 0.79493058 0
4.8020315 -4.0165105 -0.3279503 0
4.8060532 -4.0212374 0.23931819 0
4.8029737 -4.0176172 0.37999886 0
4.8013306 -4.015686 -0.47265798 0
4.7986698 -3.9319818 0.98914462 0
4.7933054 -3.8347144 1.3502623 0
4.7989926 -4.012938 -0.61868447 0
-5.2303004 3.4860833 0.17276633 0
-5.2216763 3.4831371 -0.37584478 0
4.7988381 -3.9254 1.0784554 0
-5.241107 3.4897749 -0.10203362 0
4.8045959 -4.0195246 0.66227257 0
4.7899623 -4.092361 -0.046933234 0
4.7955751 -4.0089207 0.80280292 0
4.792582 -4.0955315 0.095852718 0
4.803762 -3.777364 1.5564283 0
-5.2396412 3.4892743 0.44680601 0
4.804965 -4.019958 -0.77026701 0
4.798171 -4.1038852 0.011728317 0
4.7970858 -4.101779 0.21049818 0
4.793251 -4.0943394 0.40875575 0
-4.9038076 3.4817107 1.9361209 0
4.7971849 -4.0108132 0.94616562 0
4.8041296 -3.9422138 1.1879781 0
4.8070607 -4.1130538 0.23807874 0
4.808527 -4.1148281 -0.1943897 0
4.8072748 -3.9350348 1.2257181 0
4.8012042 -4.1059661 -0.48609006 0
4.8074331 -4.1135044 -0.34027243 0
4.799571 -4.1039891 0.5241223 0
-5.2423258 3.4901915 0.72150111 0
4.8088303 -4.1151953 0.38136977 0
-5.2522893 3.4935951 -0.65638882 0
4.7982464 -4.1040306 0.60768032 0
4.7919655 -3.9194181 1.3825611 0
4.7971301 -3.7653539 1.752996 0
4.7994518 -4.1038451 -0.63483566 0
4.7980204 -4.0117946 1.0910649 0
4.8015594 -3.9285078 1.3705201 0
4.8025074 -4.1075435 0.66805637 0
4.7949929 -4.0977187 0.80652201 0
4.7952137 -4.0987158 0.81122339 0
4.803504 -4.1087494 -0.78824747 0
-5.2385521 3.4889021 0.99680495 0
4.7969875 -4.0105805 1.23737 0
4.7964902 -4.1937084 -0.20096672 0
4.7964897 -4.1937075 0.23710358 0
4.800096 -4.1982017 0.091431662 0
4.7936001 -4.1901073 0.38221586 0
4.7940345 -4.0972891 0.95634085 0
4.7921138 -4.0921326 1.0061853 0
4.792685 -4.1889668 -0.49755508 0
4.7996216 -4.1976109 -0.34982079 0
4.8084035 -4.2085538 -0.05583474 0
4.8008041 -4.1990843 0.52802765 0
4.7937689 -4.1903176 -0.64948785 0
4.795855 -4.0092497 1.3858999 0
4.7943926 -4.1910949 0.67327631 0
-5.2246308 3.4841464 1.2722001 0
4.7994933 -4.1038957 1.1049681 0
4.8039875 -3.9419472 1.5898474 0
4.7930708 -4.0961227 1.2519231 0
4.7938972 -4.2780046 0.20777899 0
4.7995214 -4.1065049 1.2106836 0
4.7924271 -4.2853355 -0.20948201 0
4.7896624 -4.2817874 0.38342845 0
4.79597 -4.2898822 0.23579243 0
4.7942848 -4.2787843 0.41163623 0
4.8017178 -4.2937279 0.0027679801 0
4.8084483 -4.2086096 0.82271266 0
4.8012867 -4.2967048 -0.061497897 0
4.7966652 -4.1939263 0.9684726 0
4.7972455 -4.2915192 -0.3612541 0
4.8033891 -4.2994027 0.087164402 0
4.7937841 -4.2777772 0.6156984 0
4.7988844 -3.9323833 1.7925543 0
4.7884884 -4.2802811 0.67907631 0
4.7912002 -4.1871161 1.1164939 0
4.8027153 -4.2985382 -0.51547086 0
4.796607 -4.1008506 1.4142126 0
4.7956924 -4.289526 -0.66772914 0
4.8061132 -4.3028989 0.5324679 0
4.7951221 -4.280468 0.82079148 0
-5.2374644 3.4885306 1.5534133 0
4.8085327 -4.1148353 1.4097627 0
4.7979383 -4.292408 0.829983 0
4.7930536 -4.3864722 -0.21937871 0
4.7955132 -4.3897233 -0.067645311 0
4.7945142 -4.3884029 0.23444387 0
4.7965455 -4.2906203 0.9804737 0
4.8009114 -4.3968596 0.083192274 0
4.7956076 -4.3898482 0.38498777 0
4.8067327 -4.2064714 1.2736697 0
4.7972317 -4.284709 1.0275648 0
4.7989464 -4.3942623 -0.37432569 0
4.7938857 -4.1904631 1.4229982 0
4.801126 -4.1096187 1.6238222 0
4.7915182 -4.2841692 1.13133 0
4.7976961 -4.3926086 -0.52938056 0
4.7996082 -4.3951368 0.53609455 0
4.7939682 -4.387681 0.68682134 0
4.7982111 -4.3932896 -0.68708467 0
4.7971201 -4.2844844 1.235661 0
-5.2326508 3.486886 1.8350818 0
4.7907457 -4.4646554 0.20487571 0
4.7861967 -4.4551725 0.41434073 0
4.7913218 -4.283917 1.2854874 0
4.7950268 -4.4735804 -0.0055474043 0
4.7993412 -4.394784 0.84005845 0
4.7924252 -4.0927362 1.8298014 0
4.7910337 -4.4879241 0.079674929 0
4.7846689 -4.4519887 0.62369239 0
4.7912207 -4.4881783 -0.074327618 0
4.79001 -4.4865298 0.23311748 0
4.7941833 -4.3879657 0.99247521 0
4.7968264 -4.4958138 -0.23042041 0
4.7954006 -4.4938712 -0.38664007 0
4.7906179 -4.3832531 1.1465002 0
4.7988987 -4.2880592 1.4468794 0
4.7972708 -4.496419 -0.54551089 0
4.8043413 -4.5060482 0.38670522 0
4.7986774 -4.4983349 0.54040194 0
4.8004255 -4.2955999 1.4461827 0
4.7923441 -4.4897084 0.69389367 0
-5.59308 3.4861631 0.45264113 0
-5.6122413 3.4924045 0.16640715 0
4.7967024 -4.4770737 0.83630764 0
4.7887545 -4.4848194 0.84814578 0
-5.6097236 3.4915841 -0.40828389 0
4.8028946 -4.5040784 -0.70823967 0
-5.6263118 3.4969873 -0.12130368 0
4.7912655 -4.2727137 1.6563867 0
4.7956443 -4.3898969 1.3055025 0
4.7879572 -4.5918679 0.075355366 0
4.7931461 -4.4696608 1.0477495 0
4.7927804 -4.5986381 -0.082238287 0
-5.6116238 3.4922032 -0.69818842 0
4.7933922 -4.5994968 -0.24048895 0
4.7949009 -4.4931912 1.0059066 0
4.7917557 -4.5971999 0.38786569 0
4.7938442 -4.600131 -0.40013278 0
4.8027658 -4.6126547 0.23120311 0
4.7929955 -4.5989394 0.5444997 0
-5.6263032 3.4969845 0.74070323 0
4.793767 -4.6000233 -0.56143004 0
4.7933483 -4.491076 1.1636225 0
4.7942724 -4.4720078 1.2621503 0
4.7869244 -4.6612468 -0.014264613 0
4.7952161 -4.602057 0.70200551 0
4.8067975 -4.4046402 1.4703974 0
-5.6080341 3.491034 1.0275285 0
4.7950191 -4.6017809 -0.72545147 0
4.7841101 -4.6551576 0.41748339 0
4.7931471 -4.2764969 1.8738177 0
4.7924366 -4.6731725 0.20157023 0
4.7938614 -4.6001554 0.85998821 0
4.7994146 -4.4993391 1.3262823 0
4.7899637 -4.4630265 1.4766765 0
4.7899389 -4.707304 -0.089877963 0
4.7917051 -4.5971289 1.018949 0
4.7912493 -4.6706038 0.63420486 0
4.7932777 -4.7121358 0.070035577 0
4.789012 -4.7059627 0.38939226 0
4.7939577 -4.713119 0.22985591 0
4.7935219 -4.7124882 -0.25185502 0
-5.6003542 3.4885325 1.3161331 0
4.7934451 -4.4912086 1.4868582 0
4.7940569 -4.713263 -0.41482013 0
4.7925897 -4.5983706 1.1804355 0
4.794467 -4.7138562 -0.57962126 0
4.7974176 -4.7181258 0.54974604 0
4.7888145 -4.7056766 0.7091049 0
4.789155 -4.7061691 -0.74440193 0
4.797143 -4.6833558 0.85265201 0
4.7950912 -4.4737153 1.698471 0
4.79146 -4.7095041 0.87080967 0
4.795248 -4.6021013 1.3449423 0
4.7966909 -4.6823769 1.0715649 0
4.7861319 -4.8190427 -0.2621609 0
4.7886992 -4.8228731 -0.098176062 0
4.7860584 -4.5892024 1.5069745 0
-5.6129837 3.4926462 1.6100398 0
4.7900114 -4.8248315 0.39111745 0
4.7977533 -4.8363838 0.064520255 0
4.8002043 -4.7221584 1.0359328 0
4.7874117 -4.8209524 0.55390626 0
4.7870994 -4.8204861 -0.59595108 0
4.8007236 -4.8408165 0.2279467 0
4.7955265 -4.8330612 -0.43063778 0
4.7917137 -4.7098718 1.1980798 0
4.7973814 -4.6838717 1.2927191 0
4.7949572 -4.4734364 1.9214461 0
4.788661 -4.8827806 0.19826534 0
4.7910166 -4.8880744 -0.025179565 0
4.7861662 -4.8771734 0.42102757 0
4.7972345 -4.8356099 0.71891743 0
4.7956114 -4.8331885 -0.76948452 0
4.7885494 -4.664763 1.5120369 0
4.7915192 -4.7095904 1.3647621 0
4.7831526 -4.8145967 1.0465174 0
4.7967281 -4.8348551 0.88389808 0
4.7890205 -4.8835883 0.64432228 0
-5.60604 3.4903843 1.9041471 0
4.7837458 -4.9377337 0.22669783 0
4.7888813 -4.9456401 0.059996918 0
4.787323 -4.8797731 0.8679474 0
4.7880535 -4.9443655 0.39284024 0
4.7938685 -4.7129903 1.5353286 0
4.7963991 -4.9572134 -0.10835755 0
4.7954779 -4.9557948 -0.2768085 0
4.7866774 -4.9422469 0.55919105 0
4.7920246 -4.9504795 -0.44585556 0
4.7880573 -4.6636972 1.7374611 0
4.7912211 -4.8266368 1.2167902 0
4.7833672 -4.870883 1.0919685 0
4.7900882 -4.9474978 0.72674406 0
4.793366 -4.9525437 -0.79219961 0
4.8034391 -4.968051 -0.62164277 0
4.7899408 -4.8247261 1.3865328 0
4.7943172 -4.9540081 0.89594692 0
-6.021462 3.4962392 -0.14102843 0
4.781683 -5.0622187 -0.28690511 0
4.7854433 -5.0681925 -0.11602136 0
4.7912626 -4.8886271 1.3218539 0
4.7895393 -4.8241267 1.5592954 0
4.7936373 -4.952961 1.0657243 0
-6.0313554 3.4993055 0.1593985 0
-6.018764 3.4954031 0.45977145 0
-6.0201745 3.4958401 -0.44262052 0
4.7930779 -4.6745605 1.9699882 0
4.7882681 -5.072681 0.22467077 0
4.7930627 -5.0802984 0.053933173 0
4.7804127 -5.0957589 -0.034933269 0
4.793067 -5.0803056 0.39488649 0
4.7857494 -5.1082301 0.19467881 0
4.7850218 -4.8746023 1.5489011 0
4.7955723 -5.0842853 -0.4640131 0
-6.0225348 3.4965715 0.76048732 0
-6.0242057 3.4970896 -0.74665034 0
4.7959433 -4.9565115 1.238368 0
4.7838359 -5.1037588 0.4246363 0
4.7862577 -5.0694861 0.73555517 0
4.7915487 -5.0778933 -0.63838601 0
4.7963209 -5.085475 0.56578743 0
4.7882357 -5.1140413 0.65537548 0
4.7973747 -4.958715 1.4132985 0
4.7940006 -5.081789 0.9091444 0
-6.0235295 3.4968798 1.0623279 0
4.7839413 -5.1040049 0.88580966 0
4.7858315 -4.876421 1.7819759 0
4.7871823 -4.9430246 1.5855402 0
4.791256 -5.0774283 1.08213 0
4.7884045 -5.2068458 0.048423648 0
4.784801 -5.2009344 0.39660054 0
4.7815685 -5.0984607 1.1174915 0
4.7827063 -5.1974978 -0.47818375 0
4.7907982 -5.2107725 0.22259839 0
4.7921233 -5.2129459 -0.1270954 0
4.7895012 -5.2086444 -0.30269492 0
4.7871075 -5.070837 1.2561654 0
4.7857637 -5.2025146 -0.65838724 0
4.7901316 -5.2096786 0.57115024 0
-4.8362732 -5.2009273 -0.12083071 0
-6.0309949 3.4991939 1.3669231 0
4.7852535 -5.2016768 0.74534076 0
-5.2771735 -4.7665753 -0.12994942 0
-4.8451467 -5.2062931 0.16612537 0
-5.1859417 -4.8541393 -0.42069554 0
-5.0255132 -5.0378857 -0.12507397 0
-4.9371142 -5.1237192 0.16548276 0
-4.9382367 -5.1243763 -0.12337175 0
-5.1129994 -4.9504223 -0.12684971 0
-5.1156907 -4.9518957 0.16424814 0
-5.0291882 -5.0399666 0.16481939 0
-5.2861657 -4.7711692 0.16309303 0
-5.3701034 -4.6785264 0.1625089 0
-5.1917038 -4.8571877 0.45553672 0
-5.0246654 -5.0374055 -0.41601908 0
-4.9374313 -5.1239047 -0.41318107 0
-5.2823558 -4.7692227 -0.42475247 0
4.7857885 -5.1083221 1.3533995 0
-4.769187 -5.2976499 0.1664201 0
-5.3671947 -4.6770926 -0.42777079 0
-4.8526545 -5.2108335 -0.41069561 0
-5.1169639 -4.9525928 -0.41946417 0
-5.4610233 -4.5881147 -0.13445666 0
-4.9408841 -5.125926 0.4539935 0
4.7949066 -5.0832286 1.4372103 0
-5.2133269 -4.8686275 -0.12944791 0
-5.367806 -4.6773939 0.45684642 0
-5.2857242 -4.7709436 0.45629835 0
-5.0305057 -5.0407128 0.45460707 0
-5.3820572 -4.6844192 -0.13293085 0
-5.2149711 -4.8694978 0.16340385 0
-4.7669783 -5.2962704 -0.40822285 0
-4.778141 -5.3032408 -0.12104249 0
-4.6869345 -5.3844037 0.16682123 0
-4.6892185 -5.3858757 -0.11942732 0
4.7930794 -5.2145143 0.922939 0
-5.4692516 -4.5920258 0.16160907 0
-5.1245928 -4.9567695 0.45532906 0
-5.5520463 -4.496387 0.16100521 0
-5.1078391 -4.9475965 -0.71235633 0
-5.4621735 -4.5886617 0.45765418 0
-4.6024966 -5.4689436 0.16724609 0
-5.1959796 -4.8594499 -0.71675622 0
-4.9349136 -5.1224313 0.74256998 0
-4.8676643 -5.2199101 0.45373398 0
4.784708 -5.2007818 1.0981929 0
-4.6894474 -5.3860235 -0.4067018 0
-5.5589409 -4.4995437 -0.13714457 0
-4.8512068 -5.2099581 -0.7011199 0
-4.6075773 -5.472322 -0.11832908 0
-4.9419622 -5.1265569 -0.70546043 0
-5.4708433 -4.592782 -0.43271887 0
-5.0282202 -5.0394187 0.74463701 0
-4.691391 -5.3872757 0.45267135 0
-5.2874804 -4.7718406 -0.72176206 0
-4.6003327 -5.4675045 0.45210856 0
-4.7866478 -5.3085527 0.45333922 0
-5.035512 -5.0435476 -0.71032929 0
-4.5206132 -5.5544195 -0.11696002 0
-5.1193709 -4.9539104 0.74663043 0
-5.5556979 -4.4980588 0.45846492 0
-5.6483827 -4.4056063 0.16012065 0
4.790925 -5.0769014 1.6163027 0
4.7801561 -5.3332586 0.22086045 0
-5.6497402 -4.4062047 -0.13948077 0
-4.6086621 -5.4730434 -0.40495855 0
-4.6830635 -5.3819084 -0.69479001 0
-5.6404552 -4.402113 -0.4392671 0
-5.6393032 -4.4016056 0.45910621 0
-6.0291924 3.4986353 1.6731532 0
