# .PCD v0.7 - Point Cloud Data file format
VERSION 0.7
FIELDS x y z intensity
SIZE 4 4 4 4
TYPE F F F F
COUNT 1 1 1 1
WIDTH 1443
HEIGHT 1
VIEWPOINT 0 0 0 1 0 0 0
POINTS 1443
DATA ascii
4.5396209 2.5070977 0.93261361 0
-3.2394233 4.1184921 0.5560652 0
4.5592537 2.4577477 0.96848154 0
4.5706801 -2.5243933 0.70881999 0
4.5784492 -2.4759774 0.82102203 0
4.5579453 2.6245902 -0.33040249 0
4.5427361 2.6702595 -0.094696999 0
4.5439806 2.4574246 1.0439258 0
4.5717936 -2.5784771 0.48266804 0
4.5678525 -2.6304848 0.022160172 0
4.5836463 -2.4872673 -0.76905739 0
-3.8196621 -3.4971447 -0.9868567 0
-3.8197451 3.4971828 -0.9868778 0
3.2296615 4.1656165 0.11577356 0
-2.8986206 4.1334624 1.5198159 0
4.5655475 -2.6291134 -0.21262276 0
3.1899483 4.1667862 0.51851416 0
4.5743084 -2.5736432 0.50916338 0
4.5521846 2.2576206 1.4100232 0
4.553606 2.6563418 -0.1356672 0
4.5733919 -2.3767247 1.1174593 0
3.2315404 4.1602163 0.25454605 0
3.2287488 4.1636419 0.2401607 0
4.5581942 2.3865793 1.1624022 0
4.5694532 -2.3683581 1.1557066 0
3.0605886 4.1542602 1.0991158 0
-3.1977687 4.1346035 -0.71696436 0
3.2275965 4.1557593 0.38583374 0
2.6393504 4.1635494 1.8806257 0
-2.7734079 4.1343284 1.7476549 0
4.550684 2.3500311 1.2678623 0
4.573204 -2.2192256 1.416713 0
4.5547009 2.5686362 0.7095108 0
4.5541053 2.6223056 0.48278797 0
4.5790811 -2.5835395 -0.45497215 0
3.1121421 4.1487026 0.97675753 0
4.5768442 -2.5807519 0.50472057 0
4.5500526 1.8742118 1.9098775 0
3.0097704 4.1605539 1.2224901 0
4.555975 2.6593819 0.18589127 0
4.5703082 -2.3184934 1.2672546 0
4.5706291 -2.4717681 0.93423414 0
4.5514517 2.6756155 0.021015882 0
3.1217899 4.1712489 0.85590816 0
4.5554056 2.5540378 -0.77815247 0
4.5468864 2.6728098 0.2532506 0
3.1775322 4.1731739 0.61058545 0
-3.1999869 4.1360331 0.73391736 0
-2.9087105 4.1380649 1.5176387 0
4.570889 -2.5733314 -0.61726475 0
4.5442777 2.6443703 0.50523901 0
3.2292104 4.1646404 0.36388457 0
-1.7529459 -4.8856487 -0.98488605 0
4.5516329 2.6757267 -0.21499681 0
4.5542941 2.3607497 1.2684124 0
4.5690022 -2.5709803 0.66229808 0
4.5447254 2.6714818 0.36830783 0
4.5716381 -2.5722756 0.64114332 0
2.8211608 4.1540356 1.6471796 0
4.5547667 2.6578307 0.34586298 0
3.0329769 4.1710558 1.1571009 0
3.2296591 4.1656113 -0.39214343 0
4.5478969 2.5647185 0.82304573 0
4.5362968 2.6341286 0.66383076 0
4.539588 2.5558581 0.90397012 0
-2.7599907 4.1369739 1.7965362 0
2.96034 4.1694827 1.3479271 0
4.5608139 -2.5607767 -0.78046763 0
4.5314541 2.7187915 -0.21610355 0
4.5785041 -2.6368222 0.25280869 0
4.5812492 -2.052371 1.6677575 0
4.5780296 -2.5820677 0.59712017 0
4.5654173 -2.6290359 0.4830178 0
4.5738926 -2.4754639 0.97130346 0
4.55301 2.4501913 1.1243019 0
3.2290139 4.1642151 0.4875071 0
4.5453115 2.6718421 -0.45549911 0
4.5570254 2.624043 0.59728146 0
4.5594597 2.5590889 0.81933904 0
-2.6459255 4.1355934 1.9766343 0
4.553947 2.6567791 -0.46310848 0
4.5749235 -2.3945518 1.1632659 0
4.5778608 -2.6364398 -0.33575273 0
3.1763554 4.1705289 0.7340914 0
4.5647573 2.4169226 1.1598423 0
3.2284248 4.1629405 -0.52271336 0
4.5696607 -2.5772493 0.71102107 0
4.5780501 -2.5284972 0.82407606 0
-3.089139 4.1481042 1.1329765 0
3.2656646 4.154388 0.33272493 0
4.5636444 -2.669224 -0.30101538 0
4.5778756 -2.6364484 0.36812913 0
4.5561886 2.6785264 -0.33649909 0
4.5649529 -2.683912 -0.098827064 0
2.7246633 4.1621213 1.8204927 0
4.5477123 2.6733174 0.48315322 0
4.5685272 -2.6754899 0.18482101 0
4.5462189 2.6468613 -0.62704742 0
4.5644283 -2.5209119 0.9371109 0
4.5700808 -2.677484 -0.13895822 0
4.5598755 2.2133372 1.5442441 0
4.5667939 -2.3670232 1.2721596 0
4.5698171 -2.2777567 1.4162023 0
4.5534954 2.3843403 1.2916057 0
3.2268906 4.1596212 0.61100698 0
-2.9162827 4.1336484 1.5805511 0
-3.7840681 -3.5771823 -0.98722231 0
4.5696592 -2.5712621 0.77268004 0
3.1915066 4.1722984 0.70466924 0
4.5514708 2.6207383 0.71156967 0
-3.0780911 4.1307397 1.2463608 0
4.576983 -2.6359172 -0.45777994 0
3.1719718 4.1606774 0.85718298 0
4.5716887 -1.8823217 1.9142308 0
3.0319571 4.1626415 1.2607841 0
3.2838202 4.1612954 0.11409688 0
4.5692506 -2.6865532 0.1355195 0
4.5621634 -2.5729325 0.82506704 0
4.5537806 2.0411658 1.7922962 0
4.5423079 2.669996 0.59786761 0
4.5497313 2.4091101 1.2732189 0
3.282691 4.1589413 0.23917913 0
4.5482483 2.7294459 0.01784873 0
3.2641354 4.1492596 0.51858151 0
-3.0444965 4.1337204 1.3363752 0
4.5749092 -2.4222007 1.1624837 0
3.0270805 4.1639948 1.2833691 0
4.5686264 -2.6756177 0.34546936 0
4.5688324 -2.631068 0.59800148 0
-3.252758 4.1381803 0.67112994 0
4.5541387 2.515182 1.0510492 0
3.1144209 4.1540279 1.1031218 0
4.5774908 -2.6869929 0.022304893 0
3.2840202 4.1617126 -0.26670253 0
4.5669327 -2.6851289 -0.33941048 0
4.5652428 -2.4649954 1.1273437 0
3.2428906 4.1730423 0.51424623 0
3.287797 4.1695862 -0.012743413 0
3.1862054 4.1535463 0.8897016 0
2.8757172 4.1551247 1.632952 0
4.5739832 -2.6894615 -0.22009605 0
4.5728788 -2.6887829 0.25165176 0
4.571866 -2.5745485 0.82107317 0
-3.794404 3.5820949 -0.98986447 0
4.574852 -2.3784404 1.2751124 0
4.558538 2.4652598 1.1637917 0
4.542295 2.7498486 -0.14392817 0
4.5502219 2.7306979 0.25149548 0
4.5790405 -2.1962731 1.5606108 0
2.9563341 4.1707706 1.4486172 0
4.5805664 -2.6935072 0.016819954 0
4.5817776 -2.4777687 1.0522692 0
3.28337 4.160357 -0.39632899 0
4.5462179 2.7281578 0.36776173 0
3.0650549 4.1651249 1.2282372 0
4.5646553 -2.6837294 -0.46158278 0
3.2893414 4.1728058 -0.14043021 0
4.5645404 -2.6285143 0.71290016 0
4.5507374 2.2559676 1.5675318 0
4.5661049 -2.0461934 1.7944846 0
4.5492506 2.7300818 -0.34144473 0
-2.5176964 4.1322989 2.2028024 0
4.5579243 2.5571756 0.97784519 0
4.566947 -2.5698729 0.90397096 0
3.1698413 4.155889 0.98145604 0
4.5422668 2.7407899 0.37222338 0
4.5457916 2.7544703 0.18226349 0
-1.7014356 -4.9412808 -0.98700809 0
4.5587301 2.7360957 0.13400447 0
3.1135042 4.1755004 1.0771279 0
4.5522757 2.3519022 1.4265151 0
-3.2062674 4.1400809 -0.93379259 0
4.5435872 2.5093064 1.165648 0
-3.2057595 4.1397533 0.94083357 0
4.5426836 2.5617168 1.0535691 0
3.013885 4.1709852 1.3534715 0
3.2409875 4.1708918 0.64452219 0
4.5486279 2.5604889 1.0347114 0
4.5621548 2.5729275 0.94085717 0
4.5493922 2.4458129 1.2819686 0
4.5403872 2.6141436 0.94117928 0
-3.3456545 4.1277595 0.32097459 0
4.5464907 2.2074239 1.6717825 0
4.5688295 -2.4707992 1.1664901 0
4.5758467 -2.3949914 1.2933381 0
-3.253932 4.139914 0.78755569 0
4.5710015 -2.6876292 0.48363042 0
4.5612631 -2.6816444 0.59903359 0
4.584343 -2.2241468 1.5473719 0
4.5656323 -2.57493 0.94149268 0
4.5801215 -2.6932337 0.36758268 0
4.5530109 2.7640135 0.018264294 0
4.5598183 2.625705 0.82809186 0
-3.077189 4.1293216 1.3609204 0
3.2316346 4.1698856 0.73603773 0
3.0199022 4.1553984 1.4094334 0
4.566308 2.7409034 -0.10379022 0
-3.3496284 4.1302409 -0.3115471 0
3.2797592 4.1528296 0.61186552 0
4.5573177 2.7490532 0.23619306 0
4.5613251 2.7512531 0.10038948 0
3.2902956 4.1747947 0.36326993 0
-3.7471185 3.6566222 -0.9875356 0
4.5512443 2.7313466 -0.46529257 0
4.5515056 2.653646 -0.7984395 0
4.5724354 -2.5253708 1.0551202 0
4.5532522 2.676722 0.71423757 0
4.5516038 2.4615276 1.2802308 0
4.5664434 -2.740989 -0.22415793 0
-2.8948298 4.1308632 1.7241354 0
4.5790381 -2.6889787 -0.47104329 0
-2.7670231 4.1390781 1.9058385 0
4.570117 -2.7433197 -0.10450464 0
-2.9142489 4.1302395 1.6945419 0
4.5528951 2.7323937 0.48377621 0
4.5507774 2.7610612 -0.31131166 0
4.5462456 2.7849562 -0.10489911 0
-3.3618426 4.1378679 0.11026824 0
4.5498848 2.7598815 0.34450197 0
4.5754361 -2.4224749 1.2809818 0
-3.3630137 4.1385989 -0.10099721 0
4.5697527 -2.6770627 -0.63588691 0
3.2868514 4.1676145 -0.53051639 0
4.5449228 2.7840903 -0.22518045 0
-3.7543578 -3.6601908 -0.98939896 0
4.5499449 2.7873781 0.013820171 0
4.5804081 -2.6907363 0.50626504 0
3.2395184 4.1692314 0.77436733 0
4.5566521 2.3858445 1.4218009 0
4.5589914 -2.6802485 0.71482694 0
3.1071706 4.1518068 1.2621169 0
3.2899845 4.1741462 0.48811734 0
-3.3437328 4.1265593 0.53038573 0
4.5718374 -2.5745134 0.98057461 0
4.550971 2.5485115 1.1361732 0
4.5703259 -2.6777983 0.66673231 0
3.2288692 4.1639023 0.86042929 0
4.5761175 -2.7471266 0.13220286 0
2.8297899 4.1649933 1.775403 0
4.5422926 2.7823684 0.36730671 0
4.5480804 2.7861576 0.25001526 0
3.3417287 4.1632586 0.11171865 0
4.5563831 2.659905 0.82609057 0
4.536881 2.7426915 -0.64328313 0
4.548377 2.7578886 -0.47803825 0
3.1164012 4.1586561 1.2314456 0
4.552949 2.789345 0.13190579 0
3.2690325 4.1656809 0.70546937 0
-3.2536564 4.1395073 0.90395272 0
-3.34831 4.1294179 -0.52505666 0
3.3410742 4.161943 0.23769474 0
3.3436079 4.1670361 -0.015470088 0
3.2801471 4.1536388 0.73656011 0
4.5748854 -2.6346693 0.83024454 0
4.5643997 -2.3895366 1.4226024 0
4.5786672 -2.7487442 0.24973011 0
4.5494156 2.7870317 -0.34859955 0
4.5676365 -2.7547178 0.36952209 0
4.5746183 -2.7461758 -0.34838051 0
3.34254 4.1648893 -0.27225053 0
3.2332683 4.162169 0.90396869 0
2.8027382 4.1717806 1.8271217 0
4.5512371 2.7616694 0.50693703 0
4.5650144 -2.7798812 0.18059361 0
4.5850129 -2.7527699 0.012502789 0
3.3453269 4.1704922 -0.14399326 0
-3.2454767 4.1274304 1.0199986 0
3.347003 4.1589684 0.33223295 0
4.576438 -2.7595501 0.23364389 0
4.5738239 -2.5733953 1.0353713 0
4.5476198 2.7437289 0.6383903 0
3.0662789 4.1681023 1.3579996 0
3.0319107 4.1624575 1.4505358 0
4.5464754 2.7283213 0.71612573 0
4.5738173 -2.3772242 1.4341903 0
4.5440493 2.7835183 0.48412979 0
4.5689316 -2.4708543 1.2855036 0
2.9520116 4.1525221 1.6363034 0
-3.7052317 3.7336035 -0.98686481 0
4.5625162 -2.7519069 0.50405085 0
3.3423138 4.1644344 0.36303389 0
4.5629702 2.7521565 0.50401461 0
-1.6484177 -4.995492 -0.9888674 0
4.5583115 2.6798308 0.8313725 0
4.5608401 2.7374344 0.60056341 0
-3.7064362 -3.7342186 -0.98717701 0
4.5770392 -2.2860043 1.5782297 0
4.5722494 -2.7446728 0.48417628 0
4.5486412 2.6190548 1.0601988 0
3.1892328 4.1642547 1.0782621 0
-3.2009153 4.1366315 1.1479485 0
4.5734024 -2.7454038 -0.47232372 0
3.2264755 4.1587234 0.98556995 0
4.5853567 -2.7644467 0.096536636 0
4.5549488 2.5637269 1.1659255 0
4.5487056 2.6500525 0.98608816 0
4.5668135 -2.7984216 0.011344552 0
4.5751791 -2.5268984 1.173996 0
4.5823278 -2.7510664 0.36701536 0
4.550581 2.7877948 -0.47333729 0
3.0173278 4.1523156 1.5363643 0
4.5635366 2.0451455 1.9239802 0
3.3907986 4.1463509 -0.14383566 0
4.570456 -2.6779652 -0.80670059 0
4.5469236 2.4428253 1.4418073 0
4.5649271 -2.0457127 1.924263 0
4.5551376 2.5688875 1.1747465 0
4.5751104 -2.4769373 1.2898166 0
4.5412121 2.8394125 -0.23053432 0
3.1772447 4.1725278 1.1113021 0
4.5506916 2.3500402 1.5866065 0
4.5819387 -2.2230849 1.6772308 0
3.2799144 4.1531529 0.86190546 0
4.5779543 -2.5820243 1.06148 0
4.5706482 -2.8009324 0.13005495 0
4.5463858 2.8429065 0.12978911 0
-3.0469584 4.1353574 1.5439181 0
3.3409877 4.1617684 -0.53547621 0
4.5503125 2.760447 0.6695292 0
4.5495167 2.3824441 1.5513935 0
4.5697551 -2.8003476 0.24865758 0
4.5397911 2.8384531 -0.3533228 0
4.5787477 -2.7980356 0.014532089 0
3.3441529 4.1681323 0.48843813 0
4.5772061 -2.63605 0.94796503 0
4.5777121 -2.7966666 -0.15113628 0
-1.5825644 -5.0342798 -0.98563957 0
4.5739708 -2.7457647 0.60137832 0
4.5560842 2.678462 0.94857836 0
4.5751467 -2.7932751 -0.31770933 0
4.5743904 -2.792275 0.34379292 0
4.5419569 2.8615775 -0.15490329 0
-2.9176626 4.1478558 1.7683811 0
4.5765066 -2.6857297 0.82895494 0
4.5514164 2.2096 1.8027658 0
4.5785871 -2.8061297 -0.11102164 0
4.5647864 -2.5744429 1.1773169 0
3.3499122 4.1797109 -0.40708721 0
4.5632215 -2.6277297 1.0634966 0
-3.0519528 4.1463108 1.534025 0
-3.3527374 4.1321821 -0.74214876 0
-3.085804 4.1428623 1.4779739 0
4.5770693 -2.8051357 -0.23264909 0
-2.7798696 4.141602 1.9980502 0
4.575871 -2.6906216 0.83390319 0
4.5452442 2.8660541 0.01151228 0
4.5604291 -2.6650977 0.98843002 0
4.5553589 2.8489664 -0.1117149 0
3.3988457 4.1619644 0.10956216 0
4.5507989 2.5482969 1.2975883 0
4.5521717 2.8468137 0.24807644 0
4.5704632 -2.7562702 0.63717711 0
4.5731544 -2.802573 -0.35515016 0
4.5548401 2.7905829 0.60180807 0
3.3998158 4.1638465 -0.018238544 0
4.568306 -2.7421708 0.7183876 0
3.3430409 4.1658969 0.61393666 0
4.568675 2.5232766 1.2921891 0
3.2375546 4.1670127 1.0335016 0
4.5752411 -2.5741212 1.1669884 0
3.3516469 4.1737642 0.51943755 0
3.2716255 4.1743755 0.89353621 0
4.5600567 -2.8521388 0.0083831549 0
3.1729784 4.16294 1.2375765 0
4.5498819 2.8452678 0.36658847 0
4.5718355 -2.7888982 0.50753307 0
3.1192856 4.1653972 1.3628254 0
4.5759792 -2.8044224 0.36660397 0
-3.3592081 4.1362228 0.74096894 0
4.5793777 -2.583909 1.1433618 0
2.8775456 4.1633677 1.8291178 0
4.5504689 2.620142 1.1797938 0
4.5628519 2.8540261 0.007969141 0
3.3995638 4.1633573 -0.27699238 0
4.5507383 2.5663545 1.2936947 0
4.5439939 2.8643513 0.34310126 0
4.5492759 2.8715453 0.17723465 0
4.5488667 2.7585356 -0.82030153 0
4.5457678 2.842489 0.48472476 0
4.5602951 2.7370887 0.83530295 0
4.5483665 2.7578743 0.83246207 0
4.5751514 -2.5268834 1.2941756 0
4.5640936 2.7527733 0.77081645 0
4.5684671 -2.3914747 1.553848 0
4.5481453 2.8440948 -0.48114705 0
3.3989749 4.1622148 0.36262167 0
2.8318026 4.1675496 1.9032488 0
3.4024501 4.1689577 0.23591363 0
4.552063 2.6759911 1.0664949 0
3.3407516 4.161294 0.73948932 0
4.548378 2.6496327 1.1484814 0
-3.6732841 -3.8157692 -0.98907161 0
-2.6443477 4.1337647 2.225091 0
4.5575037 2.5650353 1.2974596 0
4.5762854 -2.8046227 -0.48156935 0
-3.6741467 3.8162255 -0.98929691 0
4.5584297 -2.56551 1.2975323 0
4.5495081 2.7447655 0.90397286 0
4.549427 2.8717513 -0.32524115 0
4.5548706 2.7906027 0.71969509 0
4.5396624 2.897212 -0.23664021 0
4.5409784 2.8602443 0.50820971 0
3.2830572 4.1597047 0.98952878 0
-2.9266319 4.1509943 1.8145242 0
4.5706005 -2.7872658 -0.6561867 0
4.5455637 2.9013214 0.12695801 0
4.5729551 -2.3762107 1.5958128 0
4.5724301 -2.8604946 0.12703967 0
4.5466232 2.9020593 -0.1153298 0
-3.4251566 4.1322489 0.54784107 0
4.5816317 -2.8081231 0.48491395 0
4.5433989 2.8998144 0.2468847 0
-3.0803027 4.1342158 1.5927186 0
4.5451679 2.8659501 -0.49450779 0
4.5345964 2.7365787 1.036346 0
-3.3439021 4.1266651 -0.9589653 0
3.1895633 4.1654243 1.2676568 0
4.5552931 2.7339153 0.95312405 0
4.5656457 -2.8559129 0.36625648 0
3.234014 4.1750336 1.1163037 0
4.5755682 -2.759073 0.7705121 0
4.5667849 -2.8566825 -0.36084276 0
4.5670729 -2.5685756 1.3026426 0
4.5512743 2.9052982 0.0055809021 0
4.5861597 -2.8078327 -0.49021131 0
4.5740671 -2.7918477 0.67159259 0
3.4043789 4.1727004 -0.41132414 0
4.5794897 -2.222003 1.807812 0
4.5747142 -2.8620372 0.24665093 0
3.2684033 4.1635714 1.080893 0
-3.2627931 4.152997 1.1376102 0
3.3390942 4.1579618 0.86562562 0
-3.6206856 3.886961 -0.98616886 0
3.4537513 4.1550055 -0.020353317 0
4.5409603 2.556561 1.4275525 0
4.5850992 -2.6962926 0.95397222 0
3.1124229 4.1714554 1.456162 0
-3.6222301 -3.8878064 -0.98657525 0
-3.3518696 4.1316404 0.95124769 0
-3.4231529 4.1294651 0.66691995 0
4.5779104 -2.8641956 -0.239142 0
4.5465302 2.9019947 -0.36290288 0
3.4014664 4.1670489 -0.54405946 0
-2.8991103 4.1337986 1.9340749 0
4.5483961 2.6737378 1.1857874 0
4.5490799 2.6193156 1.3004799 0
4.5530539 2.38413 1.6829867 0
3.0326166 4.1652579 1.6435785 0
4.5728126 -2.633436 1.1857963 0
3.4306755 4.1680036 0.33163548 0
4.5343523 2.925581 0.36434817 0
4.5451403 2.8420651 0.72147918 0
3.172596 4.1620803 1.3677244 0
4.5845013 -2.8686464 -0.11728442 0
3.3548555 4.1839867 0.70770311 0
3.2414861 4.1714549 1.1634517 0
3.4447505 4.1546426 0.37226045 0
4.5714188 -2.8014369 0.72142553 0
4.568716 -2.8980224 0.0080424547 0
4.559154 2.8515291 0.60376501 0
4.5848351 -2.81022 0.60368693 0
4.5834255 -2.7517629 0.8386662 0
-1.5340703 -5.0944886 -0.9900893 0
3.4066105 4.1770301 0.48906922 0
4.5827837 -2.4862235 1.4548044 0
4.5521364 2.9058988 0.3659575 0
4.5683694 -2.7422111 0.95557666 0
4.5768127 -2.581367 1.3017566 0
-3.20964 4.1422548 1.3589995 0
3.4013875 4.1668959 0.61536479 0
4.5530319 2.4502175 1.6075792 0
4.5503607 2.7605102 0.99696946 0
3.4589231 4.1646967 0.10690904 0
4.5497837 2.9346385 0.089073181 0
3.4570112 4.1611142 0.23494947 0
3.4536774 4.1548672 0.36229169 0
4.5617013 2.7950749 0.83930516 0
4.5723991 -2.7573328 0.90397358 0
4.5508652 2.2093568 1.9338794 0
3.0304248 4.1679997 1.6672382 0
4.5461373 2.7848856 0.95627856 0
3.4545643 4.1651115 0.23656917 0
4.5464044 2.8676345 -0.66772604 0
4.5664148 -2.8948884 0.34244001 0
4.554008 2.7330999 1.0726953 0
4.5390563 2.8967903 0.60423791 0
-1.4618411 -5.1245899 -0.98455536 0
3.3964064 4.1572318 0.74137187 0
4.5791073 -2.6926103 1.072665 0
3.4607043 4.168035 -0.15202004 0
4.5728803 -2.9036942 0.17514443 0
-3.258523 4.1466923 1.2542233 0
3.3498142 4.1679249 0.89499843 0
3.4594016 4.1655931 -0.28277993 0
3.430593 4.1677532 0.51975977 0
3.2327499 4.1722984 1.245244 0
-3.0341649 4.1274066 1.7808671 0
4.5357265 2.9694681 0.17349243 0
-3.4250813 4.1321435 0.78542507 0
4.5545502 2.9374359 0.22560191 0
4.5449471 2.9610369 0.002264142 0
4.5726795 -2.6808188 1.1547434 0
4.5353742 2.9541652 0.3657099 0
4.5754986 -2.7937403 -0.83212972 0
-3.5159726 4.1304054 0.10359085 0
3.2876449 4.1692691 1.1197314 0
4.555006 2.9078968 -0.49233204 0
4.5776205 -2.9101503 -0.1623022 0
4.5423951 2.9592049 0.24513066 0
4.5527329 2.8762538 0.67447138 0
3.4500229 4.1602669 0.50515461 0
4.5829306 -2.8675859 -0.49239403 0
4.5739913 -2.9052072 -0.33181494 0
4.5588498 2.5583293 1.4642239 0
4.547616 2.9629529 -0.12102634 0
4.571022 -2.91905 0.24512053 0
4.5840902 -2.8683686 0.48553193 0
-3.0487599 4.1365557 1.7543225 0
4.5731516 -2.3937073 1.6861167 0
3.2357469 4.1649699 1.2929394 0
-3.0797606 4.1333637 1.7092569 0
4.5786266 -2.7978752 0.83685017 0
-3.5148253 4.1297121 0.31844091 0
4.5606709 2.9118416 0.48562396 0
4.5409975 2.7815206 1.0756683 0
4.5509419 2.9653401 0.12334013 0
-3.5814605 -3.9653323 -0.98705971 0
4.5749269 -2.9217689 -0.24499327 0
4.566823 -2.7412302 1.0756454 0
4.5785208 -2.9242718 -0.12148619 0
4.554533 2.6575315 1.3146937 0
2.9570179 4.173656 1.8365645 0
3.1865609 4.1548038 1.4568624 0
3.4614439 4.1694202 -0.41677284 0
4.5640182 -2.9429934 0.22431874 0
4.5445061 2.981791 0.0033452511 0
4.5691528 -2.7555504 1.0372648 0
-3.583354 3.9664044 -0.98756206 0
4.5802135 -2.9254506 0.12326384 0
4.5430651 2.7508667 1.160687 0
4.5793457 -2.8066261 0.84189463 0
3.4280005 4.1598892 0.70767498 0
4.551198 2.965524 -0.24613726 0
4.5457582 2.9616189 -0.37070441 0
4.5725117 -2.5727232 1.4308636 0
-3.2522793 4.1374731 1.370533 0
4.5513554 2.9355607 0.49838912 0
-3.5201244 4.1329165 -0.32955521 0
4.5480423 2.7439606 1.1695786 0
4.5651855 -2.7973559 0.95988452 0
4.5841522 -2.9281931 0.00066161156 0
3.4607692 4.1681566 0.48937106 0
3.2674494 4.1603723 1.2703295 0
3.2272205 4.1603351 1.3733439 0
-2.9064407 4.1355824 2.0165815 0
4.568141 -2.784014 1.0005882 0
3.4501543 4.1604071 0.63832521 0
-3.5314794 4.1397829 -0.11360902 0
4.5749097 -2.9064581 -0.50427622 0
4.585959 -2.8696308 0.60546005 0
4.5749521 -2.9065163 0.50921166 0
4.5787058 -2.6923637 1.1940007 0
3.3479931 4.1758523 0.99634147 0
4.5690813 -2.5710783 1.4679976 0
4.5485239 2.9874315 -0.16789728 0
4.5556803 2.6782141 1.3101602 0
4.5456066 2.5589414 1.5601292 0
4.5752025 -2.8623669 0.72465289 0
4.5785017 -2.9242585 -0.3718974 0
4.5616179 -2.8531933 0.84324801 0
-1.4017792 -5.170053 -0.98456109 0
4.5742121 -2.4758503 1.6164889 0
4.5712943 -2.9192395 -0.4976505 0
4.5500822 2.3827136 1.8144417 0
4.5568862 2.734926 1.1949322 0
4.5508738 2.8737214 0.84071994 0
3.4617581 4.1700091 -0.55226582 0
4.5801868 -2.2223108 1.939919 0
3.4009981 4.1661401 0.8699553 0
4.5455942 2.9615016 -0.49856532 0
4.5514936 2.9054508 0.72507405 0
4.5812292 -2.926158 0.36533868 0
4.5798569 -2.9522898 0.084172726 0
4.5371618 3.0166709 -0.124699 0
4.5844002 -2.6403303 1.3114924 0
3.5172641 4.162467 0.10464525 0
4.5494814 2.9344606 0.63392997 0
3.2861304 4.1661119 1.2492025 0
3.4602747 4.1672292 0.61681366 0
4.5535498 2.8773661 -0.84658206 0
4.549108 2.988251 -0.34016293 0
3.4459367 4.1559076 0.77136433 0
4.558742 -2.9709394 0.36520791 0
4.5511665 2.9655015 0.48602927 0
3.0281644 4.1652927 1.7959867 0
4.5564671 -2.3857563 1.8156044 0
4.5699816 -2.8997462 0.67599881 0
4.5618 -2.751514 1.17031 0
4.5786209 -2.9243417 0.48600578 0
3.3493471 4.1664376 1.0841379 0
-3.518455 4.131907 -0.5482232 0
4.5751867 -2.9495487 0.35992861 0
4.5695262 -2.9180083 0.60618377 0
-3.4327755 4.1428308 0.90395582 0
-3.0728388 4.1224842 1.8244042 0
4.5506487 2.9904137 0.34125018 0
3.1114085 4.1676607 1.6486874 0
4.569881 2.8587732 0.84447217 0
3.5168877 4.1617851 -0.28746074 0
4.5538726 2.8479624 0.96283066 0
4.5701776 -2.9791481 0.12126863 0
4.571569 -2.9801469 -0.0017596483 0
-3.1981087 4.1348228 1.5684428 0
-3.2460527 4.1282802 1.4868336 0
-3.3637681 4.13907 1.1649938 0
4.5458899 2.9617136 0.60649467 0
3.5068903 4.1524119 0.51993215 0
4.5683308 -2.6859879 1.3141387 0
3.5122881 4.1680307 0.33117938 0
3.5216355 4.1703839 -0.15695149 0
4.537303 3.0167756 0.36503911 0
4.5710487 -2.9471202 0.49679279 0
4.543808 2.9311311 0.76917875 0
4.5439663 2.7834642 1.1984959 0
3.2352057 4.1643581 1.4231782 0
3.5235453 4.173842 -0.026474714 0
3.0305839 4.1571937 1.8369603 0
4.5751305 -2.906759 -0.67893183 0
3.4275885 4.158639 0.89630926 0
4.5480485 3.0247245 0.12048483 0
3.4583015 4.1635323 0.74437535 0
4.5662365 -2.798044 1.0815322 0
-3.5403399 4.0427427 -0.98774993 0
3.5163164 4.1607509 -0.42105812 0
3.3458557 4.171555 1.1250975 0
4.5737362 -2.9817028 -0.25153017 0
4.5469751 3.0239305 0.24293888 0
3.519557 4.1666193 0.36156273 0
4.5683246 -2.977818 -0.37711769 0
3.5230446 4.1729355 0.23275387 0
4.5751309 -2.6839645 1.3212075 0
3.508533 4.1466546 0.6170727 0
-3.5312448 4.1396408 0.53329396 0
-3.544086 -4.0449357 -0.98875201 0
4.5676012 -2.5702078 1.5630188 0
-3.4285216 4.1369219 1.0226231 0
4.5506163 2.9903677 -0.51472491 0
3.5163088 4.1607366 0.48971987 0
4.5512781 2.991297 0.51016867 0
4.5812206 -2.9870751 -0.12757802 0
4.5783396 -2.9850073 0.2428118 0
4.5652246 -3.0108736 -0.17143136 0
4.5769815 -2.7476747 1.2004266 0
4.544817 2.9609435 0.72740006 0
4.5567837 3.0311863 -0.0039833784 0
4.5567675 2.5557349 1.6301353 0
4.5575318 2.9096558 0.84675527 0
4.5728331 -2.920311 0.72734916 0
4.5474615 3.0242901 -0.37954372 0
3.570796 4.1502995 -0.02679491 0
4.5685577 -2.9779851 0.48640299 0
-3.515718 4.1302519 0.74779344 0
3.1823666 4.1399674 1.6468663 0
-1.3422511 -5.2162819 -0.98510587 0
4.5572872 2.7351804 1.3186102 0
4.5547438 3.0296772 -0.25403863 0
3.4554358 4.1581621 0.8721925 0
4.5694394 -2.7857308 1.1676109 0
3.4491522 4.159338 0.90397274 0
3.4050159 4.1739359 1.0001507 0
3.2646298 4.1509185 1.4603698 0
4.5743036 -2.9490306 0.63259006 0
4.5562286 2.6597068 1.4822068 0
4.5542951 2.8482478 1.0850029 0
4.5453606 2.9829907 -0.68916464 0
3.2851453 4.1640582 1.3808594 0
3.3403292 4.1604452 1.2535195 0
4.5544777 2.8786302 1.0089006 0
4.5716567 -2.9020276 -0.85477996 0
-2.7865667 4.1491404 2.2532959 0
3.5196252 4.1667428 -0.55889457 0
4.573483 -2.904515 0.84406221 0
-3.520371 4.1330652 -0.77000093 0
4.5491667 2.7589324 1.3296926 0
4.5683947 -3.0153232 0.34071636 0
4.5771532 -2.8636842 0.96727991 0
3.5721133 4.1526065 -0.29116136 0
3.4235604 4.146421 1.0845895 0
4.575747 -3.0256429 -0.001365304 0
4.5633373 2.752358 1.3039627 0
4.5748329 -3.0243604 0.16996026 0
4.5697098 -3.0171692 -0.34578657 0
-3.4257431 4.1330633 1.1411979 0
3.5095687 4.1601624 0.70905614 0
4.5686808 -2.94573 0.7685082 0
-3.4964437 4.1185961 -0.98799491 0
3.3997056 4.1636329 1.1284525 0
3.5785449 4.1638703 -0.16046536 0
4.5530367 2.9365478 0.90397561 0
4.5538034 3.0289814 -0.51099199 0
4.5819607 -2.9876065 -0.51056027 0
4.5561628 3.0307271 0.48677027 0
3.3487139 4.1644201 1.274709 0
4.5728683 -3.0430846 0.1177839 0
4.5722237 -2.7446563 1.3233497 0
3.5782909 4.1634254 0.23177075 0
4.5588512 2.9105744 0.96908975 0
3.2335634 4.1625023 1.5537524 0
4.5419483 2.8615656 1.1746397 0
4.546762 3.0865207 0.11732852 0
4.567544 -3.0141292 -0.52039593 0
-3.3533359 4.132556 1.3773952 0
4.5570488 2.9993975 0.67983329 0
4.5441456 3.0845265 -0.25879318 0
4.5731907 -2.5761991 1.637166 0
4.5550499 2.3850808 1.94841 0
3.4469831 4.1570244 1.0366168 0
4.5497088 3.0887666 -0.0075339079 0
4.5782804 -2.9849646 0.60858428 0
4.5739188 -3.0438619 0.24118245 0
-3.4174547 4.1215506 1.2591488 0
4.5528355 2.9666996 0.85032809 0
4.5497599 2.8451848 1.2074997 0
3.5172861 4.1625066 0.7467587 0
4.5519409 3.0276041 0.60878479 0
-3.0472155 4.1355286 1.9672227 0
-3.5039554 -4.1231389 -0.99002171 0
4.5402145 3.0189292 0.73006248 0
3.5835509 4.1726375 0.10102963 0
4.5609045 -2.5667775 1.6953557 0
4.5609703 2.5668113 1.6953659 0
3.4568205 4.1607566 1.0021133 0
-3.2521505 4.1372838 1.6063409 0
4.5774479 -2.7601049 1.305089 0
4.5727768 -2.8607287 1.0893378 0
4.5710931 -2.6787827 1.4877901 0
3.5791225 4.1648822 0.36108017 0
4.5434923 3.1018541 0.16757917 0
4.5821772 -3.0499711 -0.0078616142 0
4.5415001 2.6408055 1.6454778 0
4.573699 -3.0227685 0.51084316 0
4.5464468 3.1061294 -0.005657196 0
4.5740538 -3.0439618 0.36424112 0
-1.2831531 -5.2632518 -0.98616803 0
4.5481458 2.9869003 0.84860349 0
4.5464344 3.086271 0.36418319 0
4.5727882 -2.9810219 0.73041248 0
4.5577579 2.7924931 1.3270357 0
3.5762463 4.1598449 0.49021852 0
4.5738292 -3.0437956 -0.38711578 0
3.5924592 4.1618266 0.33081484 0
4.5566192 3.094033 -0.13452089 0
4.5828094 -2.8088939 1.2092142 0
3.5802171 4.1667986 -0.42949921 0
4.544672 2.9608393 0.97185206 0
4.5716925 -2.9195168 0.97156811 0
4.55338 2.9067645 1.0912895 0
4.5888023 -2.9314315 0.85143399 0
4.5560141 2.7483375 1.4371896 0
3.0367124 4.1755295 1.9287369 0
4.5487194 2.9340136 1.0389047 0
4.5713587 -3.0419679 0.48710024 0
4.5839157 -3.0512569 -0.26109195 0
4.5880389 -3.0543072 -0.13472229 0
4.5506983 2.9904835 -0.87069416 0
3.5761251 4.1596322 -0.56464618 0
4.5391722 3.1242161 0.21581864 0
3.5898139 4.1545134 0.52044928 0
4.5732012 -2.9483833 0.90397632 0
-3.6114988 4.1354952 0.53989542 0
-3.6035929 4.1251526 0.66207504 0
3.1113427 4.1674147 1.8450496 0
4.5609989 3.0973711 0.24004006 0
3.6338379 4.1533475 -0.031004965 0
3.5169432 4.1618857 0.87619758 0
3.3987403 4.1617599 1.2598825 0
4.5486917 3.0879912 0.48726618 0
4.5360894 3.1422749 -0.1366238 0
4.5530863 3.1157362 -0.18111515 0
-3.4511514 -4.193635 -0.98815656 0
4.5749674 -2.3945723 1.9525671 0
4.572628 -2.7899456 1.3372517 0
-3.5266709 4.1368752 0.96451735 0
3.4541745 4.1557984 1.1320217 0
4.5492616 3.1102021 0.33955252 0
4.5566921 3.0940888 -0.39092398 0
3.6298683 4.1466208 0.36091113 0
4.5804653 -2.9140246 1.0142922 0
4.5455647 2.8423517 1.3317125 0
4.5506763 3.1122491 -0.35638237 0
4.5725589 -2.9808574 0.85330915 0
3.5124485 4.1684942 0.8995012 0
4.550725 3.0895407 -0.52007598 0
4.5513449 3.1318383 0.07451427 0
4.57337 -3.0223062 -0.70030916 0
4.546464 3.0235524 0.85380721 0
-2.8962278 4.1244125 2.2680461 0
4.5451632 2.9010427 1.2139182 0
4.545104 3.1279302 0.35369551 0
4.5722013 -3.1059086 -0.13762385 0
3.4247484 4.1500249 1.2762272 0
4.5762687 -2.8046117 1.3329639 0
3.3481765 4.1762209 1.391201 0
-3.2047925 4.1391301 1.7847872 0
4.5743389 -2.861784 1.2143471 0
4.5366001 3.1426759 0.3637166 0
3.5814257 4.1689153 0.61996055 0
4.5421314 2.9301467 1.1736245 0
4.54949 2.5609305 1.8273387 0
4.5696201 -2.9180739 1.0951362 0
4.5744467 -3.10762 0.1142832 0
3.6394908 4.1629262 -0.16518259 0
4.5846233 -3.0517807 -0.52126426 0
4.5720606 -3.1058018 0.2393111 0
4.5788803 -3.0300405 0.68180513 0
4.5672503 -3.1021354 0.36372638 0
4.5474801 3.1512165 0.11381567 0
4.5794559 -3.0479579 0.61057842 0
-1.2220733 -5.307539 -0.98662603 0
4.5496111 3.110708 0.51185811 0
4.5791478 -3.111203 -0.012078643 0
3.6387429 4.1616588 -0.29918575 0
-3.2512188 4.1359081 1.7250798 0
4.546052 2.7428682 1.5702548 0
3.4549453 4.1655178 1.1699476 0
4.5417309 3.0826864 0.733518 0
3.347558 4.1607375 1.4669123 0
4.5539999 3.092037 0.61089861 0
4.547513 3.1512423 -0.26724547 0
4.5805168 -2.7617893 1.4398 0
4.5491247 3.1525075 0.23876429 0
3.6445022 4.1714182 0.098444581 0
-3.0531969 4.1476331 2.0416627 0
4.5534773 3.1559243 -0.012945175 0
3.5912867 4.1585851 0.71040606 0
4.5718985 -3.0423672 0.73351049 0
4.5575514 2.7700155 1.502593 0
4.5513115 2.9913442 1.019887 0
4.5659781 -3.1011658 0.48764563 0
4.546454 2.867702 1.3463302 0
4.5782347 -3.110507 -0.26712447 0
3.6433322 4.1694355 0.22978687 0
-3.6090436 4.1322832 0.78287351 0
4.548171 3.1298509 0.4915359 0
3.2399282 4.1696944 1.6866224 0
4.5523996 2.9663868 1.0978248 0
4.5682778 -3.0151589 -0.87881219 0
4.5535336 3.1163838 -0.53510231 0
4.5697451 -3.1398423 -0.009242475 0
4.5680275 -3.1373575 -0.18434215 0
3.5803638 4.1670556 0.74980783 0
-3.4270611 4.1348934 1.3796835 0
4.567153 -2.6737261 1.6566606 0
3.6374362 4.1594443 0.49074876 0
3.5084596 4.1569533 1.0891495 0
4.5474238 3.0242624 0.97812057 0
4.5809326 -2.9529214 1.0397754 0
3.5206485 4.1685963 1.008028 0
3.2690709 4.1658096 1.6581793 0
-3.4055963 -4.268549 -0.98854089 0
4.572464 -3.1450629 0.071012497 0
3.6322832 4.1507125 0.62047362 0
-3.6927967 4.1319809 0.31575084 0
4.5769882 -2.9840372 0.97815275 0
4.576767 -2.9089875 1.1839576 0
4.54529 3.1494973 0.48787606 0
-3.6924405 4.1317725 -0.34766656 0
4.5730195 -3.1445811 0.16485727 0
4.5434952 3.1480882 -0.52814209 0
-3.2042427 4.1596141 1.8082232 0
-3.7031264 4.1380272 0.094957232 0
3.575335 4.1582489 0.87931883 0
4.5672922 -3.1418245 0.35125184 0
-3.5194149 4.1324873 1.1808534 0
4.5665398 -2.7818975 1.5060325 0
4.574275 -3.1461973 0.21097803 0
-3.7045503 4.1388607 -0.12658072 0
4.583787 -3.1147387 -0.39878893 0
3.6786506 4.1583652 0.21895075 0
4.5647335 -2.943413 1.1748462 0
-3.6069899 4.1295967 0.90395844 0
3.6450849 4.1724052 -0.43813771 0
-3.3558702 4.1341386 1.5942664 0
4.5738335 -2.8614421 1.3408523 0
4.5381918 3.2093143 0.11128402 0
-1.1582413 -5.3477712 -0.98606002 0
4.5428772 2.9795055 1.189862 0
4.5523458 3.1146653 -0.71497595 0
4.5647182 -3.1325686 -0.53892648 0
4.5744319 -3.1466248 0.33877969 0
4.5326643 3.139586 0.73593628 0
4.5755434 -3.0450637 0.85824847 0
3.6412964 4.1659856 -0.57488608 0
4.5471992 2.9626536 1.2225139 0
4.5739193 -3.1072183 0.61221123 0
4.5603604 3.1613276 -0.40109175 0
4.5540581 3.1335378 0.62894177 0
4.5454378 3.1496134 0.61238992 0
3.5897698 4.1543922 0.90059352 0
4.583559 -3.0366087 0.85394311 0
4.5790062 -2.5760496 1.8327909 0
4.5815701 -3.113049 -0.53046769 0
4.5726633 -3.1709855 -0.01594007 0
4.532835 3.0759068 0.98118448 0
3.405129 4.1741552 1.3976016 0
4.5678148 -3.1421516 0.48991561 0
4.5463009 2.9325938 1.3091536 0
3.6997535 4.1592026 -0.035784841 0
-3.6890197 4.1297698 -0.57126689 0
4.5576715 3.1223719 0.68512774 0
3.6989315 4.1578541 -0.1693365 0
3.4627199 4.1718116 1.2687984 0
4.5548234 2.9077699 1.3436725 0
4.5704756 -3.1692681 -0.27292001 0
-3.3503575 -4.3371034 -0.9865402 0
4.5785131 -2.9242666 1.2233005 0
3.1915026 4.1722836 1.8520026 0
4.5762239 -3.1737804 0.11061859 0
4.5537119 3.0918174 0.85955179 0
4.5468712 3.0238535 1.1035352 0
3.5191743 4.1659265 1.13978 0
4.5740476 -3.1720719 0.23710382 0
4.5421453 3.2264683 -0.014149547 0
3.6350393 4.1553831 0.75132632 0
-3.603632 4.1252046 1.0248361 0
4.5778122 -2.7603045 1.5744915 0
4.5483818 3.2175517 -0.14557564 0
4.5436063 3.1020191 -0.89406717 0
4.5804915 -3.1553934 -0.36468869 0
3.6863549 4.1661248 0.35582972 0
3.3417344 4.1421833 1.6578727 0
-3.4263439 4.1338973 1.4994447 0
3.4612036 4.1721935 1.3039365 0
3.702307 4.1633911 0.22846866 0
4.5521474 3.2205961 -0.017765343 0
4.5706334 -3.1693921 -0.40410691 0
4.5730743 -3.1713078 0.36290729 0
3.2347829 4.1638803 1.8179581 0
4.571167 -3.0418262 0.98279834 0
4.5664911 -3.1413229 0.62825882 0
4.5738301 -3.1071501 0.73704886 0
4.5504026 3.2191854 0.2365346 0
4.5830812 -3.1791639 -0.14608592 0
3.6822641 4.1793737 0.32998383 0
4.5753946 -3.0251479 1.0249832 0
4.5819578 -2.9876041 1.1048973 0
-3.2544188 4.1406326 1.8460414 0
4.5783801 -3.1523383 0.51274145 0
4.5677338 -3.1671157 -0.53639889 0
3.7087829 4.1740141 0.095356941 0
3.4553723 4.1580429 1.4000316 0
3.6870682 4.1668434 0.49331653 0
4.5407038 3.125175 0.90397811 0
4.5484705 3.2176232 -0.40704304 0
3.7009301 4.1611328 -0.44253808 0
4.5551715 3.1187541 0.85839975 0
3.7064812 4.1702385 -0.30738914 0
3.5815234 4.1690865 1.0128167 0
3.680316 4.1742196 0.52131987 0
-3.7127781 4.1436763 0.53605318 0
4.5575705 2.7491918 1.7069612 0
4.5460119 3.2322381 -0.37167835 0
4.5725303 -2.9201002 1.3494539 0
4.558064 3.225379 -0.27782899 0
4.5618286 2.5672507 1.9647646 0
4.5549188 3.2228365 0.36259472 0
3.6355867 4.156311 0.8828274 0
3.4499855 4.1602268 1.4364026 0
-1.0982504 -5.3939276 -0.98767507 0
3.6824462 4.1621881 0.63075626 0
4.5538378 3.2439163 0.16111898 0
4.5595031 2.7725956 1.6764255 0
3.5103626 4.1624594 1.2824311 0
3.4302411 4.1666856 1.4729357 0
4.5486412 2.9636886 1.35097 0
4.5744896 -3.1467078 0.68667817 0
4.5664492 -3.2321577 -0.020023406 0
4.5521817 2.8755033 1.5213795 0
3.7090473 4.174448 0.35978353 0
4.5633678 -2.7523746 1.707891 0
4.5724277 -2.9479296 1.3112733 0
4.5473042 3.2166808 -0.5403927 0
4.5805988 -2.9142065 1.3575447 0
4.5510569 3.2197144 0.48871851 0
3.7042806 4.1666288 0.49145651 0
-3.6966286 4.1342235 0.75604808 0
-3.3029237 -4.4107308 -0.98697805 0
4.552011 3.2411907 0.33763516 0
4.569315 -2.5710855 1.9663496 0
4.5464849 2.9327021 1.4449186 0
4.5768557 -3.1094563 0.86312473 0
3.5191712 4.1659207 1.2738214 0
4.5700212 -3.235045 0.10770333 0
-3.6062775 4.1286645 1.1460481 0
4.5578241 3.2498658 -0.19505805 0
-3.2021961 4.1374569 2.0022502 0
4.5709715 -3.2358134 -0.15017641 0
4.5634446 -3.2297285 0.36240327 0
-3.3190174 4.1305847 1.8198318 0
4.5860233 -3.181473 0.48878002 0
4.5735188 3.1457238 0.76600075 0
3.701601 4.1622334 0.62286019 0
4.5748587 -3.1465628 0.76596403 0
4.5484562 3.1090367 1.0315151 0
4.5780373 -3.1518424 -0.72540903 0
3.6783881 4.1691203 0.71250737 0
3.5925291 4.1620197 1.0931776 0
3.7614779 4.1562867 -0.039471567 0
-3.5203929 4.1330786 1.3999817 0
4.5449371 3.2818484 0.10680306 0
3.5778327 4.1626234 1.1448033 0
4.5799799 -3.1767292 0.61469138 0
3.7054572 4.1685591 -0.5843209 0
4.5832529 -2.988534 1.23276 0
4.5507298 3.239279 0.51372457 0
4.5553584 3.1574011 0.86463869 0
4.5479822 2.9866703 1.3652425 0
4.5521984 3.2206371 0.61498642 0
-3.1814609 4.1360865 2.0601811 0
-3.0325828 4.1257253 2.2931511 0
4.572926 -3.0216832 1.1980643 0
4.5750175 -3.239084 0.23487568 0
-3.7034988 4.1382451 -0.80110776 0
4.5705347 -2.787178 1.681325 0
3.7582517 4.1511607 0.35967684 0
3.2692747 4.1664934 1.8563256 0
4.5429449 3.2131567 0.74065053 0
4.5510263 3.2869172 -0.022823691 0
4.5717373 -3.1055551 0.98893142 0
-3.4300146 4.1389956 1.6208582 0
4.5734844 -3.1716304 0.74047661 0
4.5516686 3.24068 -0.55487299 0
4.5508833 3.2867978 -0.15283799 0
4.5543289 3.092288 1.1126819 0
4.5623693 3.0353184 1.2352247 0
-3.2460923 -4.4778023 -0.98505974 0
3.7538724 4.1470313 0.52133977 0
4.5741415 -3.1462047 0.86131895 0
4.5850301 -3.0520816 1.1127613 0
3.7686429 4.1676702 0.093070745 0
3.6383364 4.1609702 1.0162227 0
3.7604656 4.1637464 0.32974648 0
4.5498276 3.1308882 1.0413065 0
3.7638807 4.1724048 0.13711774 0
4.5710974 -3.1442075 0.90397918 0
4.567183 -3.2638309 0.33715951 0
4.5502391 3.1533823 0.99087286 0
3.692591 4.1724052 0.76710606 0
4.5720673 -2.9805048 1.3586969 0
3.770153 4.1700697 -0.17692184 0
3.2364666 4.1657829 1.9518814 0
3.7693882 4.1688542 0.22637391 0
-3.6913714 4.1311464 0.97664452 0
3.7625899 4.1580529 -0.44943023 0
4.5410233 3.0821471 1.2377756 0
3.7044261 4.1668673 0.75531077 0
4.5445342 3.2815135 0.48931468 0
4.5490818 3.2852983 -0.41706151 0
4.5701675 -2.9466026 1.4474835 0
3.4493718 4.1595721 1.5704937 0
4.5755959 -3.2763855 -0.019406676 0
4.5504937 3.2389266 0.6899662 0
4.5528836 3.2884629 0.36189556 0
4.5582709 3.2929471 0.23376393 0
4.5543499 2.7474236 1.8424149 0
3.7693872 4.1688528 -0.31359953 0
3.7628102 4.1584034 0.49187243 0
-1.0400653 -5.4433556 -0.99057925 0
4.5580087 3.2927289 -0.28612381 0
4.5777578 -3.2412994 0.48931789 0
4.5770993 -3.1504848 -0.90985274 0
4.5757008 -3.2765415 -0.19900084 0
4.5573483 -3.2248006 0.74227095 0
4.5504866 3.0265281 1.3612866 0
4.5839949 -3.2463417 -0.41758931 0
3.6787264 4.1700149 0.90457511 0
4.5915489 -3.2524486 -0.28619868 0
4.576231 -2.9082577 1.5307608 0
3.519897 4.1672349 1.4104452 0
-3.3640342 4.139236 1.8158448 0
4.5766931 -3.2404387 -0.55051875 0
4.550868 3.239485 -0.738608 0
4.5715365 -3.2362702 0.61628962 0
4.5786295 -3.2809122 0.15878499 0
4.5461226 3.1056597 1.2065136 0
4.5775137 -3.0465214 1.239574 0
-3.4221101 4.1280169 1.7401054 0
4.5483046 3.2846518 -0.55215114 0
4.5739021 -3.2738574 -0.37961346 0
4.5657568 -3.2991779 0.23325348 0
3.6346371 4.1547017 1.1490154 0
-3.6136675 4.1383314 1.2682731 0
3.6884863 4.1682715 0.90397775 0
4.5487666 3.2178628 0.86863136 0
4.5439959 3.1484811 1.1177762 0
3.5100183 4.1614628 1.4769344 0
3.7619958 4.1571093 0.62429869 0
4.5417995 3.3289404 0.34376872 0
3.3434656 4.1476989 1.8573275 0
4.550561 3.3347831 0.059123278 0
-0.9683485 -5.4708576 -0.98686886 0
-3.8037372 4.135468 0.53158152 0
4.5733042 -3.3054602 -0.15745836 0
-3.1949267 -4.5487309 -0.98501277 0
4.5541306 2.9371898 1.5822973 0
4.5778723 -3.1102304 1.1184356 0
4.5845094 -3.1802847 0.86918902 0
4.5505075 3.2864852 0.61710656 0
4.5531201 2.8767812 1.6977875 0
4.5453501 3.3509018 -0.02736032 0
4.5335846 3.3408201 -0.42259872 0
3.7674766 4.1658173 -0.59244776 0
4.551219 3.1317596 1.1788599 0
4.5452781 3.3508401 -0.15870458 0
3.5846949 4.1746407 1.282984 0
4.5726471 -3.0212922 1.3735054 0
4.573144 -2.7577419 1.8459399 0
4.5795374 -3.3106482 -0.027378321 0
3.8270502 4.1576962 -0.043954968 0
3.758719 4.159318 0.71354485 0
4.5765533 -3.1476238 1.0420413 0
3.430922 4.1687517 1.6700187 0
3.7080393 4.1727943 0.88913918 0
3.5947762 4.1682315 1.2877507 0
4.5806675 -3.311589 0.10273576 0
4.5512524 3.2400587 0.86698079 0
4.5727882 -3.3050306 0.36144352 0
4.5773182 -3.2789552 0.5145582 0
4.5584507 3.3400447 0.20023203 0
4.5709229 -3.3034778 -0.42362201 0
4.5775757 -3.3090153 -0.29107231 0
4.5794773 -3.1539261 1.0382149 0
4.5686789 -3.3016102 0.48986304 0
4.5465698 3.3653677 0.15601587 0
4.5773225 -3.2789624 -0.56383061 0
-3.870172 4.1288223 0.08761096 0
4.5411892 2.7401986 1.9766011 0
3.8276668 4.1586456 -0.31803095 0
3.8301582 4.1624813 0.22493947 0
4.5496273 3.3341608 0.48369622 0
4.5502062 3.2862346 0.7451967 0
-3.6106863 4.1344323 1.3898695 0
3.6765833 4.1643453 1.0970254 0
4.5801163 -3.176836 0.99688876 0
4.5516329 3.3562856 -0.29314834 0
3.8279066 4.1590152 0.35890627 0
-3.8735695 4.1307459 -0.13904172 0
4.5581017 3.3618286 0.10140812 0
4.5710354 -2.9471121 1.5845892 0
-3.8089075 4.1418433 0.65555048 0
4.5516376 3.3731697 -0.025320172 0
4.5526738 3.2421796 -0.92648304 0
3.6909335 4.1707363 1.0407951 0
-3.8656368 4.1262536 -0.3657583 0
4.5397987 3.1246085 1.3157313 0
3.8337989 4.1680861 -0.18208784 0
4.5376673 2.9275267 1.7169092 0
4.569375 -3.2671025 -0.74628329 0
4.5735989 -3.2734053 0.69214129 0
3.5767987 4.1608119 1.41641 0
4.5400352 3.2777689 0.87246764 0
4.5495634 3.0886555 1.3710845 0
4.5573535 3.3611872 0.23149312 0
4.5542808 3.2223206 0.99817705 0
4.5558128 2.9976623 1.5447235 0
4.5480261 3.3676102 0.33583164 0
3.7050722 4.1679273 1.0226049 0
4.5797362 -3.0481653 1.3710353 0
3.6748159 4.1545029 1.1766946 0
4.5522041 3.3740413 -0.20740461 0
4.5372224 3.3439374 0.6185174 0
3.8378248 4.1742835 0.089322567 0
-0.90449095 -5.5111389 -0.987468 0
4.570796 -3.1440189 1.1799366 0
4.5481782 3.3678443 -0.38979506 0
-3.6954436 4.1335301 1.1994939 0
-3.8749065 4.1315031 0.3130002 0
3.8472257 4.1678739 0.13570619 0
3.6378462 4.1601396 1.2862494 0
4.5400887 3.3553898 -0.572245 0
3.7569966 4.154952 0.90581274 0
4.5757084 -3.3515534 0.19780779 0
4.5465412 3.2330282 1.0439692 0
-3.5298362 4.1387892 1.6235509 0
3.7620125 4.157136 0.89099479 0
4.5785484 -3.3098249 -0.56269473 0
-3.8069487 4.1394281 0.7798959 0
4.5743427 -3.3063245 0.61873186 0
4.5797658 -3.2429228 0.87352586 0
4.5538635 3.3581967 0.49030268 0
4.553638 3.1560504 1.2505186 0
4.5491161 3.3541286 -0.56432909 0
3.4589772 4.1698184 1.7073755 0
4.5545893 3.3374693 0.62376678 0
-3.149384 -4.6238961 -0.98688018 0
4.5766239 -3.1740947 1.1258392 0
4.5851912 -3.1158087 1.2505965 0
4.5640869 3.3669569 0.36086214 0
3.5888255 4.1517811 1.4802678 0
-3.7994871 4.1302276 0.90396178 0
-0.83221126 -5.5365844 -0.98378527 0
4.5761037 -2.9080842 1.7081933 0
4.5781651 -3.3531923 0.33968878 0
4.5869617 -3.3590586 0.052974224 0
4.5495162 3.2184689 1.1270924 0
-3.6059074 4.1281805 1.5114205 0
3.77775 4.1821394 0.75982487 0
3.8365407 4.1723065 -0.46140039 0
-3.4285231 4.1369238 1.8642533 0
4.5758944 -3.3770742 -0.032299161 0
3.7016382 4.1622939 1.1569805 0
4.5780377 -3.1518428 1.215405 0
4.5728621 -3.2723062 0.87037694 0
3.8507967 4.1765609 0.32894993 0
3.8372188 4.1733508 0.49279201 0
4.5489693 3.3337221 0.76410711 0
4.5733151 -3.3748641 -0.29869843 0
4.5757885 -3.3516068 0.481498 0
-3.8775167 4.1329813 0.53845203 0
4.547492 3.423207 0.098585367 0
4.5558596 3.1197503 1.3872976 0
4.5545435 3.3776429 0.51577711 0
3.7590384 4.1524105 1.0250168 0
3.631515 4.1494112 1.4211292 0
-3.8744297 4.1312332 -0.59683239 0
4.5443997 3.3500874 0.74841309 0
4.573534 -3.3750515 0.36064506 0
4.5669546 -3.3457162 0.62307477 0
4.5353727 3.3246546 0.90398109 0
4.5723886 -3.1060517 1.3787744 0
4.5663614 -3.141242 1.3179243 0
4.5817547 -3.3820958 -0.16631269 0
4.5831528 -3.3832941 0.098521948 0
3.8479733 4.1696925 0.52232027 0
3.4258204 4.153276 1.8655093 0
4.5502262 3.4256182 -0.16706669 0
4.5715718 -3.2703807 -0.9355793 0
4.5782185 -3.2416718 1.0030522 0
4.5784311 -3.3097277 0.74840951 0
3.8947825 4.1604319 -0.048815548 0
4.5529776 3.4280448 -0.034281731 0
4.5825644 -3.3827896 0.22975314 0
4.5711393 -3.4031923 0.15365195 0
4.5496278 3.285753 1.0039792 0
4.5758557 -3.0257957 1.5526981 0
-3.3248577 4.1364455 2.0834398 0
4.5777721 -2.7602825 1.9844639 0
4.5625029 -3.2289677 1.1303384 0
4.5486698 3.3686011 0.6955862 0
3.8277736 4.1588101 0.76046312 0
-5.5187273 1.0539654 -0.98605716 0
4.5766087 -3.3776863 -0.43567944 0
4.548954 3.4244959 0.36040258 0
4.5715227 -2.9473979 1.7224283 0
4.5759954 -3.4106672 -0.029232144 0
4.5484614 2.9873433 1.7210608 0
4.5557017 3.4304478 0.22917688 0
3.8391819 4.1763725 0.62732852 0
-3.0952125 -4.6927023 -0.98656201 0
3.6782694 4.1688056 1.2924232 0
3.5142632 4.1737447 1.6772659 0
4.5756035 -3.1732936 1.2569656 0
4.5475092 3.1294365 1.454529 0
3.8413377 4.1796913 -0.60624206 0
-3.8613558 4.1238298 -0.82630181 0
-3.4749575 4.1392846 1.8425698 0
3.8445992 4.1614842 0.71533155 0
-3.3642974 4.1394005 2.0392065 0
3.8961987 4.1625452 -0.32600027 0
-5.5058999 1.1575869 -0.98399675 0
-5.526176 -1.054072 -0.9875052 0
4.5498152 3.4252555 -0.43821645 0
4.5568781 3.4314852 -0.30350822 0
4.5554299 3.1574571 1.3836076 0
3.9022217 4.1715336 0.086420536 0
4.5418296 3.4182124 -0.57412171 0
4.5631943 -3.4370561 0.096753716 0
-3.8056097 4.1377769 1.0279791 0
3.6855872 4.1653514 1.3144932 0
4.5761251 -3.3772721 -0.57385963 0
3.454695 4.1652508 1.842474 0
-3.1848397 4.1395764 2.3240056 0
4.5779991 -3.3093681 0.87853253 0
4.5798435 -3.4165919 -0.21363467 0
4.570652 -3.1411555 1.3923552 0
4.55056 3.2390249 1.2243721 0
4.5839357 -3.3839645 0.49099398 0
4.5484276 3.3535385 0.8792578 0
4.5678501 -3.4411628 -0.0367167 0
4.5777879 -3.4134271 0.33487797 0
4.5743818 -3.3506691 0.76339698 0
3.9239266 4.1596489 0.19835687 0
-3.6935453 4.1324191 1.4234974 0
4.5355482 3.4861157 0.15099549 0
4.5568027 3.2243593 1.2609167 0
3.9020371 4.171258 0.3580153 0
4.5553989 3.3789604 -0.76606202 0
3.9068475 4.1784358 -0.18982804 0
4.5719585 -3.4044535 0.51633513 0
3.7628698 4.1698413 1.1014719 0
4.5778198 -3.4134767 -0.39841348 0
3.9068251 4.1784024 0.22203016 0
-0.7731564 -5.5855989 -0.98763359 0
3.8974442 4.1644044 0.49324059 0
-3.6096735 4.1331072 1.635246 0
4.5798979 -3.3805046 0.6214627 0
3.7057948 4.1691127 1.2960956 0
4.5768604 -3.2782729 1.0506568 0
4.5487142 3.3686693 0.87625051 0
4.5533476 2.9367299 1.8576412 0
4.5513821 3.2872131 1.1358478 0
4.5731544 -3.4458406 -0.17190886 0
4.5432281 3.3298931 1.0436952 0
4.5549231 -2.9376552 1.8579416 0
4.5390253 3.4916394 -0.21869791 0
-3.8006687 4.1316843 1.1517651 0
4.5727205 -3.4056256 -0.58388901 0
4.5619068 3.4359202 0.49129879 0
4.5719013 -3.4447358 -0.30740207 0
3.7657375 4.1630545 1.1636677 0
4.5517912 3.1138623 1.5661507 0
3.9336438 4.1685243 0.13392293 0
4.5413752 3.2118878 1.3897498 0
-3.8914218 4.1408553 0.76506877 0
-3.0398479 -4.7605309 -0.98617733 0
4.5444574 3.4927232 -0.17347318 0
4.5341549 3.483371 -0.44446909 0
4.554482 3.4293718 0.62213778 0
4.5449357 3.3505466 1.0100331 0
3.9316978 4.1639757 0.32860637 0
-5.5310664 -1.1583076 -0.98889065 0
3.8356438 4.1709261 0.8972919 0
4.5745678 -3.1724808 1.3901269 0
3.9058609 4.1769638 -0.47111195 0
4.545022 3.4210281 0.75252628 0
3.9312918 4.1666532 0.33945417 0
-3.5243907 4.1354961 1.8469348 0
4.5784202 -3.3097181 1.0099125 0
4.549921 3.4976835 0.094081998 0
4.5782838 -3.3791215 0.75231695 0
4.5802374 -3.4520881 0.22746241 0
-5.5121727 -1.2617466 -0.98593962 0
3.6800621 4.1597867 1.4512944 0
3.95964 4.1569948 0.084645748 0
4.5690861 -3.4422524 0.49146593 0
3.8994985 4.1674695 0.62867999 0
3.6968508 4.1544409 1.4312904 0
4.5773478 -3.4495394 0.35974169 0
4.5495815 3.497375 0.22707701 0
4.5504742 3.3713782 -0.95505476 0
3.9274685 4.1630173 0.48149145 0
-0.70304203 -5.6144452 -0.98560762 0
4.5533361 3.5007834 -0.040270209 0
4.5336847 3.323529 1.1830263 0
3.9021678 4.1714525 -0.61337602 0
4.5686116 -3.3708339 0.88252151 0
3.8478942 4.1694994 0.90996432 0
4.5741115 -3.4077671 0.69803381 0
4.5803089 -3.1499755 1.4581435 0
4.5496683 3.4974539 -0.31101471 0
4.5455027 3.5019305 0.33388007 0
4.5764952 -3.4487875 -0.44642961 0
3.5920618 4.160728 1.6804214 0
4.5500679 3.1310387 1.5936453 0
-5.5210853 1.2621295 -0.98767364 0
4.573482 -3.0224638 1.7326155 0
4.5524292 3.5129359 -0.035659552 0
4.3551979 3.6240151 -0.98563242 0
4.5447946 3.5008061 -0.40724868 0
4.3556461 -3.624799 -0.98587441 0
4.5830889 -3.3564754 0.90398276 0
3.9323478 4.1654949 0.52282238 0
3.9637537 4.1629477 0.22102118 0
4.5796113 -3.2427979 1.2676878 0
3.677345 4.1663604 1.4888945 0
4.5468521 3.365802 1.0575981 0
-3.8793602 4.1340251 0.99102378 0
4.5463629 3.494453 0.4917779 0
-2.9801493 -4.8247657 -0.9847821 0
4.5489683 3.2366502 1.4053299 0
3.7629519 4.1586285 1.300987 0
3.8342743 4.1688175 1.0336261 0
3.760622 4.1641431 1.2964334 0
-3.6076937 4.1305175 1.7586188 0
4.5286055 3.5520082 0.22594607 0
3.9304254 4.1658292 0.62238622 0
4.5454774 3.5018909 0.517519 0
4.5420685 2.93011 1.9944148 0
3.971209 4.1737356 -0.055445731 0
4.5462561 3.3516784 1.1431718 0
4.5778055 -3.3092065 1.1425304 0
3.9021749 4.1714635 0.76497209 0
3.9613304 4.159441 -0.47497243 0
-3.9939461 4.122426 0.52375758 0
4.5783911 -3.4143555 -0.77580643 0
4.572957 -3.349719 1.0445282 0
4.5794406 -3.4513853 -0.58755934 0
3.9713073 4.1738782 -0.19497544 0
-5.5138474 -1.3659508 -0.98727906 0
3.8926239 4.1572108 0.89973927 0
-0.63447332 -5.6458988 -0.98468196 0
4.5449934 3.4932103 0.62399817 0
3.512831 4.169601 1.8771119 0
3.9679909 4.1690788 0.35739899 0
-5.5159025 1.3660686 -0.98767912 0
4.5531387 3.4281871 0.88570797 0
4.5496092 3.5454826 0.042451382 0
4.5474348 3.5439413 0.18778694 0
3.4589422 4.1697812 1.9806676 0
4.5689807 -3.5149851 0.22570395 0
4.5808506 -3.2842267 1.2329903 0
4.5731497 -3.4062865 0.88017499 0
3.9707503 4.1730719 -0.33584523 0
4.5693274 -3.2344844 1.3993807 0
4.5651965 3.5115497 0.35917795 0
-3.8094263 4.1424828 1.2769759 0
4.5628099 3.296725 1.2725849 0
4.5736189 -3.5191956 0.091281891 0
4.5826874 -3.4542489 0.62410867 0
3.9265006 4.162097 0.76338649 0
4.5444908 3.1032994 1.7458839 0
4.5461884 3.543057 0.33210397 0
4.5729761 -3.3745737 1.0158815 0
4.5761032 -3.5214505 -0.044045568 0
3.8291721 4.1609626 1.1699679 0
3.932992 4.1670003 0.71739018 0
4.5545716 3.501905 -0.59162021 0
4.5493846 3.5080988 -0.59822702 0
4.5773907 -3.1509068 1.5765464 0
4.5436444 3.4989789 0.70120096 0
3.9685493 4.1698866 0.49401796 0
4.5426202 3.4910557 0.75645518 0
4.576973 -3.147887 1.5973573 0
4.5714836 -3.4037216 -0.96538901 0
4.4223986 3.5895631 -0.98668921 0
3.8485475 4.1710896 1.1055441 0
4.5477448 3.4234295 1.0179424 0
4.5451498 3.1279593 1.7324219 0
4.5469036 3.569103 -0.18195343 0
3.6849053 4.1646647 1.5900464 0
4.572257 -3.3045883 1.2754228 0
4.5802431 -3.4520934 0.75663507 0
4.5823736 -3.5271425 -0.18158382 0
