# .PCD v0.7 - Point Cloud Data file format
VERSION 0.7
FIELDS x y z intensity
SIZE 4 4 4 4
TYPE F F F F
COUNT 1 1 1 1
WIDTH 1441
HEIGHT 1
VIEWPOINT 0 0 0 1 0 0 0
POINTS 1441
DATA ascii
2.4591272 3.9206605 1.1313725 0
2.6271172 3.9132392 0.69623256 0
-2.3267937 3.9046052 1.4290819 0
4.3577781 1.906266 0.27980852 0
4.3646317 1.9087729 -0.11682928 0
4.3752384 1.8086848 0.54356086 0
4.3908291 -1.5870939 0.95499825 0
4.3905282 -1.7449121 0.62367237 0
4.3656507 1.9091456 0.082866311 0
4.3715916 1.8033736 -0.59421241 0
4.3804979 1.8127046 0.49236548 0
4.3684111 1.8800519 -0.32461387 0
4.3790379 -1.5004042 1.1395152 0
4.3655663 1.6609936 0.95380116 0
-2.34483 3.903928 1.4112298 0
4.3851776 -1.7481492 0.66714346 0
4.3765659 1.8706284 0.2795105 0
-2.4776649 3.8894467 1.2107022 0
4.3818817 -1.8141537 0.49240041 0
4.3767576 1.5044868 1.1467774 0
4.3808889 -0.48673618 1.8186064 0
4.3780956 -1.8290524 0.47418082 0
4.3810816 0.48675564 1.8186431 0
4.3739252 1.5830261 1.0503409 0
2.6752717 3.9188793 0.48001468 0
4.3859587 -0.7694959 1.7088923 0
2.7213788 3.9164972 -0.069020629 0
4.3856549 -1.8738062 0.082014918 0
4.3784666 -1.8908927 0.086697459 0
4.3661604 1.3461846 1.3708708 0
4.3859177 -1.873898 -0.11844206 0
4.3748293 1.7450225 0.76322258 0
4.3645029 1.6431131 1.0096722 0
4.3732691 1.2001255 1.484997 0
2.535074 3.9116182 1.0215921 0
4.3674116 0.62543774 1.8190765 0
-2.6194916 3.8853536 0.9039371 0
2.6776748 3.9173248 0.51221025 0
4.3879223 -1.8204825 -0.45852906 0
4.3813663 -1.8723068 0.27924395 0
-2.6968699 3.8117723 -0.98976314 0
4.3776712 1.8900356 0.2226907 0
4.3792 -1.8916833 -0.18818146 0
4.3628416 1.7824941 0.76317883 0
4.3766909 1.8706722 0.37700737 0
4.3822255 -1.8949454 -0.050746381 0
4.3860583 -1.8739471 -0.22061956 0
4.3906145 -1.6677852 0.86011636 0
-2.6985288 -3.8128414 -0.99029195 0
-4.3361716 1.7375007 -0.98960364 0
4.3745203 -1.9123899 -0.11887598 0
2.4906435 3.9148571 1.1315951 0
4.3667545 1.8782659 -0.46489573 0
2.6044893 3.9108427 0.85758924 0
4.3606091 1.7000215 0.95491052 0
4.3913608 -1.7915579 0.57131338 0
4.390029 -1.8753355 0.18040586 0
-2.6353722 3.8616724 -0.98329997 0
2.7240653 3.9246466 0.041123629 0
4.3794861 -1.2016723 1.4857461 0
4.3653312 1.8247938 0.66751969 0
4.3864841 -1.5065347 1.1494408 0
4.3799562 -1.7055659 0.86009765 0
2.6410131 3.9252667 0.67121339 0
4.3646851 1.9087923 0.37698066 0
4.3820496 -1.7472041 0.76414871 0
4.3878441 -1.5205054 1.129143 0
-2.5535445 3.8968124 1.0654459 0
4.3906727 -1.6690037 0.88293338 0
4.3816977 -1.7884868 0.66789746 0
4.3774366 -1.6642121 0.95619178 0
4.3817844 -1.4450536 1.2483594 0
4.3794804 -1.9142041 0.081058264 0
4.3635368 1.4955881 1.2564797 0
2.110281 3.9233181 1.7351947 0
2.7240632 3.9246399 -0.1831218 0
4.3775425 1.9134953 0.18031013 0
2.5345464 3.9209058 1.0316086 0
2.4523113 3.9114747 1.2445924 0
4.3990145 -1.836032 0.37683415 0
4.3716593 0.90974802 1.7105262 0
4.3907967 -1.8145165 0.54239941 0
4.3807497 -1.8299379 0.57140756 0
4.3883934 -1.7427385 0.75592518 0
4.3690524 1.8807435 0.49309349 0
-4.3099642 1.8223679 -0.98626482 0
4.3798122 -1.8923438 -0.32787275 0
4.3775434 1.9134955 -0.22184348 0
4.3811984 1.8134382 0.62591219 0
4.3825254 1.9153179 -0.019379973 0
4.3741589 1.370327 1.3656163 0
4.3882837 -1.8747253 -0.32506019 0
4.3844843 1.7068634 0.86084354 0
4.3942251 -1.6589355 0.90395617 0
2.721246 3.9160945 0.37118566 0
4.377636 1.8095834 0.66379082 0
2.6758671 3.9207757 0.58888078 0
2.7230678 3.9216201 -0.29667199 0
4.3623371 1.9506586 -0.22156012 0
4.3853846 -1.8737116 0.37684667 0
4.3834777 -1.9156662 -0.019540608 0
4.3725538 1.726613 0.88637388 0
4.3924122 -1.3198543 1.3604345 0
4.3951521 -1.6284268 0.95774937 0
2.2509584 3.9237683 1.5569816 0
2.6278963 3.915853 0.80570948 0
2.583492 3.9216053 0.91480184 0
4.3645444 1.9582801 0.083168268 0
2.7206531 3.9142964 -0.41062981 0
4.3759203 1.6235065 1.0530396 0
4.3752537 -0.91042608 1.7111275 0
2.7243395 3.9254782 0.26150644 0
4.3734465 -1.7858644 0.76454508 0
-2.2150378 3.9109561 1.6442337 0
4.3756404 -1.6541321 1.0121536 0
4.3814192 -0.62725633 1.8217378 0
4.382072 -1.5451679 1.150491 0
4.3597999 1.9496891 -0.32479233 0
4.3741484 1.5791862 1.135057 0
4.3630543 1.8742769 -0.60648131 0
4.3915715 -1.5872725 1.0545311 0
4.364459 1.8046442 0.78426623 0
2.7267196 3.9326978 0.15093303 0
-2.3399458 3.8938653 1.5123367 0
4.3822603 -1.811317 0.66356087 0
4.3762407 1.6527767 1.0227113 0
4.3666573 1.9648337 0.048854947 0
-1.8735142 3.9030054 2.0474815 0
4.3707724 1.9538813 -0.12101823 0
4.3758125 -1.5807855 1.1355057 0
-4.3169394 -1.8233731 -0.98789179 0
2.6366365 3.9197087 0.78781044 0
4.3728352 1.9546697 -0.02012527 0
4.3850355 1.5458364 1.151305 0
2.4639738 3.9264557 1.20644 0
4.3703852 1.9537337 0.17966366 0
4.3836226 1.8730956 0.47452068 0
-2.0873919 3.8941853 1.8515048 0
4.3665085 1.960459 0.22036159 0
4.3810196 -1.3763783 1.3680677 0
4.3807478 -1.9146676 -0.32676327 0
4.3854265 -1.8983963 0.35788608 0
4.3838148 -1.9157896 0.2783556 0
2.7672648 3.9124095 0.040850401 0
4.3674707 1.9651656 0.17262578 0
2.7624536 3.8984885 0.37124681 0
4.3790178 1.7462881 0.86177611 0
2.7211661 3.9158523 0.48020971 0
4.3911514 -1.8238649 -0.60180283 0
4.3743315 1.8062441 0.75906086 0
4.3711557 1.9656157 -0.056233287 0
4.3861141 -1.8739666 0.4745667 0
-2.6492238 -3.8708832 -0.98775721 0
4.3760786 1.5835443 1.1512611 0
-2.6953869 3.9015796 0.70506132 0
4.3766174 -1.4996523 1.2574379 0
2.5343308 3.908838 1.1327848 0
-2.2058234 3.8984234 1.7093732 0
2.3918822 3.919553 1.3806 0
4.3904409 -1.3529712 1.3732255 0
-2.301897 3.897949 1.5813043 0
-2.183517 3.8986454 1.7415218 0
2.6779976 3.9190061 0.68553162 0
4.3910818 -1.823792 0.62666237 0
2.768363 3.9155865 -0.071264446 0
4.3945837 -1.9082687 0.22138739 0
2.6753163 3.9190216 0.69795036 0
4.371501 1.95416 0.27825582 0
-2.478416 3.8908873 1.3136287 0
2.2833214 3.9135296 1.5749369 0
4.3927193 -1.9190464 0.17889631 0
4.3772879 -1.8093414 0.75943553 0
4.3846636 -1.6556612 1.0229187 0
4.3858824 1.9165456 -0.32822824 0
4.3709869 -0.7671138 1.8235598 0
4.3769455 1.5103235 1.2577455 0
4.3703327 1.8264624 0.76572537 0
4.3973284 -1.0594374 1.6013973 0
2.1211491 3.9160295 1.7864485 0
2.7502446 3.9179795 0.33893073 0
4.3839512 -1.7382164 0.88837099 0
4.3760691 1.6638414 1.0554452 0
4.3697157 1.8682334 0.66911137 0
2.768466 3.9158847 -0.18427038 0
4.3817887 -1.9580908 -0.0216434 0
4.3726273 0.76737469 1.8238726 0
-2.6868424 3.8958979 -0.80258119 0
-2.421566 3.894824 1.4172082 0
4.3828602 1.872829 0.57223892 0
4.3813343 -1.957917 -0.12321603 0
4.37784 -1.6643214 1.0558689 0
2.5818915 3.9159439 1.024816 0
4.3915443 -1.6275038 1.0567627 0
4.3835735 -1.8730786 0.5722785 0
4.370337 1.4346616 1.3763485 0
2.6313796 3.9130332 0.90395224 0
2.7201061 3.9126377 0.58918488 0
4.3780613 -1.913685 0.47466791 0
-4.2943449 -1.9085151 -0.98567712 0
4.3747072 1.9695563 -0.19680411 0
2.6272616 3.9137242 0.91553688 0
4.3680944 1.9622192 0.3572681 0
2.4507694 3.9363747 1.2480366 0
4.3785119 1.9138498 0.47467625 0
4.3661938 1.7201381 1.0185032 0
4.3793764 -1.9571691 -0.22577137 0
4.3871198 -1.9169984 0.37656367 0
4.3771667 -1.9563246 0.27793801 0
2.7677293 3.9137537 -0.29824972 0
4.3729324 1.8849266 0.62834406 0
4.368309 -1.9962335 0.078744411 0
4.3867564 -1.8998303 -0.47168618 0
4.3640022 1.9637506 0.41852164 0
4.3626719 1.0518627 1.7137394 0
-2.6249585 3.8951442 1.0077906 0
4.3557768 1.9912386 0.37661219 0
4.3978701 -1.9209304 -0.22684038 0
4.3668938 -1.645479 1.1430447 0
4.3665915 1.6494722 1.1411204 0
4.3688183 1.1990181 1.6019588 0
4.3741732 1.9678994 0.29488695 0
4.359911 1.9070461 0.66944718 0
4.3870697 1.9601085 0.078211308 0
2.179842 3.9159133 1.7347496 0
4.3832755 -1.5162373 1.2597456 0
2.6731825 3.9122233 0.80691051 0
4.3725352 1.9671462 -0.33764929 0
4.3625469 1.8039274 0.90395677 0
4.3856153 -1.9595528 0.17823732 0
4.3811331 -1.9707388 0.17055225 0
4.3709154 1.9972725 -0.12411094 0
4.3691158 1.6476772 1.1436522 0
4.3637381 1.8242623 0.86321056 0
4.3792191 1.787699 0.86374843 0
2.3203719 3.9135768 1.556417 0
4.3768139 1.9561899 0.37649262 0
4.3739996 1.9985018 -0.022821426 0
4.3622189 1.7822962 0.95983589 0
4.389451 -1.9027352 0.49361706 0
4.3739944 1.9984996 0.077992916 0
4.3833008 -1.9790912 0.080717087 0
4.3956122 -1.8348968 0.67031252 0
4.3781729 1.6240829 1.154423 0
2.4921904 3.9209945 1.2466688 0
2.772877 3.9286475 0.14997697 0
4.3787532 1.7462081 0.96082902 0
4.3869419 -1.8130718 0.78370798 0
4.3808756 -1.8934898 -0.61350298 0
4.3742599 1.7039335 1.057529 0
2.749804 3.9158504 0.51243126 0
4.3838658 -1.8309777 0.76747704 0
-4.3051715 1.910234 -0.98820806 0
4.3787193 1.9139256 0.57275987 0
4.3837662 -1.9588463 -0.33166689 0
4.3702888 1.9970226 0.27749825 0
4.3950791 -1.7098997 0.96188056 0
4.3940964 -1.5878801 1.1562269 0
2.7721148 3.9264417 0.26065767 0
4.3989944 -1.7523235 0.86508143 0
-2.6849699 3.8946528 0.89096665 0
4.384738 -1.789453 0.86466563 0
4.3688812 1.6618923 1.1545966 0
2.6762104 3.9096954 0.85862923 0
-2.8270168 3.8956525 0.14073706 0
4.3741827 -1.0543785 1.7156765 0
4.3852701 -1.8736718 0.67055297 0
-2.43854 3.8953102 1.4394288 0
2.4544165 3.9143119 1.3590469 0
2.8138232 3.9092443 0.039310694 0
4.3749537 1.8068962 0.89366066 0
4.3764138 1.956037 0.47489989 0
4.3765526 -1.9688702 0.41725647 0
4.3778534 1.3494529 1.4899745 0
2.6057591 3.91801 1.0327218 0
-2.5481749 3.8931298 1.2499011 0
4.3772564 1.9998 -0.228894 0
4.3681746 -1.4970288 1.3750384 0
4.378499 -1.3496335 1.4900532 0
4.3693972 1.8811152 0.76353574 0
4.3986416 -1.9645298 0.076690316 0
-2.8317862 3.8987262 -0.050508738 0
4.3798265 -1.6540049 1.1417725 0
4.3865218 -1.7485552 0.9624064 0
4.3785944 -2.0003333 -0.22922653 0
4.3955698 -1.9766277 0.043723106 0
2.5801458 3.9097698 1.135797 0
4.3755693 -1.87028 0.76807308 0
2.5341878 3.9186971 1.2069302 0
4.3727164 1.9673474 0.49425232 0
4.3674564 2.0396698 -0.024318933 0
-2.6063194 -3.9330051 -0.98754573 0
-2.8234177 3.893333 0.33086419 0
4.382473 -1.706287 1.0595016 0
4.388104 -1.9605036 0.37628162 0
-2.3397694 3.8935015 1.6153574 0
4.3747025 1.9987819 -0.33329517 0
4.3768349 1.8707225 0.76823783 0
4.3657522 2.0447154 0.077444434 0
2.7650843 3.9061003 0.58961439 0
4.3888474 -1.9852457 0.21861291 0
2.8149209 3.9122791 0.15010059 0
4.3750052 1.9698868 -0.48179233 0
4.3686762 2.0401764 0.076669097 0
4.3894253 -1.6269617 1.1575351 0
2.7221379 3.9187999 0.69918668 0
4.3900309 -1.9743683 0.2928853 0
4.3700676 1.7435839 1.0591855 0
-2.8302808 3.8977563 -0.24240756 0
4.3856707 -2.0031536 -0.12719846 0
2.7697268 3.919533 0.48054171 0
4.3840966 -1.979974 0.35685086 0
-2.6234007 3.8923538 1.1116076 0
4.3879023 -1.4506071 1.3827052 0
4.387764 -1.2037323 1.6047039 0
4.3897095 -1.9179455 0.5733732 0
4.3795667 -1.8295434 0.86585331 0
2.6274505 3.9143574 1.0269899 0
4.3752689 1.4992334 1.3757324 0
4.3947363 -1.9917793 -0.060557961 0
4.3819928 -2.0016878 0.27683794 0
4.3710403 2.041158 -0.12734854 0
4.3899002 -1.9032197 0.62965155 0
4.3870168 2.0036902 0.17671895 0
-4.282373 -1.9952395 -0.98623133 0
2.7728744 3.9286397 -0.41874737 0
4.3736186 -2.0422287 -0.025375724 0
4.3935003 -1.9904079 -0.20125008 0
2.278842 3.9071162 1.6873429 0
2.4624336 3.9160316 1.3818297 0
2.8165448 3.9167681 -0.18754822 0
4.3883018 -1.9846401 -0.34222704 0
4.3808942 1.5856714 1.2703736 0
4.3676095 1.9616809 0.6311245 0
-2.3212328 3.8979723 1.655437 0
4.3718824 2.0517161 -0.06419611 0
2.5363531 3.9164033 1.2484522 0
4.3619413 1.9936957 0.57343078 0
4.3766565 -0.91069078 1.8292465 0
4.3908057 -2.0052004 0.17636216 0
4.3667955 1.9523621 0.67140007 0
4.3697023 1.7026274 1.1577404 0
4.3826752 -1.7887976 0.96400821 0
-1.9770834 3.8956549 2.0626535 0
4.3742294 1.507786 1.390389 0
4.3785391 1.9696805 0.53924441 0
-2.4810429 3.895926 1.4175541 0
4.3863497 -1.8128496 0.90395749 0
4.3755007 2.0430102 0.17635572 0
4.3789053 -1.746254 1.061317 0
4.3907046 -1.9614973 0.47516692 0
4.3850484 -2.0029056 -0.33627951 0
2.8161955 3.9158025 -0.3024264 0
4.382565 -2.0019157 0.37610888 0
4.3746424 1.9987581 0.47514224 0
2.749629 3.9150045 0.68606007 0
4.3839674 -1.5886257 1.2713578 0
4.3724275 2.041734 0.27651119 0
4.3751111 2.0428483 -0.23218107 0
4.3973598 -2.0078125 -0.026804268 0
4.3871441 -1.6668441 1.1596668 0
4.3671703 1.9650427 0.66160715 0
4.3839712 -1.979835 -0.4848842 0
4.3811636 0.91154116 1.8301105 0
4.3740892 -1.8697624 0.86709166 0
-2.7832866 3.9107385 0.58544874 0
2.6761246 3.9215965 0.91899395 0
2.6385026 3.9220784 1.020165 0
4.3884602 -1.9174886 0.67210674 0
4.380538 -2.0451021 -0.12934756 0
4.373323 2.0533612 0.21648443 0
4.3688316 2.0402408 0.37607872 0
4.375102 -1.9126027 0.76976919 0
4.3846064 1.9591672 0.57387936 0
4.3717523 2.0414536 -0.33687234 0
2.390121 3.906328 1.5567679 0
4.3837652 -1.9718125 0.53884983 0
4.3653374 2.0830534 -0.026690483 0
4.3628998 2.0820003 0.17604005 0
4.392931 -1.7473578 1.0245461 0
-2.8310714 3.8982658 -0.43626612 0
4.3788629 -2.0004401 0.47522151 0
-2.7770567 3.9002964 0.69237041 0
4.3765717 1.8706305 0.86750829 0
4.3777914 -2.0584638 -0.065297425 0
4.3746057 1.9694436 -0.62738967 0
4.3844786 -1.8973746 0.76547599 0
-4.2945709 1.9973552 -0.98908949 0
4.3752756 1.8281115 0.96500719 0
4.3706694 1.784982 1.0621476 0
4.3601599 1.5657375 1.3983343 0
4.3804216 -2.0450537 -0.23350865 0
4.372118 1.8039253 1.0286896 0
4.3859596 -2.0473535 0.074371338 0
4.3929205 -1.8257184 0.89685559 0
4.3727531 1.7268159 1.1550484 0
4.3883224 -1.9846628 0.49465919 0
4.3732214 1.8079286 1.0238657 0
4.3642778 1.9086432 0.86770248 0
2.8197289 3.9026968 0.5124625 0
-4.2606049 -2.0802076 -0.98477685 0
4.3703127 1.8821018 0.89999533 0
2.2506008 3.9203341 1.7377574 0
4.3744164 1.6521519 1.2606037 0
4.3693447 2.0847852 -0.13035345 0
4.3726387 2.0525796 -0.35007799 0
2.8230064 3.9346316 -0.076994002 0
-2.6207008 3.8875196 1.2153373 0
-2.7715292 3.8910317 0.79846311 0
2.8208935 3.9287903 0.25968921 0
4.3840928 -1.5170009 1.3940058 0
4.3823376 1.9152492 0.77071524 0
4.3791561 -2.0445282 -0.33902055 0
4.3771925 -1.9691314 0.66110325 0
4.3792362 -1.9745815 0.63203466 0
4.3729558 -2.0863457 -0.028005004 0
-2.8305111 3.8979046 0.52068293 0
4.3693261 1.7433599 1.1607254 0
4.3644381 1.9946909 0.67255437 0
4.3688002 -1.3469224 1.6072669 0
4.383832 -2.0653627 0.07504344 0
4.3822889 -1.958282 0.67285109 0
-2.2008991 3.893594 1.8677998 0
4.3945322 -1.9629598 0.57443619 0
4.3697872 2.0849764 -0.23484355 0
2.7246799 3.9265108 0.81051731 0
2.8627281 3.9112458 -0.07570231 0
-2.5628519 -3.9947197 -0.98743773 0
2.8198724 3.925967 0.37046039 0
2.8247914 3.9255221 0.33852935 0
4.3861136 -2.0474174 0.27573466 0
4.3707266 1.9538641 0.77104044 0
2.6273041 3.913867 1.1397424 0
4.3555164 1.8012922 1.1430233 0
4.3814244 -2.04547 0.37584078 0
2.863194 3.9124777 0.14861929 0
4.3659401 1.052577 1.8326011 0
4.3740726 2.042417 0.47542024 0
4.3840327 2.0655918 -0.20915669 0
4.3571444 2.0795131 0.47540069 0
4.3768263 1.6553054 1.2809258 0
-2.3374248 3.8886712 1.7182155 0
4.3718824 2.0858817 0.275635 0
2.8250234 3.9220204 0.42687809 0
4.3675241 1.4968268 1.4936931 0
4.3791637 2.0600312 0.35586333 0
4.3834209 -1.7890346 1.0652368 0
2.6330247 3.9151223 1.1360908 0
4.3759766 1.2007992 1.7214413 0
4.3836732 -2.0023575 0.57465672 0
-2.8264651 3.8952971 -0.63109899 0
2.5817757 3.915534 1.2514548 0
4.3635597 2.126606 0.038928151 0
2.865396 3.9183037 0.036070824 0
4.3860064 -1.9820931 -0.63195264 0
4.3772058 -1.2011051 1.7216496 0
4.3681979 2.0399778 0.57464862 0
4.3734293 -1.9982743 0.67340112 0
2.6751742 3.9185679 1.0304873 0
4.3820615 2.0902805 0.072755814 0
2.748539 3.9097331 0.85986972 0
2.67765 3.9171941 1.034225 0
2.8151312 3.9128604 0.59082294 0
4.3881021 -2.0702391 -0.21013504 0
4.3731966 2.0532167 0.49537849 0
4.3981023 -2.0523958 0.1742146 0
4.3726721 2.0862231 -0.34177923 0
4.3811097 -2.0898695 0.17430449 0
-2.3004088 3.8968644 1.7664189 0
2.5325286 3.9084818 1.3824677 0
4.3891459 -2.0714309 0.2152257 0
4.3742642 1.9690645 0.76950192 0
2.8202472 3.9270031 0.4809587 0
4.3960638 -1.710182 1.1650882 0
-4.276979 2.0832899 -0.9886235 0
2.460166 3.9220607 1.47488 0
4.3805046 -1.9145787 0.87043905 0
4.3725195 2.0861571 0.37570679 0
2.8218589 3.9182305 0.54694593 0
4.3606439 2.0368407 0.67363679 0
4.3741884 1.9679056 0.78267217 0
4.3861637 -2.0920534 0.072206974 0
4.3848305 -2.0665026 -0.35367519 0
4.3911333 -1.6578768 1.2618399 0
4.3751583 -1.499199 1.494628 0
4.3619576 2.1263499 0.27525568 0
4.3669014 2.1339898 -0.071444154 0
4.3839464 -1.6623495 1.2832382 0
2.7226396 3.9203217 0.9210583 0
4.3766518 2.0571625 -0.49710852 0
4.3884592 -1.8210449 1.0324383 0
4.3704224 1.7849033 1.1643016 0
4.3662844 1.9954267 0.77238798 0
2.8234925 3.9359756 -0.42512286 0
2.773927 3.9316854 0.70170426 0
4.3933249 -1.8154641 1.0243661 0
4.3820505 -1.872546 0.96904576 0
4.3692369 -2.1291142 0.16338873 0
4.3688121 2.1294291 0.17389345 0
4.3583899 2.0800512 0.57499468 0
4.382575 1.8727293 0.96915376 0
4.3895426 -1.7439082 1.1597056 0
4.3887553 -2.0931735 -0.13446367 0
4.379015 -1.8293593 1.067153 0
4.3594379 2.1252179 0.37564087 0
-2.6962247 3.9021363 1.0803304 0
4.3864269 -1.8994751 0.90290487 0
4.3545437 2.1682272 -0.030659556 0
4.3854909 -2.0917628 -0.23879313 0
2.862613 3.9109409 -0.42246729 0
4.3677278 2.0469716 0.63447034 0
4.3791609 -1.9699343 0.78254735 0
4.3685956 1.9102228 0.96904969 0
2.8683033 3.9259951 -0.19272041 0
-2.8275003 3.8959641 0.710693 0
2.8672841 3.9232984 0.25911582 0
4.4007878 -1.8366237 0.97023511 0
4.3793759 -2.0891201 0.37557638 0
2.8169653 3.9123704 0.66651964 0
4.3715668 1.954185 0.87131011 0
4.3860064 -2.0919852 0.27482855 0
4.3684969 2.1358652 -0.21597499 0
4.3667183 1.7206724 1.289969 0
2.8651242 3.9175844 0.37032366 0
4.3803859 -2.0450387 0.57534027 0
4.3711405 2.1304748 -0.23936528 0
4.3910923 1.3531533 1.6105211 0
2.4603796 3.9021318 1.5580647 0
4.3771791 2.1331878 -0.03160888 0
4.3917141 -1.7501239 1.1669919 0
-2.4841056 3.9018009 1.5224447 0
-2.5480494 3.8930438 1.4371867 0
4.3574562 1.9919081 0.87140059 0
4.3701963 2.1378634 0.21323884 0
4.3841419 1.8310698 1.0684006 0
4.3916063 -2.0742409 0.3555336 0
4.383481 -1.5881586 1.4070027 0
4.3693552 1.650419 1.3795905 0
4.3624105 1.6410437 1.4128549 0
-2.4319062 3.9021351 1.6062517 0
2.3204238 3.9140155 1.7381458 0
4.3771086 2.1331561 -0.135526 0
4.3705301 1.8685181 1.0682218 0
-2.5156617 -4.0537267 -0.9863857 0
4.3846836 -2.0663347 0.49568284 0
4.3875465 -1.0572995 1.8367682 0
2.8685713 3.9267037 -0.30898142 0
4.3947678 -2.0510111 0.47581136 0
4.3804989 2.1346791 0.07073307 0
4.393795 -1.9626782 0.77407265 0
4.3793468 2.1335807 0.16183543 0
4.3674622 2.134649 0.35501075 0
2.6087754 3.9350369 1.2114589 0
4.3744812 2.1314311 0.28738093 0
-2.8193245 3.8906946 -0.82751358 0
-2.7788258 3.9032617 0.90393972 0
4.3904133 -2.0938897 -0.3469578 0
-4.2549295 2.1682787 -0.98739529 0
4.3605938 2.1265752 0.49620414 0
4.3684349 2.1287599 0.41211867 0
4.3841801 -2.136333 -0.032824516 0
4.3809004 -1.9577513 0.87289262 0
2.6304111 3.9118032 1.2521796 0
2.7207365 3.9145489 1.0324564 0
2.6742916 3.9157567 1.1433339 0
4.3554354 1.493071 1.6112797 0
4.3790431 -2.1482627 -0.073745012 0
4.376214 1.8884647 1.0388861 0
4.3763242 2.0567884 -0.64519262 0
4.3887043 -2.0709267 -0.50133234 0
-2.6247282 3.8947313 1.3204358 0
-2.5586076 3.8925393 1.4516268 0
4.370697 2.1384518 -0.36246789 0
4.3649554 2.0386312 0.77423608 0
4.3784046 -1.653518 1.3804839 0
2.8235905 3.9201076 0.68713379 0
4.3823586 -2.0018334 0.77451253 0
4.3557396 1.8013757 1.2628977 0
4.3803482 -2.1346116 0.27419901 0
4.3842316 -2.0912185 0.47591579 0
4.3803911 -2.134042 0.28662586 0
4.3851671 -1.8124065 1.1444991 0
4.3767118 2.132978 -0.34782171 0
4.3812933 2.150908 0.069522619 0
-4.2598729 -2.1692827 -0.98855996 0
2.8667345 3.921845 0.48115575 0
4.3697729 2.1753323 0.069852352 0
4.3752413 1.9683353 0.9039588 0
2.9111991 3.9106517 0.25890493 0
4.3891163 -1.7908447 1.1695576 0
4.3847332 -2.1365812 -0.24280554 0
4.3640518 2.1268234 0.53588128 0
2.6293037 3.9205713 1.2563031 0
2.8200264 3.926393 0.7026124 0
4.3704243 2.1301534 0.47596931 0
4.3766103 1.9716678 0.90863347 0
4.392293 -2.1393001 0.033765554 0
2.8930829 3.9037354 0.51276636 0
-2.7732506 3.8939176 1.0094941 0
2.8970158 3.9203393 0.33833575 0
4.3842907 -1.8733292 1.0715871 0
2.2891955 3.9219401 1.8051276 0
4.3720522 2.1763957 0.17192507 0
4.3721223 1.9543972 0.97269905 0
4.3951154 -1.9921999 0.77222669 0
4.3782406 1.829101 1.1699615 0
4.372592 -1.9545767 0.97279692 0
2.7764392 3.9389546 0.81399798 0
4.3933358 -2.1404459 0.069005013 0
4.3749866 -2.1777647 0.069146037 0
4.3866386 -2.0476353 0.6760993 0
2.4558177 3.9162004 1.5894134 0
4.3550787 2.1684766 0.47600424 0
2.7701926 3.920881 0.92355156 0
4.3682613 1.1988795 1.839299 0
4.3769965 -2.1787024 -0.034583688 0
4.3938761 -2.1406887 -0.139099 0
2.9163926 3.9238186 -0.080622137 0
4.3857679 -1.8182251 1.1695733 0
4.3860993 1.8185725 1.1696665 0
4.3829994 -1.9714999 0.90395904 0
4.3712916 2.0510416 0.7746911 0
-2.8212104 3.8919103 0.90080786 0
2.9169807 3.9253099 0.032986403 0
-2.0917044 3.8996384 2.0823736 0
4.3861995 -1.8992298 1.0412116 0
4.3873582 -2.0693893 0.63603199 0
2.8165822 3.916872 0.81308508 0
-2.4405541 3.8976443 1.6704173 0
4.3794012 -2.0006547 0.87514222 0
4.3791666 -2.1797147 -0.13965732 0
2.9167023 3.9246032 -0.19585741 0
-4.2310061 -2.2527213 -0.98600745 0
4.397069 -2.142123 0.17118323 0
4.3874521 -2.0694966 -0.64971876 0
4.3905964 -2.1618443 0.068266392 0
4.3852406 -1.8314364 1.1719384 0
4.3880358 -2.158834 0.21179593 0
2.6773229 3.9154899 1.2103846 0
4.3854513 -2.1362777 0.41038227 0
-4.232892 2.2531326 -0.98645318 0
2.8243344 3.9211953 0.78503454 0
4.3628492 2.2200592 -0.079222918 0
-2.9693003 3.8927524 -0.060387909 0
4.3972473 -1.9207026 0.97497964 0
2.9184403 3.9290097 0.14552867 0
4.3781061 2.17922 -0.24551255 0
-2.4813662 3.8965459 1.6262703 0
4.3717785 2.1307616 0.57670844 0
4.3659382 2.0390391 0.87545836 0
4.3826494 2.1813395 -0.14040434 0
4.3734083 2.1770284 -0.35193074 0
4.3899002 -2.1610253 -0.22120678 0
2.750421 3.9188325 1.0361695 0
4.3794131 -1.9141796 1.0737031 0
4.3634806 2.1265712 0.65882504 0
2.8130438 3.9076741 0.90395534 0
2.9149446 3.9201474 0.36996865 0
4.3811817 -1.3503833 1.7285495 0
4.3672328 2.2201855 0.067770004 0
4.3799734 2.0893781 0.67698705 0
4.3843555 -2.1821356 0.17073727 0
4.3631983 2.2204812 -0.22570586 0
4.3705101 1.9664052 1.0251529 0
4.3826885 1.3508044 1.7288067 0
2.9139159 3.9175394 -0.4290691 0
4.3935499 -2.1405423 0.37498808 0
4.3822517 1.9152179 1.0744009 0
4.3951979 -2.1412826 -0.35325181 0
4.3858175 -2.1370685 0.47626388 0
4.3817644 -2.1809268 0.27312112 0
4.3940053 -2.0954421 0.57702804 0
4.3666363 1.9523013 1.0740225 0
4.3801441 -2.0611506 0.77586675 0
2.7206585 3.9143128 1.1462955 0
2.7675638 3.913275 1.0351336 0
4.3935318 -1.7479694 1.2988029 0
4.3770576 2.178731 0.37497234 0
4.3694644 2.2212658 -0.1414212 0
2.918354 3.9287913 -0.31357169 0
4.3660688 2.2239549 0.20992029 0
4.3840094 2.1819742 0.2729913 0
4.3905821 -1.9871702 0.91119599 0
-2.6230698 3.891762 1.4250143 0
4.3815355 -1.5011804 1.6151223 0
4.3794298 2.1487176 -0.51352948 0
4.3784122 -2.179363 0.37494624 0
4.3710089 1.9654522 1.0473289 0
-2.4761415 -4.1183715 -0.98817384 0
4.3736324 1.8856816 1.1775064 0
-2.9274893 3.8940289 0.58115387 0
2.6059203 3.9189193 1.3868558 0
-2.9774146 3.8978195 0.13402045 0
2.8716409 3.9348247 0.59292984 0
4.3876481 -2.183672 -0.24794352 0
4.3711491 1.651033 1.4996934 0
4.3815155 1.8723589 1.1745389 0
-2.3176303 3.893676 1.8849812 0
4.3708448 2.1386251 0.63821352 0
4.3662305 1.9093575 1.1740212 0
4.3680573 1.7220356 1.429296 0
-2.7728128 3.8931832 1.1151235 0
4.3752446 2.2240639 -0.037417293 0
-2.9743333 3.8958955 -0.25722086 0
4.3719902 2.2311211 0.064667702 0
2.6306515 3.9121084 1.3688812 0
-2.9624262 3.8884602 -0.45300198 0
2.9152565 3.9209383 0.48144615 0
4.3748169 1.8067524 1.3055468 0
2.9626057 3.9159021 0.031965137 0
-2.9725704 3.8947945 0.32865214 0
2.3918328 3.9191835 1.74191 0
4.3900356 -2.0937266 0.67794609 0
4.3773661 -2.225091 0.066387534 0
4.3711882 2.2221003 0.27269542 0
4.3779974 2.0000954 0.97699285 0
4.3934059 -1.6717081 1.4245377 0
4.3950658 -2.0511348 0.77823925 0
4.373764 2.2233474 -0.24898058 0
4.3665714 2.2198653 0.37482941 0
4.3906479 -2.1385734 0.53384864 0
4.3600683 2.1250634 0.78154576 0
2.5327342 3.9097474 1.5623622 0
2.9612288 3.9125526 0.257833 0
2.8686974 3.9270375 0.70414233 0
2.9638741 3.9189875 -0.082721829 0
2.825213 3.9274218 0.86278868 0
2.9125414 3.9140544 0.59268665 0
4.3800306 2.0894029 0.77837253 0
4.3887978 -2.1842084 -0.35648108 0
2.6771717 3.9249318 1.2611737 0
-2.7011456 3.9054086 1.2710686 0
4.3944731 -1.2054014 1.844388 0
4.3724146 2.0523241 0.91569531 0
2.9611511 3.9123633 -0.31374466 0
4.3710814 2.1759424 0.57766104 0
4.3901482 -1.8753769 1.1769891 0
2.9598584 3.9092185 0.36985266 0
2.8183951 3.9218831 0.92624676 0
-2.4743466 3.8830817 1.7288721 0
4.3819447 2.2273073 0.16923118 0
4.3901272 -2.1612926 0.49699974 0
4.3990555 -2.1717873 0.35415971 0
2.7644887 3.9043777 1.1473594 0
4.3802357 2.1345611 0.67860222 0
2.9655614 3.9230919 0.14446878 0
-4.2146506 -2.3387697 -0.98669517 0
4.3992162 -2.1719768 -0.37102336 0
4.3943224 -1.8158382 1.2657807 0
4.3808742 -2.1348479 0.67866337 0
4.3618317 2.2641556 -0.25067544 0
4.3639755 1.8044629 1.3839741 0
4.3709183 2.2298234 -0.3761059 0
-2.8138771 3.8871839 1.0914111 0
2.9094894 3.9063172 0.70373702 0
-4.2164011 2.3391778 -0.98711014 0
-2.928565 3.8957193 0.68885088 0
2.8654656 3.9184875 0.81535316 0
4.3841119 -1.8164904 1.3086548 0
4.379077 2.1483028 -0.66423833 0
4.3860703 -1.6561431 1.5015376 0
4.3830242 -2.2278302 -0.25135583 0
4.3737726 2.2332783 0.35362077 0
4.3723717 2.0860932 0.87930405 0
2.4539418 3.9136722 1.7050405 0
4.3692026 2.2678552 -0.1453799 0
4.3708773 2.2686954 0.064734936 0
2.9610343 3.9120796 -0.43242872 0
4.3943434 -1.9761275 1.0257528 0
4.3669748 2.2250514 0.49759293 0
4.3714495 2.2222269 0.47666514 0
4.3753734 2.0429573 0.97966051 0
-2.972445 3.8947163 0.52274513 0
2.970052 3.9170191 0.33808935 0
4.3706961 1.9664812 1.1464882 0
4.3739195 2.2702222 -0.04046154 0
4.3743219 2.1319044 0.77983546 0
-2.5475039 3.8926699 1.6269045 0
4.4002838 -2.1435673 0.57834625 0
4.3859878 -2.2480609 0.062745214 0
2.7482369 3.908273 1.2114599 0
-2.4264131 -4.1753812 -0.9868356 0
-2.4260716 3.8980098 1.793952 0
2.9667177 3.9037893 0.51307249 0
4.3605299 2.080976 0.97988677 0
4.3936911 -2.2329938 -0.14665318 0
4.3870339 -1.9169669 1.1799567 0
4.3936205 -2.1398869 0.65729105 0
4.3626356 2.2933891 0.15459943 0
4.3930292 -1.9623857 1.0805454 0
4.3937745 -2.2330341 0.16808128 0
4.3632288 2.0418334 1.0555549 0
2.7208228 3.9148111 1.2621748 0
3.0072947 3.9036775 -0.19879073 0
2.4606652 3.9040654 1.7404637 0
4.3980322 -2.0523667 0.88096249 0
4.398592 -2.1712427 -0.52035689 0
2.9698386 3.9334972 -0.20131969 0
4.3858709 2.2292082 -0.36094886 0
4.3850245 -2.2287984 0.37447155 0
4.3791456 -2.1334918 0.78106081 0
4.3783917 2.0002525 1.0805759 0
4.361475 2.0371859 1.0801721 0
-2.9259157 3.8915558 0.79656935 0
4.389154 -2.1601481 0.63969433 0
4.3815145 -2.0900443 0.88088155 0
4.3765678 2.2715514 0.16794157 0
4.3612394 2.171351 0.78039134 0
4.3938646 -1.9074938 1.1832893 0
4.3749638 2.1434674 0.78102267 0
4.3703394 2.2291236 -0.52640635 0
2.8999672 3.9328001 0.68867683 0
4.3919859 -1.9887276 1.0522916 0
4.3973255 -2.1881869 0.47681797 0
4.3925591 -2.232446 0.27145112 0
4.3757377 2.1781151 0.67983067 0
4.3686867 1.8803492 1.3169518 0
2.8166637 3.9170973 1.0390162 0
-2.9167848 3.8772039 0.90394127 0
2.8221693 3.9137008 1.0373995 0
4.3861313 -2.0679879 0.91825175 0
4.3876715 -2.2500982 0.208143 0
4.3697262 1.9640298 1.1882339 0
4.4004946 -2.2362874 -0.041860461 0
4.3885326 -2.1594179 -0.6681484 0
4.3838778 -2.0464888 0.98145032 0
4.3765535 1.9560905 1.1809978 0
2.8231182 3.9197388 1.0228331 0
4.3663883 1.7979224 1.443593 0
4.3902483 -2.1848853 0.57876945 0
4.402257 -2.0097644 0.98206902 0
4.3902273 -1.7446058 1.4377732 0
4.3761387 1.3489735 1.8479559 0
4.3768597 2.2716978 0.27127945 0
4.3653994 1.6490642 1.6194193 0
4.3688793 2.1294591 0.88156772 0
4.381712 -1.9709748 1.1470428 0
4.3828297 -2.274694 -0.14834344 0
-2.9623556 3.8884161 0.71644902 0
4.3664942 2.1279027 0.90396035 0
-2.6779447 3.8856738 1.4634733 0
4.4037523 -2.0996542 0.7815454 0
2.9654927 3.9229255 0.48180592 0
4.3732071 2.2698646 0.37433958 0
4.3655362 2.2660148 0.47691047 0
4.3750944 2.2239912 0.57893193 0
-2.7774086 3.9008861 1.2216299 0
-4.1927938 2.423559 -0.98636925 0
4.3868093 -2.2766917 -0.042745948 0
4.3783855 1.5002017 1.7350798 0
3.013401 3.9179482 0.029320955 0
4.3860798 -2.2293093 0.47694886 0
4.3621497 2.3115797 -0.25572199 0
-2.9729748 3.8950469 -0.65512097 0
4.3879638 -2.2504523 0.35323191 0
2.9620652 3.9145873 0.59368217 0
3.0141742 3.9197552 -0.085915625 0
4.3971643 -2.2615869 -0.085837424 0
4.368763 2.2272153 0.64170122 0
3.0136993 3.9186451 0.14319849 0
4.362937 2.2935326 0.40616798 0
4.3779192 2.2722294 -0.36413473 0
4.3699856 2.3156538 0.062209129 0
3.0122032 3.9151492 0.25667417 0
4.3683119 2.3147836 0.16686404 0
-2.6280527 3.9006855 1.53192 0
4.364562 2.3162272 -0.23760146 0
2.7641673 3.9034476 1.2630053 0
4.3886824 -2.2513216 -0.38152671 0
4.3714976 -2.3164401 -0.043450415 0
4.3829384 -1.5016161 1.7358634 0
4.3915467 -2.0054955 1.0838454 0
4.3915362 -2.2790639 0.061896801 0
4.3721547 2.3167818 -0.043567657 0
4.3992739 -2.2356966 -0.36493886 0
4.3608823 2.3116422 0.35270214 0
2.9133945 3.9162171 0.8172133 0
4.3866396 -1.3519089 1.8500104 0
4.3750567 -2.1777973 0.7822634 0
4.3683987 2.1357498 0.92312777 0
4.390913 -2.2787509 0.1665374 0
4.3675356 2.3143799 0.270697 0
4.3942833 -2.1408718 0.78252232 0
4.3788586 -2.0888965 0.98376787 0
2.8970742 3.9205868 0.8636111 0
4.368412 2.3210247 0.20589793 0
2.6357079 3.9185295 1.4870195 0
2.8686504 3.926913 0.92975497 0
4.3646946 2.2655923 0.5794071 0
4.3731642 1.9981687 1.1842513 0
4.3747644 -2.2706463 0.47709072 0
-2.3759165 -4.231616 -0.98549688 0
4.3631735 2.3121121 0.37416005 0
4.3937864 -1.8156371 1.3869474 0
4.3829718 -2.2444112 -0.53098476 0
4.3725204 2.3261447 0.058191895 0
-2.687355 3.8962388 1.4599752 0
4.3737345 2.2233329 0.68137074 0
4.3707943 2.2296734 -0.67952049 0
4.3726487 2.3263044 -0.0900985 0
-4.2042499 -2.4264028 -0.98909438 0
-2.5590129 3.8929951 1.6849067 0
-2.2092395 3.903836 2.1029625 0
4.3907361 -2.2786622 0.27046585 0
4.3786888 2.301039 0.27866328 0
4.3933468 -2.1863308 0.68153071 0
4.3915062 -2.2790487 -0.25834072 0
4.3809547 -2.0452752 1.0850418 0
2.6800253 3.92957 1.391506 0
4.360137 2.0366302 1.1849022 0
2.8150525 3.9126427 1.1530504 0
4.3841753 -1.9800611 1.1924286 0
3.0146568 3.9208829 -0.32033688 0
4.3940382 -1.9627709 1.1860132 0
4.3800883 -1.8122752 1.4489098 0
4.3844366 -2.1364481 0.88426888 0
4.3592329 2.1246946 1.0263534 0
4.3803596 -2.3210478 0.060773492 0
3.0100398 3.9100935 0.4819001 0
4.3665857 2.0835931 1.0854383 0
4.3887391 -2.2776601 0.37403631 0
-2.771966 3.8917649 1.3270724 0
2.6056523 3.9174078 1.5669236 0
4.3799481 2.3208339 -0.15192509 0
4.4040003 -2.2698598 -0.23585117 0
4.3919449 -2.2321486 0.57991314 0
2.82149 3.917789 1.1417212 0
3.0154767 3.9227991 0.36925852 0
4.3690958 -1.8063822 1.505599 0
4.371314 2.130553 0.98569107 0
4.3919954 -2.2553318 0.4982785 0
4.3727636 2.3170981 -0.36837423 0
2.9697814 3.9159448 0.68868756 0
4.368989 2.3217437 -0.3897242 0
4.3629885 2.3600047 0.16542554 0
4.3721447 2.1764388 0.88513565 0
4.3937168 -2.280158 -0.36887085 0
4.3830729 -2.2278535 0.68227839 0
4.3962193 -2.1684535 0.78389263 0
3.0184963 3.919472 0.41528475 0
-2.6201973 3.8866172 1.6356754 0
4.3866577 -2.0685892 1.0611877 0
3.0574026 3.9031861 0.2563014 0
3.0423853 3.9094479 0.33789992 0
2.9644532 3.9203966 0.70667613 0
4.3856773 -2.3238127 -0.1531803 0
4.3939791 -2.3083253 0.14971995 0
4.385416 -2.3236768 0.16517735 0
2.9122295 3.9132645 0.93022513 0
3.0254326 3.9273102 0.29089451 0
4.3909712 -1.6578214 1.6232195 0
4.3647041 2.0435183 1.1991367 0
3.0150647 3.9218364 -0.44043976 0
4.3661842 2.2663398 0.68244183 0
4.3864946 -2.0034821 1.1880965 0
2.8202119 3.904875 1.2133224 0
4.3798904 1.9702318 1.2687769 0
4.3699718 2.3637633 -0.046741962 0
4.3756552 1.8088409 1.5064182 0
4.3930254 -2.1396239 0.90396118 0
4.3736639 2.2986441 0.53025877 0
4.3781261 -2.1336133 0.9871428 0
4.3677011 1.9617825 1.3306735 0
4.3611145 2.3110416 0.5803237 0
4.3935738 -1.9071801 1.3254004 0
4.3622055 1.4951743 1.8532338 0
-2.8158789 3.8884742 1.2848034 0
-4.1749411 2.5093799 -0.98728716 0
4.3628402 2.129216 1.0659921 0
3.0622249 3.9140244 -0.088127792 0
-2.4360981 3.8924811 1.9024932 0
4.3780408 -2.0885432 1.0883193 0
4.3722796 2.2314713 0.78677189 0
4.3867769 -2.304893 0.40370321 0
4.3844576 -1.9720947 1.2691221 0
4.3813238 -2.3215492 0.37380302 0
4.3771639 2.224993 0.78498471 0
4.3689146 2.321651 0.49892175 0
3.0627067 3.915107 0.14176726 0
4.3663445 2.3184485 -0.54181516 0
4.380971 -2.1805568 0.88667822 0
4.388751 -2.3254106 0.26944375 0
4.3830996 -2.3393271 -0.24229252 0
4.3752241 2.3665907 0.05871582 0
4.3873491 -2.3446229 0.056119084 0
3.0627084 3.9151108 -0.205136 0
2.961606 3.91347 0.81911182 0
-2.965415 3.8903265 0.91138709 0
4.3898277 -2.2527082 0.64343441 0
4.3864641 -2.2765181 0.58068359 0
3.018456 3.9194264 0.53792191 0
-4.1809535 -2.5109639 -0.98872256 0
4.3991041 -2.3107674 0.27602029 0
4.3505712 2.4018238 0.26930761 0
2.8697438 3.929806 1.0449123 0
4.3781052 2.3198755 0.47753358 0
4.3665085 2.2198348 0.88727999 0
4.3886766 -2.1595876 0.92697048 0
4.3768859 2.367485 -0.15563965 0
4.3674202 2.3623898 0.37368417 0
2.6306739 3.9121368 1.6038916 0
3.062367 3.9143434 -0.32335871 0
4.3599062 2.4077666 0.053275108 0
4.3951845 -2.3287559 -0.26431799 0
4.3756752 2.3668332 0.26903439 0
4.3555441 2.2900095 0.78004122 0
4.3711233 -2.2220688 0.88809204 0
4.3770418 2.367569 -0.26480603 0
-4.1415606 2.5910075 -0.98478103 0
-2.3314738 -4.2926521 -0.98651779 0
4.3726988 2.1766973 0.98966992 0
4.3913469 -2.2545464 -0.68816602 0
-3.1155348 3.8882563 0.12811553 0
4.3875027 -2.3052392 0.52918708 0
4.3628778 2.3119583 0.68400002 0
4.3758893 1.8881145 1.4629383 0
2.4657035 3.9295235 1.8257205 0
3.0162625 3.9246356 0.59526646 0
2.7503092 3.9182928 1.3920274 0
4.3649473 2.361059 0.47766674 0
-2.9830618 3.9013457 -0.86075163 0
2.8637824 3.9140344 1.1572545 0
-2.9332142 3.9030275 1.011631 0
2.8156919 3.9144108 1.2703781 0
4.3672218 1.9650638 1.3897226 0
3.0695114 3.9304006 0.025163889 0
4.3938932 -2.3527768 0.20376432 0
4.3818636 -2.3701644 -0.26607031 0
4.3898067 -2.0489509 1.1935105 0
4.3882771 -2.3736162 0.056895733 0
4.376462 2.1328659 1.0921121 0
2.5352993 3.9255407 1.7492151 0
4.3898206 -2.3259668 0.47776401 0
3.0453973 3.9207151 0.51370358 0
4.3911352 -2.1387887 1.0271664 0
3.0656285 3.921674 0.36892641 0
4.3831396 -1.5016786 1.8573639 0
4.3765688 1.6528891 1.742588 0
3.0195124 3.9206204 0.66008055 0
4.3991394 -2.3593147 -0.095295429 0
4.383316 -2.0647733 1.2046285 0
4.399271 -2.3308802 -0.37637955 0
2.8991246 3.9292419 1.0413716 0
4.3893614 -2.3741999 -0.15839362 0
4.3955274 -2.2338827 0.78748977 0
4.3819704 2.3026028 0.65462339 0
4.376586 2.2715607 0.78744936 0
2.6768451 3.9130018 1.5689063 0
3.0644054 3.918925 -0.44501287 0
4.368886 2.4192903 -0.098767519 0
4.3711939 2.2301576 0.93223131 0
4.3636322 2.3603513 0.58164883 0
4.3810401 2.3697209 -0.37692863 0
4.3888144 -2.2514818 0.78904295 0
4.3710308 2.4132168 -0.15891057 0
2.9712083 3.9216073 0.86523795 0
4.3731503 2.3269293 0.6458987 0
4.3939366 -2.3766625 -0.05105257 0
4.3845291 -2.303822 0.65449142 0
4.3927226 -2.2796593 0.68503976 0
4.3914375 -2.3497171 -0.39669603 0
-2.9263563 3.8922486 1.1188416 0
2.8257568 3.9228985 1.2613926 0
4.381402 -2.1510355 1.0705295 0
4.3724113 2.4139857 0.16243422 0
4.3849087 -2.1823938 0.99228883 0
2.9623039 3.9151678 0.93346763 0
4.366293 2.2197304 0.99213624 0
4.3946404 -2.3537083 0.35176063 0
-3.1289062 3.896342 -0.072449505 0
2.9156036 3.9218178 1.0466752 0
4.375011 2.4154334 -0.051372409 0
4.3811226 -2.2738373 0.78807247 0
4.3944979 -2.3769648 0.16229486 0
-2.5507889 3.8949227 1.8209035 0
4.3816657 2.0901096 1.1958044 0
4.3721361 -2.2979162 0.77961385 0
4.369812 1.8066508 1.6274822 0
-4.1585169 -2.5957358 -0.98884511 0
4.380743 -1.9705795 1.3910866 0
-3.0788021 3.8813407 0.68557143 0
4.3759766 2.1320918 1.1497328 0
4.3724127 2.3260102 -0.69981086 0
4.3868961 -2.3728728 -0.37871051 0
4.3861318 -2.3431056 -0.54911405 0
4.367466 2.4112318 -0.37908012 0
4.3639431 2.3154564 0.79200912 0
4.3698764 2.268193 0.89114499 0
4.3725786 2.4240291 0.20152819 0
3.0177026 3.9280007 0.70909166 0
-3.1253161 3.894171 0.32638621 0
4.3784652 -2.4173567 -0.1605646 0
4.3887014 -1.6570442 1.7446966 0
4.3808732 -2.3213146 0.68577456 0
4.3686442 2.1293535 1.1968517 0
4.3926978 -2.3274627 0.5821892 0
4.3681693 2.4183705 0.35116196 0
3.0624051 3.9144294 0.59574354 0
4.3908215 -2.1393166 1.0957465 0
4.3819098 2.419275 0.054889083 0
4.3786745 -2.2392106 0.93367326 0
4.3936539 -1.9905782 1.339623 0
4.3727827 2.4242904 -0.25183439 0
4.3705544 2.4129517 0.37321234 0
-3.0896668 3.897382 0.57473469 0
4.3765936 2.4163146 -0.27012008 0
4.3913403 -1.9047718 1.4690261 0
4.3882399 -2.0929508 1.1977234 0
3.1150813 3.9177153 0.13966668 0
3.0123825 3.9155679 0.82176113 0
-2.3213205 3.8980772 2.1209035 0
3.1145058 3.9164703 -0.20953554 0
-2.7823553 3.9091778 1.4360917 0
4.3824387 -2.4195695 0.16143012 0
-3.1327505 3.8986669 -0.2739715 0
4.362257 2.4107831 0.5000701 0
-4.1186318 2.6754065 -0.98506021 0
3.069149 3.9295857 0.48262465 0
4.3949299 -2.354069 0.49964726 0
4.3797379 -1.8103714 1.6289725 0
4.4016466 -2.3808124 0.2674886 0
3.045244 3.9201415 0.68989444 0
4.3960075 -2.3777771 0.37311745 0
4.3707042 2.0503707 1.3464241 0
3.1179783 3.9239831 -0.09321177 0
4.3797598 -2.2262497 0.99504447 0
4.3612843 2.4572742 0.26738715 0
4.3893104 -2.3741724 0.47814965 0
4.3789911 -2.2727678 0.89276028 0
-3.1235695 3.893115 -0.47513336 0
4.3758459 2.318701 0.79000175 0
4.3809557 2.1805496 1.0976386 0
4.3903036 -2.4239492 -0.05414474 0
4.362443 2.2178667 1.0974765 0
4.3868704 -2.3440259 0.64704752 0
4.3909397 -2.4243035 0.053619981 0
4.3727551 2.4242551 -0.40580827 0
4.3701649 2.4623876 -0.054369092 0
3.118804 3.9151309 0.3374505 0
3.1201835 3.9287541 0.022778034 0
4.3830495 -2.3708024 0.58280444 0
4.3724794 1.9670844 1.4779387 0
4.3715544 2.3646152 0.68682551 0
-2.6905475 3.8983614 1.6550083 0
2.9134769 3.9164262 1.1619029 0
3.0247395 3.926527 0.78190267 0
4.3668842 2.4673927 0.14322782 0
4.3731461 2.4143949 0.47823942 0
-3.1237359 3.8932157 0.52498138 0
-4.1287589 -2.6783872 -0.98749733 0
4.3729124 2.4639692 0.053146124 0
4.3929243 -2.1395791 1.1505966 0
2.8207905 3.9169512 1.3804195 0
2.8960238 3.9161522 1.2177472 0
4.3889074 -2.4231718 -0.27337396 0
4.386157 -2.1829762 1.0989637 0
4.3628297 2.458164 0.37294078 0
2.6061502 3.9202178 1.7509866 0
4.382884 -2.3223605 0.79097581 0
4.3498812 2.3052011 0.99673784 0
4.3676157 2.4113152 0.58311462 0
2.7468791 3.9017079 1.5695105 0
4.3739872 2.2987983 0.90396261 0
4.3670959 2.4675014 0.27125669 0
4.3642511 1.6486709 1.8625774 0
4.374423 -2.299006 0.90396261 0
4.3707809 2.2296581 1.0789912 0
4.3887272 -2.4447525 0.049172878 0
3.1205292 3.9295025 0.2536788 0
2.8225915 3.9156034 1.3944607 0
4.3535256 2.5029655 0.15998161 0
3.1186194 3.9253705 -0.33104163 0
-3.1121769 3.8862257 -0.67727685 0
4.385272 -2.4403183 -0.25505275 0
4.3755674 2.465498 -0.16468561 0
4.3931332 -2.4255247 0.26675463 0
2.8676753 3.9243333 1.2777035 0
-2.9284687 3.8955686 1.2268586 0
-2.2948108 -4.3604212 -0.99058414 0
4.3884387 -2.3459802 -0.70667183 0
3.1183133 3.9247081 0.36849833 0
4.3771815 -2.4664273 0.1598103 0
4.3790054 2.1482186 1.2163601 0
-2.7754111 3.8975384 1.5418963 0
4.3736382 -2.4643872 0.26664007 0
4.3801718 -2.4337728 -0.40815365 0
-4.0876579 -2.7573667 -0.9836874 0
4.374393 2.4648218 -0.27519631 0
4.3726425 2.3170354 0.8950547 0
4.3791027 2.4675336 0.15961635 0
3.1154296 3.918469 0.48278165 0
-2.8162355 3.8957994 1.4795446 0
4.3651934 2.4665267 0.39882374 0
2.971539 3.9229195 1.0427287 0
3.1610446 3.9053469 0.25391948 0
4.3765388 2.2715368 0.99837518 0
2.9664264 3.9251959 1.0509748 0
4.3700051 2.3637815 0.79195642 0
4.3732738 2.1769655 1.2032907 0
4.3759708 2.1320891 1.2729523 0
4.3709893 2.462862 -0.38671863 0
4.3917198 -2.4485924 0.19989622 0
4.3923492 -2.4250882 -0.3867116 0
4.3663235 2.4160018 0.64933836 0
3.0207713 3.9220428 0.90395951 0
3.1115184 3.9100065 0.59659553 0
4.3735542 2.4252803 -0.56219393 0
3.0675058 3.9258933 0.71066546 0
-2.9810967 3.9001188 1.1095998 0
4.3931942 -2.1403825 1.2040632 0
3.1643486 3.912235 0.13826406 0
4.3948507 -2.4526103 -0.10395414 0
4.3657389 2.41027 0.68829751 0
4.3875761 -2.4432755 0.35061085 0
4.3953052 -2.4267342 0.37271786 0
3.1656158 3.9148765 0.021942973 0
4.3865647 -2.4718299 -0.057366252 0
3.0152483 3.9222653 0.93774796 0
4.3806143 1.9705271 1.5138481 0
3.1203017 3.9204299 0.51404548 0
-2.6378403 3.9182148 1.7493296 0
4.3788638 -2.1795735 1.2049437 0
4.3868284 -1.9830053 1.4836817 0
4.3700299 2.323041 0.94098461 0
-2.8283682 3.8965235 1.482939 0
4.3821621 -2.1348245 1.2734261 0
2.9108706 3.9098191 1.2782452 0
4.3607569 2.4569707 0.58398092 0
4.3695402 2.5124936 -0.058292627 0
4.3915043 -2.4746737 0.050512075 0
3.1680837 3.9200213 -0.096025169 0
4.3658414 2.2661679 1.103111 0
3.1220286 3.9327462 -0.45476323 0
3.1668568 3.9174638 -0.2140457 0
4.3945522 -2.4263148 0.47866702 0
4.3867998 -2.2766867 1.0006068 0
4.3494563 2.5514843 0.050126553 0
4.3837776 -2.2453864 1.0822229 0
4.3912258 -2.4745133 -0.16819763 0
-3.0935669 3.9031398 0.79420459 0
4.3662505 2.5171361 0.19785976 0
-4.1031151 2.7621577 -0.98742342 0
3.1638489 3.9111931 0.36837316 0
4.368577 -2.3149214 1.0008337 0
3.046742 3.9257462 0.86724925 0
-2.6974697 3.9070284 1.7049518 0
4.3886471 -2.4730287 -0.27899361 0
-2.5630217 3.8975074 1.9226708 0
-2.9243603 3.8891113 1.3343294 0
4.3672352 2.2201867 1.2068009 0
4.3676147 2.5113482 -0.27927202 0
4.3728228 2.2982433 1.0283291 0
4.376276 2.4659059 0.47872996 0
4.3857174 -1.6560221 1.8668523 0
-3.126018 3.8945956 0.72392631 0
4.3871999 -2.4427922 0.50077832 0
3.1169252 3.9084857 0.69030154 0
4.3930387 -2.4807904 0.13909805 0
4.3952589 -2.0784121 1.3550293 0
4.3700514 2.4207852 -0.71933794 0
4.3705373 2.5228026 -0.10897219 0
4.3933702 -2.1651046 1.2206695 0
4.3690224 2.3632522 0.89797103 0
2.6487353 3.9350731 1.7272885 0
4.3633208 2.5087934 -0.39116251 0
4.3758478 -1.8089132 1.7511353 0
4.390564 -2.3263531 0.8982538 0
4.3922181 -2.2322807 1.105114 0
4.3723764 2.5252335 0.044459105 0
4.3592377 2.4634757 0.65225339 0
4.3771353 -2.5170126 -0.059692442 0
4.3727331 2.4703889 0.52499652 0
2.8176339 3.9131708 1.4999337 0
4.3651404 2.5156684 0.34984708 0
4.4008536 -2.3803856 0.6897366 0
-3.0872493 3.8938124 0.90394425 0
4.3860278 -2.4412882 -0.56687921 0
4.3880997 -2.3735209 0.79447949 0
4.3952999 -1.9765176 1.5157027 0
4.3668132 2.2248557 1.226253 0
-2.2443042 -4.4167509 -0.99012852 0
3.1685174 3.9209251 -0.3350212 0
4.3972912 -2.3570116 0.79667056 0
4.373457 -2.3656392 0.89876866 0
4.3707838 2.1385536 1.3618486 0
4.3610458 2.4571371 0.68996072 0
4.377924 2.5174816 -0.17018539 0
2.9651399 3.9220667 1.1675668 0
4.3707085 2.5230291 -0.2640388 0
4.3943634 -2.4814684 0.26767623 0
4.3663054 2.1278193 1.3955874 0
4.3902183 -2.4739335 -0.39266402 0
4.3758259 2.5162334 0.26516843 0
3.0695457 3.9304774 0.82624638 0
3.0205855 3.9218328 1.0258708 0
4.3711581 2.5134561 0.37232769 0
4.3831053 2.5205643 0.048555732 0
4.3591657 2.3579469 1.0031278 0
4.3970566 -2.4277096 0.58488071 0
4.3816257 -2.5196841 0.15712094 0
4.3732038 2.0532253 1.4953234 0
4.3621178 2.5592649 -0.061119974 0
4.3691301 2.4196031 0.79943764 0
4.3731637 2.4144046 0.79528165 0
4.3671136 2.5182769 -0.41963679 0
3.16731 3.9184082 -0.45645672 0
4.3849249 -2.3040109 1.0286415 0
4.3918619 -2.4801874 0.39602685 0
4.3859501 -2.5222571 0.048149228 0
4.3960438 -2.4772875 0.37227178 0
3.0631537 3.9161119 0.93988955 0
4.3575239 2.5053444 0.58511543 0
3.0163293 3.9247911 1.0546546 0
4.3678246 1.9653099 1.6353509 0
-2.7753382 3.8974164 1.6499679 0
4.3840985 -2.275331 1.1078272 0
4.3693819 2.5123992 0.47903609 0
4.3911209 -2.474453 0.47902894 0
4.3563976 2.4620211 0.77825117 0
3.1187949 3.9257495 0.71250749 0
3.1944613 3.9156325 0.3370738 0
4.3915129 1.8147849 1.7538857 0
4.3673429 2.3142798 1.1084731 0
4.3675337 2.5625935 0.15623331 0
3.1694946 3.9229624 0.48325467 0
-3.0844817 3.8897262 1.0133071 0
4.383049 -2.4374657 -0.72500432 0
2.6344459 3.9169269 1.8431458 0
2.9707627 3.9198396 1.2211256 0
3.2160203 3.9105361 -0.21703058 0
4.3862228 -2.5224195 -0.28427088 0
4.3683424 2.2961085 1.1525993 0
4.3845663 -2.5413475 0.04269135 0
3.2174971 3.9135051 0.13612318 0
4.3909578 -2.3491194 0.94509029 0
-2.4378853 3.894552 2.1404221 0
4.3601346 2.5580463 0.37208962 0
2.9600544 3.9096954 1.2831378 0
4.3668594 2.4108939 0.90129447 0
4.3808298 -2.5192103 -0.39662153 0
-4.0770626 2.8458045 -0.98754048 0
4.3885984 -2.5238328 0.26438951 0
4.391305 -2.44806 0.6514684 0
2.8966236 3.9186842 1.3982608 0
4.3974628 -2.4279358 0.69147432 0
-2.1869464 -4.4669061 -0.98749173 0
4.3701687 2.5223153 0.50169837 0
4.3933449 -2.5266569 -0.17367339 0
2.6801891 3.9304235 1.7572761 0
4.3673544 2.5624833 -0.28532946 0
4.3928213 -2.4806788 0.52341866 0
4.3775644 -2.4666479 0.69162822 0
4.3729239 2.3266473 1.0911174 0
3.2202249 3.9189892 0.018545985 0
3.0452795 3.920275 1.0446899 0
3.2176027 3.9123375 0.27706289 0
3.1151738 3.9179156 0.82715583 0
2.8216095 3.9111764 1.5752635 0
3.2179446 3.9144046 0.25218391 0
-4.08182 -2.8473539 -0.98869562 0
4.3924675 -2.4752283 0.58589852 0
3.2217987 3.9221528 -0.10006297 0
4.3879876 -2.5458703 0.19597149 0
4.3606176 2.5071847 0.69214022 0
3.017832 3.9187214 1.1477208 0
3.1689568 3.9218414 0.59843922 0
4.3890018 -2.1378462 1.3979049 0
4.369895 2.5219536 -0.57938254 0
4.3781633 2.5691257 -0.17541993 0
4.3750525 2.5672135 0.26382065 0
4.3843346 -2.5410416 0.34929168 0
4.3586435 2.4063189 1.0075545 0
4.3680506 2.562911 -0.39975077 0
4.3974686 -2.2348225 1.2158012 0
4.3590217 2.6093972 -0.064909697 0
-3.1279755 3.8957794 0.92375422 0
-3.1336646 3.8992195 -0.89011824 0
3.2190099 3.9165466 -0.33922982 0
3.0141845 3.9197795 1.1714597 0
4.3928342 -2.5522768 -0.11351007 0
-2.6869831 3.8959916 1.8513074 0
4.3937445 -2.4258652 0.79817402 0
4.3796778 2.2731123 1.2160618 0
3.1644306 3.9124057 0.71315241 0
4.3905554 -2.0730402 1.5023808 0
4.3884468 -1.9737221 1.6384821 0
4.3829889 -2.5392628 -0.4247517 0
3.0632951 3.9164295 1.0568166 0
4.3947029 -2.5274649 0.37184954 0
4.3829756 -2.322408 1.112541 0
4.3871584 -2.5229759 0.47939718 0
4.3618894 2.6112165 0.044947028 0
4.3693614 2.4199002 0.95026231 0
4.3594007 2.4561896 0.90380168 0
4.3577757 2.6086066 0.26343966 0
4.3899174 -2.2528162 1.2333035 0
4.3935242 -2.1652858 1.3699512 0
3.2210565 3.9160218 0.40278983 0
4.3923378 -2.5516202 -0.26971698 0
4.3811102 -2.5367789 0.50201488 0
4.3685989 2.5632482 0.47948372 0
3.1970317 3.9242513 0.51448309 0
4.3778181 -2.4729936 0.7776916 0
-2.7704239 3.8891797 1.7570829 0
4.3866243 -2.3727267 1.0091894 0
4.3630519 2.6179121 0.038445115 0
-3.279007 3.8897765 0.12071204 0
-3.2797775 3.8902276 -0.083519816 0
4.3878431 -2.3054011 1.1536062 0
4.3864889 -2.5742419 -0.17731935 0
4.388916 -2.5757332 -0.066101789 0
4.3824654 -2.5201836 0.5866363 0
3.1216891 3.9253366 0.86895347 0
4.3669701 2.3140862 1.2180247 0
-3.0847363 3.8901021 1.1228101 0
-2.9904351 3.9059498 1.3096318 0
4.3805847 2.4683867 0.79934072 0
4.3745804 1.8084379 1.8745704 0
4.3973694 -2.4830081 0.65025878 0
4.3581448 1.9613612 1.7575586 0
4.364912 2.620446 -0.11817265 0
-4.04808 -2.9284844 -0.98723471 0
4.3714275 2.364547 1.1147339 0
4.3739371 2.5272968 0.65420783 0
-2.9344206 3.904923 1.4449978 0
4.3612146 2.50754 0.79971659 0
4.3516817 2.6361573 0.26361012 0
4.3939352 -2.5788178 0.04371655 0
4.3630085 2.6178527 -0.27535224 0
3.2215261 3.9216053 -0.46360326 0
4.3899069 -2.5763421 0.26290691 0
3.1166015 3.9210043 0.94409192 0
4.3555899 2.5552533 0.69394004 0
4.3860703 -2.471545 0.80011797 0
-2.8266897 3.8954418 1.6809363 0
3.2259789 3.9305568 0.36759341 0
4.3937769 -2.2801883 1.2202888 0
-4.0007348 3.0045753 -0.9827143 0
4.3697605 2.2967842 1.2773654 0
-4.0542316 2.9305859 -0.98873544 0
4.3755627 -2.1319089 1.5206826 0
4.367939 2.6245685 0.19329238 0
