# .PCD v0.7 - Point Cloud Data file format
VERSION 0.7
FIELDS x y z intensity
SIZE 4 4 4 4
TYPE F F F F
COUNT 1 1 1 1
WIDTH 1407
HEIGHT 1
VIEWPOINT 0 0 0 1 0 0 0
POINTS 1407
DATA ascii
4.5183611 -5.7378507 1.4679253 0
4.5106907 -5.754756 1.4332635 0
-3.3809528 -6.3864737 1.8232285 0
-3.035161 -6.7389135 0.95807356 0
4.5096784 -5.778718 1.3507074 0
-2.9938855 -6.7890482 0.71902537 0
-2.9998364 -6.7957473 -0.65039581 0
-5.9636836 4.1018949 1.8034449 0
-3.158814 -6.6381207 1.2686839 0
-6.2307096 4.0998588 -0.16164085 0
-6.2189898 4.0954766 -0.47605377 0
-6.2340617 4.1011124 0.15265158 0
-6.7148261 -3.1613152 0.79072845 0
-3.229301 -6.5502243 1.5443676 0
4.5059271 -5.9532919 0.020835578 0
-3.1969483 -6.586689 1.4696267 0
-2.9187932 -6.873127 -0.10034782 0
-2.9135666 -6.8670712 -0.37412703 0
-3.3505166 -6.4269276 1.8048065 0
-3.0331006 -6.7343388 1.130079 0
-6.2296948 4.0994797 0.46666706 0
-3.3245087 -6.45367 1.7721759 0
4.5110526 -5.7285695 1.6384149 0
-3.2949324 -6.4580269 1.8211237 0
4.5117044 -5.9657912 -0.17373013 0
-2.9917274 -6.7866187 0.99273652 0
-2.9102044 -6.8631759 -0.64937431 0
-2.9213729 -6.8761158 0.44634047 0
4.503747 -5.9485755 0.59829217 0
4.5127525 -5.9680595 0.21320614 0
-3.0722265 -6.7090735 1.2678411 0
-3.0449505 -6.7473602 1.1242819 0
-3.1424599 -6.6207399 1.5429496 0
-3.1376438 -6.6474667 1.4492919 0
-2.9132738 -6.8667316 0.71930516 0
-6.5198817 -3.2225387 1.808314 0
4.5089264 -5.9597812 -0.56442547 0
-6.2264171 4.0982537 0.7808007 0
4.5144815 -5.9717994 -0.36957496 0
-2.8761911 -6.9087062 0.43741846 0
-3.1939435 -6.5804982 1.6411216 0
-6.7075286 -3.1595039 1.1120631 0
-5.9595294 4.0990376 1.975008 0
-2.8801024 -6.9181013 0.26193166 0
-6.2283196 4.0989652 -0.7942766 0
4.5159392 -5.9749537 0.40632647 0
-2.8738708 -6.9031334 0.61195576 0
-6.814261 -3.1281118 0.26163268 0
4.515852 -5.7915878 1.5494143 0
-2.8291931 -6.9405518 0.44615459 0
-3.2271791 -6.5446 1.7746614 0
4.5098176 -5.7270017 1.8106637 0
-3.0381634 -6.7455797 1.3034379 0
4.5094714 -5.9609604 -0.76333952 0
-3.3513536 -6.4285331 1.9777269 0
-2.8420634 -6.9559021 0.17289576 0
-2.8386822 -6.9518695 -0.37553293 0
4.5110092 -5.9642873 0.7929852 0
4.5162926 -5.7709641 1.6919482 0
-2.8465662 -6.9612727 -0.10141379 0
-2.9123569 -6.8656693 0.99336511 0
-2.9924679 -6.7874522 1.2684336 0
-6.8280921 -3.1344612 0.43603709 0
-3.190594 -6.573597 1.8131205 0
-2.8778775 -6.9127569 0.78602374 0
-2.9465714 -6.8402185 1.1262395 0
-2.8358274 -6.9484644 -0.65143347 0
-3.0697694 -6.7063861 1.5450656 0
-3.2358317 -6.5569687 1.826794 0
4.5083246 -5.9584789 0.9871732 0
-3.0357037 -6.740118 1.4762266 0
-2.8491693 -6.9358444 0.8002485 0
-6.8171306 -3.1294291 0.78602415 0
-6.5247011 -3.2249207 1.9824148 0
-2.8385544 -6.9517169 0.72016031 0
4.5135565 -5.7868032 1.7471095 0
-6.2374701 4.1023865 1.0971799 0
-6.8354669 -3.1378467 0.61093682 0
-3.0486507 -6.7527976 1.4537195 0
-6.7079864 -3.1596174 1.4358214 0
-6.3336859 4.0938139 0.43471602 0
-2.8799348 -6.9176993 0.96045911 0
4.5122237 -5.7300572 1.9849182 0
-2.8725176 -6.8998828 1.1341842 0
4.5029297 -6.0686445 0.25752026 0
-3.1376019 -6.6474066 1.7796911 0
-3.1507025 -6.6294994 1.8255669 0
4.5080795 -6.0711036 0.18065824 0
-6.8199058 -3.1307032 0.96071374 0
4.5106392 -5.7546082 1.94742 0
-2.9857016 -6.7798362 1.544793 0
4.5099788 -6.0781446 0.079354048 0
-2.9157686 -6.8696227 1.26982 0
4.5085707 -6.0725951 0.43876922 0
-2.8404775 -6.954011 0.99517739 0
-2.8470702 -6.9325614 1.1282725 0
4.5146694 -5.9722071 1.1859936 0
4.5111747 -6.0797563 0.43336287 0
-6.3492055 4.1038451 0.61003608 0
-2.946012 -6.8393707 1.4555345 0
4.5070343 -6.0741768 0.6099515 0
-6.7944536 -3.1190193 1.3088926 0
-3.0426707 -6.7555871 1.652173 0
-6.2307525 4.099875 1.4139955 0
-6.8257866 -3.1334028 1.1358945 0
4.5088253 -6.0733666 0.69726503 0
-3.0694504 -6.706037 1.825734 0
-3.0358081 -6.7339268 1.7817987 0
-2.8774111 -6.9116368 1.3096282 0
-3.2033939 -6.5999694 1.9919714 0
-6.3509641 4.1049814 0.78602588 0
4.5119743 -5.9663758 1.3838992 0
4.5102954 -6.0785713 0.78602606 0
-2.8358068 -6.9484401 1.2708297 0
-3.0358043 -6.7403417 1.8251358 0
4.5032263 -6.141274 0.21052125 0
4.5043507 -6.0705595 0.9619956 0
-6.3507233 4.1048265 0.96205795 0
-6.7093949 -3.1599669 1.7625563 0
-6.9682202 -3.0854938 -0.18331027 0
4.5085516 -6.0725365 0.95661807 0
-2.8739929 -6.9034266 1.4842188 0
-2.918715 -6.8730359 1.5489092 0
-2.8064013 -7.0897493 0.17149122 0
4.5082588 -6.1525841 0.011272997 0
-2.7996297 -7.0814338 0.4477216 0
-2.8091416 -7.0931149 -0.10549101 0
-2.8444142 -6.9284081 1.4579072 0
-2.8046684 -7.0876212 -0.38279307 0
-6.3413515 4.0987687 1.137761 0
4.5077515 -6.1514435 -0.38932216 0
4.5092397 -5.9604588 1.5840364 0
-6.9859567 -3.0896282 0.1451789 0
4.509222 -6.1547484 0.40913621 0
4.5141268 -6.1657715 -0.18975183 0
-6.9744277 -3.086941 -0.51388073 0
-3.0322578 -6.7324677 1.9997828 0
-6.2239594 4.0973349 1.7330239 0
-6.8211093 -3.1312556 1.4868068 0
-2.8048453 -7.0878386 -0.66220266 0
-6.9843659 -3.0892575 0.47419262 0
4.5064735 -6.0662327 1.2167919 0
4.5106268 -6.0790181 1.1386474 0
-3.0032535 -6.7995934 1.8306283 0
-2.8309546 -6.9426522 1.5483011 0
4.5024061 -6.139431 0.80662954 0
-2.8747833 -6.9053249 1.6604356 0
-2.9479895 -6.8423676 1.7883239 0
4.5135832 -6.1645508 -0.59426725 0
4.5060396 -6.1475968 -0.79610395 0
-6.9691892 -3.0857198 0.80276245 0
-2.809804 -7.0939279 0.72494602 0
4.5159311 -6.169827 0.60911614 0
-6.3490191 4.1037245 1.3147452 0
4.5075078 -6.0748148 1.3150709 0
-2.9120975 -6.8653688 1.8285742 0
-6.8172746 -3.1294954 1.6629417 0
-2.8073063 -7.0908604 1.0025585 0
-2.8054104 -7.1195927 0.80717701 0
4.5136929 -5.9700937 1.7915585 0
4.5109863 -6.1587143 1.0096993 0
-2.8445826 -6.9286718 1.7908653 0
-6.347055 4.1024551 1.4916614 0
4.5087013 -6.0729899 1.4809188 0
-2.8783288 -6.9138417 1.8387182 0
4.5088062 -6.0765643 1.4925182 0
-6.8132372 -3.1276419 1.8398099 0
-6.984612 -3.0893147 1.1341956 0
-2.8339067 -6.9461737 1.8306899 0
4.5090117 -6.1542759 1.211886 0
-2.8015313 -7.1133308 1.1395352 0
-2.8075147 -7.0911169 1.2821218 0
-6.342433 4.0994673 1.6688695 0
-2.7701535 -7.2266064 -0.10966852 0
-2.7694669 -7.225738 0.17004341 0
-2.7674446 -7.2231808 -0.39000469 0
-2.7671359 -7.224154 0.42566395 0
-2.7703686 -7.2325935 0.24435997 0
-2.7638056 -7.2154598 0.60616136 0
4.5103769 -6.0786815 1.6708938 0
-6.9646487 -3.0846615 1.4643083 0
4.5078158 -6.1515884 1.4163532 0
-2.7790575 -7.2378654 0.44962651 0
-7.1475806 -3.0360045 0.24291825 0
-2.7720084 -7.2289519 -0.67319274 0
4.4988766 -6.3378191 0.002572 0
-2.7700667 -7.2264962 0.72906125 0
-7.1491828 -3.036685 0.42420208 0
4.5142288 -6.089757 1.7505323 0
4.4977055 -6.3350821 0.41194087 0
-2.7693787 -7.2300091 0.78603101 0
-2.8054523 -7.0885839 1.5635462 0
-6.3526826 4.1060925 1.8492776 0
-2.8025756 -7.1150169 1.4745625 0
4.5106125 -6.0789986 1.8500512 0
4.5064688 -6.3555608 -0.20470262 0
-6.6246552 4.1040621 0.14623079 0
-6.6260009 4.1045432 -0.18118134 0
4.5055943 -6.3535166 -0.41195714 0
4.5097389 -6.1559095 1.6251793 0
4.5011129 -6.3430448 -0.61938864 0
-7.1608868 -3.0416565 0.6049192 0
-2.7702773 -7.2323556 0.96632171 0
4.5122261 -6.3690162 0.20681489 0
4.5041895 -6.350235 0.61753577 0
-7.1534791 -3.0385101 0.7860319 0
-6.6310935 4.1063647 0.4732886 0
-6.6331582 4.1071029 -0.51043403 0
-2.7794352 -7.2383428 1.0110959 0
-2.7671239 -7.224123 1.1463971 0
-7.1474333 -3.0359421 0.96680462 0
-2.7450833 -7.2831306 0.81284958 0
4.5051203 -6.3524103 0.82380289 0
-2.8005552 -7.0825706 1.846999 0
4.5016026 -6.4037747 0.444235 0
4.509131 -6.1545439 1.8360651 0
-2.7718196 -7.228713 1.2925553 0
-6.6405578 4.1097498 0.8013916 0
-2.76808 -7.2266188 1.3272567 0
-2.7994609 -7.1099892 1.8113633 0
-6.9915185 -3.0909245 1.8034426 0
-7.2534671 -3.0098927 0.14093006 0
4.5061226 -6.3547525 1.0315222 0
4.5013161 -6.4028621 0.71358305 0
-2.740942 -7.276226 1.1489451 0
-2.7348781 -7.3687177 -0.11440706 0
-7.1580424 -3.0404482 1.148311 0
4.5116682 -6.435843 0.17457835 0
-7.2669396 -3.0128303 -0.19774431 0
-2.73315 -7.366467 0.45090464 0
-6.6223311 4.1032305 1.128828 0
-2.7416615 -7.377553 0.16825143 0
-7.2570195 -3.0106673 -0.53653061 0
-7.1469302 -3.0357282 1.3290979 0
-2.7409205 -7.3765879 -0.39916527 0
-7.2656026 -3.0125387 0.47868678 0
4.5071025 -6.4532032 0.41936305 0
4.513895 -6.4629292 0.049990237 0
4.5122771 -6.4606128 0.23489815 0
4.5064349 -6.3554816 1.2409313 0
4.5017118 -6.4041238 0.98405123 0
4.5048761 -6.450016 0.60288846 0
-2.771297 -7.2350173 1.5094213 0
-2.7359614 -7.3701291 0.73390031 0
-7.2541366 -3.0100386 0.81645757 0
-2.770164 -7.2266197 1.5770996 0
-2.7413969 -7.3772082 -0.68524164 0
-6.7658324 4.1028619 0.23264146 0
4.5033526 -6.348279 1.4510484 0
-2.7326312 -7.3657918 1.0173745 0
-7.1586432 -3.0407035 1.5122278 0
4.5150318 -6.4645567 0.78603512 0
-2.7692823 -7.2297578 1.6910894 0
-2.748703 -7.2891645 1.4893775 0
-6.7745829 4.1081686 0.41696307 0
-7.251678 -3.0095026 1.1554524 0
-6.6336961 4.1072955 1.4607742 0
-6.7691231 4.1048574 0.60174799 0
4.513279 -6.4620466 0.96952295 0
4.5016952 -6.4454613 1.1522672 0
4.5092993 -6.4282951 1.2592181 0
4.4999361 -6.5609965 -0.22105616 0
-2.7306399 -7.3631983 1.3024728 0
-2.767535 -7.2251959 1.8735911 0
4.5027876 -6.5679345 -0.0086286068 0
-7.165267 -3.0435169 1.6961029 0
-2.7747293 -7.2323918 1.8665706 0
4.5026531 -6.5676069 0.41571715 0
4.5096946 -6.3631001 1.6690171 0
-6.7866521 4.1154871 0.78603661 0
4.5067229 -6.577507 0.20349604 0
4.5042415 -6.4491072 1.3361921 0
-2.6948586 -7.5088348 0.16691673 0
-6.7735529 4.1075439 0.97044504 0
4.505589 -6.5747485 -0.43700689 0
-2.698679 -7.5139604 -0.11933318 0
4.5050402 -6.4147267 1.5322669 0
-2.6948805 -7.5088644 -0.40596467 0
4.504509 -6.5721211 -0.65305543 0
4.5054626 -6.574441 0.62839735 0
-7.2543254 -3.0100799 1.4969903 0
-7.1549749 -3.0391452 1.8787339 0
-2.6999078 -7.5156097 0.45263076 0
4.4994173 -6.5597358 0.84033692 0
-6.7687054 4.1046042 1.1547899 0
4.4992552 -6.441968 1.5196958 0
-2.7048306 -7.4874735 0.82100052 0
-6.6322141 4.1067653 1.7942647 0
-2.6922216 -7.5052962 0.73816693 0
4.5037012 -6.3490939 1.8832623 0
-2.7550039 -7.2996693 1.8333507 0
-2.6997528 -7.5154014 -0.6956892 0
-6.7702951 4.1055684 1.3397977 0
-2.7434616 -7.3798971 1.5936497 0
4.50633 -6.5765514 1.0566462 0
4.5049257 -6.414361 1.8100438 0
-2.706676 -7.4906521 1.163578 0
-2.7016082 -7.5178909 1.0263497 0
-6.7629666 4.1011243 1.5245218 0
4.5109768 -6.4587502 1.7070048 0
4.5035629 -6.5698195 1.2720613 0
-7.5066323 -2.9372835 0.41054031 0
-7.2591519 -3.0111322 1.842013 0
-7.5145979 -2.9404004 0.2216832 0
-2.6887236 -7.5006027 1.3128231 0
-2.6714363 -7.6220374 0.2211771 0
-7.5101423 -2.9386568 0.59830421 0
-2.6675906 -7.6110654 0.59829497 0
-2.73805 -7.3728495 1.8837245 0
-7.4978557 -2.9338491 0.78603983 0
4.5038991 -6.4486165 1.8916762 0
-7.5400891 -2.9269006 -0.21082467 0
-2.6729543 -7.6263685 0.40959141 0
-6.7671089 4.1036363 1.7112195 0
-7.5373321 -2.9263406 0.48301816 0
4.5024223 -6.5670452 1.4901931 0
-7.5516782 -2.9292543 0.13612635 0
-2.7065859 -7.4904966 1.5080394 0
-2.6614523 -7.6624141 -0.12444991 0
-7.5003319 -2.934818 0.97353095 0
-2.6621742 -7.6634126 0.16507944 0
-2.6554322 -7.6540909 0.45411977 0
-7.548861 -2.9286823 -0.56003821 0
-2.6723149 -7.6245437 0.78604066 0
-2.666657 -7.6084008 0.97371995 0
-2.6611552 -7.662003 -0.4150182 0
-7.5346532 -2.9257965 0.829934 0
-2.65487 -7.6836796 0.48253673 0
4.5009918 -6.7877111 0.16875973 0
-2.6627536 -7.6642137 0.74396634 0
4.4978275 -6.7922773 -0.23975718 0
4.5046949 -6.5725737 1.713168 0
-6.7774239 4.1098914 1.9001777 0
-2.7032757 -7.5201287 1.6075233 0
-2.6670246 -7.6701183 -0.70862389 0
-2.6699579 -7.6178193 1.1620687 0
4.497582 -6.791656 0.41931182 0
4.5019417 -6.8027091 -0.020025551 0
4.4972525 -6.7908196 -0.46123445 0
4.501955 -6.7909398 0.45069909 0
4.5022364 -6.8034558 0.19986679 0
4.4939089 -6.7823429 -0.6833142 0
4.4957685 -6.7870584 0.63854384 0
-7.5014243 -2.9352455 1.3494101 0
-2.6556664 -7.6544142 1.0335989 0
-2.6534119 -7.6810818 0.82847577 0
-7.0579438 4.1104422 0.13905457 0
-2.7037745 -7.4856539 1.8545963 0
-7.5335913 -2.9478321 1.1628903 0
-7.5409341 -2.9270723 1.1787306 0
-2.6693795 -7.6161685 1.3504713 0
-7.0707335 4.1148119 -0.20336097 0
4.5030384 -6.7945743 0.73324001 0
-7.0660501 4.1132116 0.48049498 0
-7.0642228 4.1125875 -0.54619336 0
4.4974232 -6.7757449 1.0150316 0
-7.498415 -2.934068 1.5378518 0
4.5005569 -6.7991986 0.85980815 0
4.5047054 -6.5725985 1.9385939 0
4.5034752 -6.8590889 0.019916296 0
4.4985223 -6.8515458 0.4042311 0
-7.0565467 4.1099653 0.82197529 0
4.505619 -6.8623543 0.21190298 0
-2.7019033 -7.5182867 1.9020317 0
-2.6546764 -7.6833344 1.1759615 0
4.4965801 -6.7891164 1.0804096 0
-2.6588435 -7.6588073 1.3263099 0
-2.6693513 -7.6160884 1.5395622 0
4.5029979 -6.8583617 0.59505129 0
4.4948564 -6.845962 0.78604382 0
-7.5429969 -2.9274912 1.5295855 0
-2.6202292 -7.8100796 -0.12949941 0
-2.6147814 -7.8023157 0.45581532 0
-7.0514874 4.1082368 1.164416 0
-2.6228929 -7.8138752 0.16333823 0
4.501585 -6.789701 1.3013744 0
4.4980679 -6.8508534 0.97682804 0
-7.5155468 -2.9407716 1.729493 0
-2.6241627 -7.8156853 -0.42409122 0
-2.6714582 -7.6220999 1.7302282 0
4.5023031 -6.8036256 1.3063378 0
-2.6181169 -7.8070688 0.7487067 0
-2.6538382 -7.6818419 1.5252306 0
-2.6209774 -7.8111458 -0.71944666 0
4.4981537 -6.8509846 1.1678267 0
-2.665473 -7.667973 1.6228551 0
4.4972239 -6.7907481 1.5301518 0
4.4997616 -6.783587 1.5878878 0
-2.6694627 -7.616406 1.9204885 0
-7.5183668 -2.941875 1.9208786 0
-7.0516934 4.1083069 1.5092641 0
4.4950066 -6.8461905 1.3588352 0
-2.6225934 -7.8134489 1.0432522 0
-7.2386489 4.1103148 0.20386815 0
-7.5638118 -2.9317188 1.8866403 0
-2.6088824 -7.895999 0.48539311 0
-2.6483417 -7.6720533 1.8758808 0
4.4978437 -6.7923203 1.7596377 0
-2.661572 -7.66258 1.9200007 0
-2.6149082 -7.8024964 1.3375493 0
-7.2335706 4.1074314 0.59240383 0
-7.2461915 4.1145978 0.39787474 0
-2.6024384 -7.8841286 0.83650011 0
4.5006757 -6.854825 1.5516999 0
4.4986515 -6.7798634 1.8776248 0
-7.8544087 -2.8414226 -0.22613108 0
4.4965496 -7.0431118 -0.031676978 0
-7.8621755 -2.8428845 0.13109683 0
4.4951057 -7.0392909 0.42332858 0
4.4988871 -7.0492964 0.19588473 0
4.4992247 -7.0501885 -0.26085085 0
4.4956088 -7.0406227 -0.48977482 0
-7.8601575 -2.8425047 0.48826736 0
-7.8553824 -2.8416057 -0.58489406 0
-2.5809717 -7.9655781 -0.13503411 0
-7.2534628 4.1187267 0.78604811 0
-7.0602603 4.1112337 1.8584969 0
-2.5790267 -7.9627199 0.45776391 0
-2.5856361 -7.9724321 0.16143104 0
4.4971685 -7.0447493 0.65116876 0
4.4971251 -6.7904973 1.9919951 0
-2.6023483 -7.8839626 1.1891147 0
-7.2437959 4.1132374 0.97996545 0
4.5046496 -6.8608775 1.7455258 0
-2.585506 -7.9722409 -0.43343675 0
-7.8990231 -2.8323298 0.19916761 0
4.4989328 -7.049417 -0.7230618 0
-7.8961272 -2.8312914 0.39529154 0
-7.8734069 -2.8231444 0.78604877 0
4.4966526 -7.0433846 0.87961453 0
-2.5810003 -7.9656205 0.75443685 0
-7.8672872 -2.8438468 0.84621787 0
-2.5827579 -7.9682031 -0.7326436 0
-2.6314082 -7.8260112 1.6401113 0
-7.2488422 4.1161032 1.1743641 0
4.4940805 -7.0365801 1.1086442 0
-7.9107146 -2.8365219 0.59041595 0
4.500442 -6.8544698 1.9386523 0
-7.2336264 4.1074634 1.3678253 0
-7.861033 -2.8426695 1.2047971 0
-2.586586 -7.9738278 1.0530047 0
-2.5659831 -8.0542908 0.19485456 0
-2.6094017 -7.8969555 1.5457157 0
-7.9095783 -2.8361146 0.98165601 0
-2.5658379 -8.0538349 0.39229843 0
-2.6198554 -7.8095465 1.9385629 0
-2.5633295 -8.0459614 0.58947355 0
-2.5735106 -7.9546146 1.3500254 0
4.499012 -7.0496249 1.3424971 0
4.4934688 -7.1858912 0.16212177 0
-7.2484345 4.1158714 1.5643265 0
-7.9078426 -2.8354921 1.1773885 0
-2.5658805 -8.0539694 0.78605133 0
4.4918208 -7.030601 1.5732665 0
-2.5599091 -8.0352259 0.9823662 0
4.4948688 -7.1908436 0.45736808 0
-7.853477 -2.8412471 1.5649656 0
-2.5926251 -7.8660526 1.8985139 0
-7.8949494 -2.830869 1.3726311 0
-2.5498772 -8.093646 0.48795193 0
4.4933834 -7.1855888 0.75277829 0
-2.5434113 -8.1291828 0.15956837 0
-7.2505398 4.1170669 1.7607704 0
-2.5450597 -8.1316814 -0.14121807 0
-2.5621126 -8.0421429 1.1792332 0
-2.5433855 -8.1291437 0.45983085 0
-2.5529952 -8.0995913 0.8452425 0
-2.5463777 -8.1336794 -0.44326442 0
-2.5835104 -7.9693089 1.6544702 0
-7.9020524 -2.833416 1.5698559 0
-2.559516 -8.0339918 1.3757598 0
4.494617 -7.1899529 1.0497642 0
-2.5418477 -8.1268129 0.76031244 0
4.4963694 -7.0426354 1.8134257 0
-7.8818445 -2.82617 1.7648997 0
-7.2447672 4.1137891 1.9571261 0
4.4900026 -7.2858853 -0.013023317 0
-2.5480375 -8.1361942 -0.74740589 0
-2.5494566 -8.092844 1.2030591 0
4.4966722 -7.2967081 0.18661642 0
4.4909587 -7.3017278 -0.281241 0
-7.524157 4.1151414 0.13130897 0
4.4954276 -7.2946882 0.38690057 0
4.4921131 -7.3049202 0.19174075 0
-7.5240569 4.115109 -0.22590286 0
-2.5608997 -8.0383348 1.5737534 0
4.4945784 -7.3117342 -0.044845283 0
-7.867269 -2.8438432 1.9311373 0
-2.5448642 -8.1313848 1.0624239 0
-7.5185533 4.1133161 -0.58391994 0
-2.5758357 -7.9580317 1.9574432 0
4.4968309 -7.2969656 0.58652341 0
4.4974918 -7.2001228 1.3496288 0
4.4961658 -7.3161235 -0.52152628 0
4.4933391 -7.3083081 0.66405439 0
4.4971189 -7.2974324 0.78605473 0
4.5002398 -7.3273864 0.42807627 0
-7.544477 4.1217599 0.48846409 0
-7.8998671 -2.8326323 1.9657161 0
-2.5398283 -8.1237526 1.3649757 0
4.496202 -7.2959447 0.98555827 0
4.4944983 -7.3115125 0.90155137 0
-2.5638154 -8.0474873 1.7734127 0
4.4930048 -7.1842499 1.648531 0
-8.1845551 -2.750175 0.12584734 0
-8.1721516 -2.7480235 0.49333292 0
-7.5419717 4.120944 0.84629029 0
4.5020208 -7.3323092 -0.76525629 0
-2.5550814 -8.1035681 1.5649574 0
-8.1915283 -2.751385 -0.24267751 0
-8.1763344 -2.748749 -0.61108041 0
4.4949389 -7.2938948 1.1851662 0
-2.4959488 -8.2834587 -0.14648667 0
4.4928932 -7.3070765 1.139745 0
-2.4902282 -8.2993755 0.12873298 0
-7.5308003 4.1173053 1.2044468 0
-2.506146 -8.2994051 0.15743095 0
-2.5391316 -8.1226969 1.6707395 0
-8.1824112 -2.7498033 0.86159253 0
4.4891353 -7.2966871 1.3786566 0
-2.5047336 -8.2971964 0.4619233 0
-2.5069246 -8.3006229 -0.45363289 0
-2.5675356 -8.059164 1.974983 0
4.500104 -7.3022766 1.3859529 0
-2.500246 -8.2901793 -0.76006508 0
-2.4976339 -8.3140011 0.49095321 0
4.4930372 -7.1843643 1.9528286 0
-2.503808 -8.2957497 0.76665127 0
-2.550334 -8.0945168 1.9272851 0
4.4911437 -7.2877364 1.5853393 0
-8.1846237 -2.7501872 1.2312167 0
-2.4971242 -8.312994 0.85384256 0
4.4901886 -7.2995982 1.6221989 0
-7.5363727 4.1191201 1.5661376 0
-2.5352879 -8.1168709 1.9787049 0
-2.5072727 -8.3011675 1.0730894 0
4.4879665 -7.2825813 1.7860866 0
-8.3127413 -2.7141852 0.17447823 0
-8.3139915 -2.7145934 0.37864575 0
-2.497344 -8.3134289 1.2181251 0
-2.503643 -8.2954912 1.3802394 0
-8.323946 -2.7178438 0.58221948 0
-8.3125191 -2.7141125 0.78605962 0
-8.1835098 -2.7499938 1.6028488 0
4.4951267 -7.3132501 1.8719248 0
-7.7636147 4.1184902 0.1714192 0
-7.7626705 4.1179895 0.37671962 0
-7.5296721 4.1169376 1.9293101 0
-8.3117819 -2.713872 0.98960245 0
4.4971042 -7.2974086 1.9909471 0
-2.486608 -8.2922268 1.5816965 0
4.4838204 -7.5770106 -0.30373937 0
-2.4578795 -8.4585733 -0.15319106 0
-7.7672911 4.120441 0.58137941 0
-2.4602575 -8.4624119 0.15544954 0
-2.4553709 -8.4545231 -0.46262574 0
4.4896517 -7.5938826 -0.058700234 0
4.4896183 -7.5937862 0.1870015 0
-2.4606934 -8.4631147 0.46396494 0
-8.313817 -2.7145364 1.1934661 0
-2.5054455 -8.2983093 1.691159 0
-7.7718363 4.1228518 0.78606117 0
4.4901042 -7.595192 0.43242449 0
4.4888301 -7.5915055 -0.55310464 0
-2.4548197 -8.4536333 0.77228653 0
-8.1644936 -2.7466953 1.9747245 0
-7.7655282 4.1195059 0.99069637 0
-2.4606538 -8.4630518 -0.77543998 0
4.4897957 -7.5942988 0.67812335 0
-8.3149614 -2.71491 1.3978069 0
-2.444119 -8.5083485 0.37368765 0
4.4875045 -7.5876698 0.92412609 0
-2.4549074 -8.4537754 1.0819488 0
-2.4483924 -8.5232258 0.16585881 0
4.4921422 -7.6494951 0.15432513 0
-2.4449341 -8.5111866 0.57991815 0
-7.7739329 4.1239643 1.1959975 0
-2.4434638 -8.5416918 0.12530942 0
-2.4935622 -8.3059597 1.9529344 0
4.4938383 -7.655839 0.46518952 0
-2.444916 -8.5111237 0.78606278 0
-7.7594771 4.1162958 1.4003774 0
-8.3211832 -2.7169416 1.6033695 0
-2.4440665 -8.5429268 0.49411458 0
4.4902945 -7.5957432 1.1730552 0
-2.4368181 -8.5280886 0.8625282 0
4.4942999 -7.657567 0.77664161 0
-8.2971992 -2.7091107 1.8064176 0
-2.446177 -8.5155134 0.99231267 0
-2.4576225 -8.4581585 1.3941332 0
-8.5186844 -2.6505845 -0.25872606 0
-2.4432125 -8.5051937 1.1982858 0
4.4906259 -7.6438227 1.0879598 0
4.48843 -7.5903473 1.4224702 0
-8.530859 -2.6525171 0.12016346 0
-7.7725658 4.123239 1.6075733 0
-2.4339628 -8.5222435 1.2320129 0
-2.4024458 -8.6119061 0.46565336 0
-8.5363159 -2.6533835 0.49933302 0
-8.5307312 -2.6524971 -0.64028805 0
-2.4424465 -8.5025272 1.4047632 0
-2.4123011 -8.6283369 0.15341225 0
-2.4141455 -8.6314116 -0.15973249 0
-8.5204887 -2.6508708 0.87822181 0
4.4867029 -7.7711811 0.15848529 0
-2.4599004 -8.4618349 1.7092364 0
4.4915619 -7.6473236 1.4023811 0
-7.7773542 4.1257792 1.8152647 0
-2.4122167 -8.6281958 -0.78965843 0
4.4878516 -7.7731714 0.5771212 0
-2.4254971 -8.6503363 -0.47589338 0
4.4946899 -7.7850151 0.36731318 0
-2.4143801 -8.6318026 0.77915645 0
4.4959955 -7.6122379 1.6798705 0
4.4869318 -7.7715778 0.78606617 0
-2.4486835 -8.5242386 1.6141539 0
4.4872217 -7.6310883 1.7165289 0
4.4836588 -7.7659087 0.99481606 0
4.4871211 -7.5865607 1.9307983 0
-2.4411669 -8.5369902 1.6061203 0
-2.4122171 -8.6281967 1.0930347 0
-2.4424255 -8.5024538 1.8202192 0
-8.5413494 -2.6541827 1.2606287 0
-8.0458832 4.1237192 0.12258442 0
-8.047966 4.1243649 -0.25221753 0
-8.0428066 4.1227651 0.49675936 0
4.48562 -7.7693062 1.2039757 0
-2.4085946 -8.6221581 1.4081938 0
-8.0361366 4.120698 0.87096852 0
-8.0610943 4.1284337 -0.62955815 0
-2.3801894 -8.7621984 0.12231669 0
-8.5307255 -2.6524961 1.6429448 0
4.4876981 -7.7729053 1.4137888 0
4.4836845 -7.8971071 -0.33026952 0
-2.4373641 -8.5292053 1.9806294 0
-2.3791738 -8.7600412 0.4970417 0
4.4864883 -7.905611 0.18186192 0
4.4870586 -7.9073405 -0.074221581 0
4.4821148 -7.8923459 -0.58783942 0
4.4860563 -7.9043021 0.43751404 0
-2.3624744 -8.7977467 -0.16586375 0
4.4850121 -7.7682528 1.6235905 0
4.4865742 -7.9058723 0.69354057 0
-2.3668346 -8.8052568 0.15115599 0
-2.3812652 -8.7644815 0.87243944 0
-8.0466747 4.1239643 1.2476375 0
4.4834194 -7.8963022 0.94959539 0
-2.3675623 -8.80651 0.46826935 0
-8.7569027 -2.5836909 0.1475296 0
-2.416111 -8.6346884 1.729003 0
-8.7554932 -2.5832751 0.36082956 0
-2.3703852 -8.8113728 -0.48557663 0
-8.7649355 -2.586061 0.57333624 0
4.4841561 -7.8985376 1.2080399 0
4.4888563 -7.7749114 1.8355829 0
-8.7572031 -2.5837796 0.78607064 0
-2.3747373 -8.8188696 0.78654385 0
-2.3838248 -8.7699175 1.2496533 0
-2.3689828 -8.8089571 1.1047323 0
-8.7608128 -2.5848444 0.99870557 0
-8.0565529 4.1270261 1.6273029 0
4.4837303 -7.8972464 1.4682872 0
-8.7711945 -2.5879076 1.2120758 0
-2.3656311 -8.8031836 1.4246556 0
-2.3814907 -8.7649612 1.6281898 0
-8.8903179 -2.5473068 0.1142346 0
4.4859509 -7.9039817 1.7329767 0
-8.77458 -2.5889063 1.4259038 0
-8.9009113 -2.5488334 -0.27773404 0
-2.3597345 -8.793026 1.746063 0
-8.9028397 -2.5491114 0.50538623 0
-2.3183646 -8.9844389 0.1488594 0
-2.3181682 -8.9840889 -0.17319319 0
-8.9014645 -2.5489132 -0.67100137 0
4.4819198 -8.1302195 0.14624803 0
-8.7690868 -2.5872858 1.6397293 0
-2.320406 -9.0023575 0.1189492 0
-2.3219438 -8.9908113 -0.49710834 0
-2.3233738 -8.9933586 0.47071919 0
-8.8999004 -2.5486877 0.89708048 0
4.4837866 -8.1376276 0.47328532 0
-2.3111596 -9.0121632 0.13538724 0
-2.3185434 -8.99825 0.50037211 0
-2.3116138 -9.0139351 0.35259002 0
-8.3485165 4.1263657 0.13477105 0
-2.319417 -8.9863129 0.79272687 0
-8.3477879 4.1260056 0.3523027 0
4.4828959 -8.1340933 0.80066407 0
-8.7653236 -2.5861754 1.8544306 0
-8.8811512 -2.5459857 1.2886058 0
-2.3094532 -9.0055103 0.78607541 0
-8.3502426 4.1272187 0.56924301 0
-2.3162346 -9.0319529 0.56901765 0
-2.31703 -8.9820614 1.1156304 0
-2.3225417 -9.0070667 0.88268876 0
4.4826179 -8.1329899 1.1292076 0
-8.3386698 4.1214986 1.0026082 0
-2.3111923 -9.012291 1.0026619 0
-8.3662825 4.1351466 0.78607643 0
4.4803162 -8.2359581 -0.35840064 0
4.4822874 -8.2422371 0.17629083 0
4.4796901 -8.233963 0.44295782 0
4.4834223 -8.2458544 -0.091051668 0
-2.3167963 -8.9816446 1.4407114 0
-2.3222837 -9.0064983 1.2661831 0
-2.3133085 -9.0205421 1.2198803 0
-8.3532791 4.1287198 1.2201357 0
4.4829235 -8.134202 1.4599782 0
4.4818735 -8.2409182 -0.62857348 0
4.4824686 -8.242816 0.71028483 0
-8.8997307 -2.5486631 1.6858344 0
-2.3119764 -8.9837713 1.6489969 0
-2.3140283 -9.0233498 1.4375746 0
4.4768143 -8.2948389 0.12685579 0
-8.3538465 4.1290002 1.4377992 0
4.4810081 -8.3026094 0.34658277 0
4.4853706 -8.2520609 0.97927731 0
-2.3108289 -9.0108738 1.6546407 0
-2.2699685 -9.1717052 -0.18057987 0
-8.3421555 4.1232214 1.6549253 0
4.4822435 -8.3048983 0.56638956 0
-2.322732 -8.9922152 1.7705543 0
4.4809704 -8.2380409 1.2476032 0
-2.270299 -9.1723146 0.47300595 0
4.4797854 -8.3003445 0.78607929 0
4.4843321 -8.1397924 1.7944005 0
-2.279675 -9.1895847 0.14605108 0
-2.2791739 -9.1886616 -0.51045293 0
-2.2765269 -9.1837854 0.80070025 0
4.485065 -8.3101263 1.005908 0
-8.3464756 4.1253567 1.8744777 0
-2.3128214 -9.0186434 1.8744956 0
4.4743338 -8.2902431 1.2249221 0
4.4827018 -8.2435579 1.5204526 0
-2.2536912 -9.2405195 0.11562438 0
-2.2543273 -9.2419767 0.50380337 0
-2.2753582 -9.1816339 1.1291533 0
4.4772358 -8.29562 1.4453671 0
-8.6135349 4.1308689 -0.28069025 0
4.4838967 -8.247365 1.7963946 0
-8.6074638 4.1290822 0.50622642 0
-2.2565451 -9.2470589 0.89277434 0
-8.6255474 4.1344047 0.11284459 0
-9.2498808 -2.4430017 0.11698258 0
-8.6054211 4.1284809 -0.67514771 0
-2.2753525 -9.1816225 1.459747 0
4.4818397 -8.3041496 1.667151 0
-9.2662687 -2.44733 0.33962992 0
-8.6197491 4.1326981 0.90042984 0
-2.2571645 -9.2484779 1.2832098 0
-9.2936287 -2.4379406 0.10751839 0
4.4751015 -8.2916651 1.8875614 0
-9.2765398 -2.4500425 0.56273061 0
-9.2932358 -2.4378896 -0.29731739 0
-9.2630272 -2.4464736 0.78608352 0
-2.2186351 -9.3620911 0.14389612 0
-9.2958069 -2.4382229 0.51191998 0
-2.2748704 -9.1807346 1.793029 0
-9.2869339 -2.4370735 -0.70308876 0
-2.2242317 -9.3727627 -0.18874764 0
-9.2649755 -2.4469886 1.0091587 0
-8.6144733 4.131145 1.2953732 0
-9.2513304 -2.4433846 1.2318183 0
-9.291832 -2.4377079 0.91664326 0
-2.2279677 -9.3798847 -0.52310377 0
-2.2549009 -9.2432909 1.675262 0
-2.2344337 -9.3922138 0.47609761 0
-2.2284808 -9.3808641 0.80862713 0
-9.283596 -2.4366412 1.3221943 0
4.4737406 -8.5963335 -0.1084674 0
-9.2664328 -2.4473732 1.4563841 0
4.4760761 -8.6041641 0.17028151 0
4.4751854 -8.6011791 -0.38882399 0
-8.6191196 4.132513 1.693622 0
-2.2284837 -9.3808689 1.142601 0
4.4768085 -8.6066208 0.44916326 0
-9.2574129 -2.4449909 1.6800809 0
4.4759307 -8.6036768 -0.67095226 0
4.4764824 -8.6055269 0.72837019 0
4.4748759 -8.6001406 1.0081291 0
-9.2794628 -2.4361057 1.7301571 0
-2.226974 -9.3779907 1.4782225 0
-2.192986 -9.5071869 0.11176178 0
-9.2566147 -2.4447801 1.9053115 0
-2.1925874 -9.5062361 0.50762028 0
4.4778271 -8.6944027 0.13669856 0
4.477622 -8.6093483 1.291079 0
-2.1909637 -9.5023651 0.90372366 0
4.4788294 -8.6986351 0.48277742 0
4.4760227 -8.6867857 0.82871622 0
-2.2275834 -9.3791523 1.817229 0
-2.1699095 -9.5668001 -0.19648272 0
-2.1744742 -9.5758142 0.14093316 0
-2.1680605 -9.5895042 0.09849304 0
4.4784088 -8.6119881 1.576054 0
-2.1767521 -9.5803127 0.47855487 0
-2.1779585 -9.582695 -0.53687173 0
4.4773951 -8.6925802 1.1766579 0
-2.1978002 -9.5186625 1.3028992 0
-2.17664 -9.5800915 0.81666356 0
-2.1732039 -9.6122541 0.32702047 0
-2.171036 -9.6026649 0.55690873 0
-2.1707592 -9.6014414 0.78609103 0
-2.1678495 -9.5885706 1.0149369 0
4.4791722 -8.6145468 1.8643759 0
4.4754229 -8.6842518 1.5253673 0
-2.1747789 -9.576416 1.155656 0
-2.1867056 -9.4922132 1.7000678 0
-2.1663599 -9.5819826 1.2437168 0
-9.0054493 4.133985 0.093078673 0
-9.009654 4.1359153 0.3242853 0
-9.0059795 4.1342287 0.55540812 0
-2.1725378 -9.571991 1.4963342 0
4.4720488 -8.6700087 1.8755168 0
-9.0058765 4.1341815 0.78609288 0
-2.1684432 -9.591197 1.4738125 0
4.4678884 -8.8786259 0.55471408 0
4.4730411 -8.8888655 0.32255018 0
4.4771032 -8.8969393 0.089517772 0
-9.0061712 4.1343164 1.0167829 0
4.4701633 -8.8831472 0.78609389 0
-9.7024899 -2.3180935 -0.31784552 0
-9.7157803 -2.319622 0.1004546 0
-2.1705797 -9.600646 1.705122 0
-2.175508 -9.5778561 1.8414257 0
-9.7116108 -2.3191426 0.51887214 0
-9.0163689 4.1389976 1.2482463 0
-2.1160011 -9.7713737 -0.20482397 0
-9.7050991 -2.3183935 -0.73814368 0
-2.1214876 -9.7826042 0.1381132 0
-2.1152701 -9.7698765 -0.54909194 0
-2.1286354 -9.7818441 0.10775459 0
-2.1256943 -9.7745409 0.51150799 0
4.4805403 -8.9037685 1.0181297 0
-9.7065849 -2.3185644 0.93746161 0
-2.122498 -9.7846727 0.481327 0
-2.1689639 -9.5935001 1.935902 0
-9.0149193 4.1383324 1.479839 0
4.4741297 -8.8910294 1.249752 0
-2.1206455 -9.7620049 0.91490805 0
-2.1218452 -9.7833357 0.82492173 0
4.4683428 -8.997015 -0.42191452 0
4.4723082 -8.8874102 1.4819273 0
4.4721785 -9.0105829 0.16348779 0
-9.012639 4.1372857 1.7120275 0
4.4737606 -9.0161772 -0.12959802 0
4.4715786 -9.0084591 0.45587373 0
-9.7046642 -2.3183436 1.3575056 0
-2.1179128 -9.7752867 1.1690187 0
-9.8019819 -2.2901607 0.55177176 0
-9.8164082 -2.2935309 0.081068337 0
4.4707899 -9.0056705 0.74842584 0
-9.8200874 -2.2943907 0.3163268 0
4.4750357 -9.02069 -0.72009349 0
-2.1286139 -9.7817907 1.3218904 0
4.4734287 -8.889636 1.7152822 0
-9.0136499 4.1377492 1.9455342 0
-9.8180189 -2.2939074 0.78609782 0
4.4730625 -9.0137091 1.0428324 0
-2.1180077 -9.7754803 1.5157236 0
-9.8103924 -2.2921257 1.0206245 0
4.4682546 -8.8793545 1.9481332 0
-9.2450428 4.1395826 0.10242453 0
-9.7049236 -2.3183734 1.7802578 0
-9.238781 4.1378374 0.51686203 0
-2.1223674 -9.7662811 1.7281891 0
-9.2532997 4.1418853 -0.31308138 0
-9.8031387 -2.2904308 1.255059 0
-9.2404613 4.1383057 -0.72879469 0
4.4735684 -9.0154991 1.3388312 0
-9.804184 -2.2906749 1.4902518 0
-9.2512436 4.1413121 0.93236959 0
-2.1201787 -9.7799253 1.8661788 0
4.4736757 -9.0158787 1.6372777 0
-2.0628624 -9.9883404 0.13531782 0
-2.0638933 -9.99053 -0.21399885 0
-9.8044271 -2.2907319 1.7261851 0
-9.2419891 4.1387315 1.3483335 0
-2.0718694 -10.007467 0.48445123 0
-9.7822266 -2.2855449 1.960463 0
-2.0746846 -10.013446 -0.56677008 0
4.4723158 -9.0110664 1.9380229 0
-2.0680099 -9.9992723 0.83390528 0
-2.0535803 -10.047117 0.10392781 0
-2.0515914 -10.041966 0.51537585 0
-2.0680513 -9.9993601 1.1848079 0
-9.2483864 4.1405153 1.7681689 0
-2.0523806 -10.04401 0.92734408 0
-2.0610142 -9.984416 1.535828 0
4.467268 -9.3018789 0.12640424 0
-2.0514107 -10.041498 1.3405491 0
4.4696007 -9.312397 0.49318385 0
4.4653816 -9.2933731 0.85957789 0
-2.0673862 -9.9979467 1.8936976 0
-10.15642 -2.1914856 0.093046948 0
-10.158083 -2.1916528 -0.34087527 0
4.4703269 -9.31567 1.229655 0
-2.0542603 -10.048878 1.7573998 0
-2.0096765 -10.217239 0.13208045 0
-2.0105481 -10.219161 -0.22370261 0
-2.0069518 -10.211231 0.48720443 0
-10.146441 -2.1904824 0.95966208 0
-2.0059049 -10.228147 -0.18707508 0
-2.006218 -10.229743 0.057031274 0
-10.162672 -2.1921141 -0.77676296 0
-10.178804 -2.1937358 0.5267458 0
-2.0068603 -10.233017 0.30034041 0
-2.0125499 -10.223575 -0.58117729 0
-2.0060527 -10.228901 0.54345304 0
4.462234 -9.4376097 -0.15073419 0
4.4679961 -9.3051615 1.5994744 0
-2.0105629 -10.219193 0.84310448 0
4.4646564 -9.4466715 0.15618293 0
4.4636803 -9.4430199 -0.45943099 0
-2.0084701 -10.241226 0.78610796 0
4.4690561 -9.46313 0.46351445 0
4.4647002 -9.4468355 0.77063465 0
-2.0089459 -10.215629 1.199814 0
-2.0075116 -10.23634 1.0289391 0
-10.157951 -2.1916397 1.395748 0
4.4684958 -9.4610357 -0.77201426 0
4.4651041 -9.4483461 1.0793134 0
4.4675956 -9.3033552 1.9731357 0
-2.0103083 -10.250599 1.2727114 0
-1.9803548 -10.335526 0.099670604 0
-2.0093098 -10.21643 1.5590242 0
-1.981379 -10.338295 0.51978093 0
4.4665256 -9.5486526 0.04884851 0
-2.0077198 -10.237401 1.5157328 0
4.4698224 -9.5557013 0.29468435 0
4.468276 -9.4602127 1.3913097 0
4.4684749 -9.5528202 0.54060471 0
-10.165842 -2.1924329 1.8348703 0
-1.9811635 -10.337713 0.94042283 0
-2.0065746 -10.231562 1.7596204 0
4.4689074 -9.5537443 0.78611112 0
-2.0082974 -10.214198 1.9208623 0
4.4656143 -9.4502544 1.7032765 0
-9.7505722 4.1416507 0.04520905 0
-9.7509499 4.1418109 0.29260385 0
4.4699121 -9.555892 1.0316968 0
-1.9799132 -10.334332 1.3623027 0
4.4688177 -9.5535526 1.2774287 0
-9.7681618 4.1491218 0.5390569 0
-9.7547579 4.1434283 0.78611255 0
-1.9506001 -10.445985 -0.23328644 0
-1.9522185 -10.449694 0.12878096 0
-10.417777 -2.1208446 0.042570293 0
-10.416271 -2.120538 0.29093733 0
-10.409795 -2.1192195 0.53881305 0
-1.9513254 -10.447647 0.49058008 0
-9.7476501 4.1404095 1.03265 0
-1.9542608 -10.454374 -0.59755319 0
4.4674597 -9.5506487 1.5235305 0
-1.9536991 -10.453087 0.85309255 0
-10.406981 -2.1186466 1.0333469 0
-10.431025 -2.1235416 0.78611392 0
-1.9820547 -10.340123 1.7877164 0
4.4646254 -9.54459 1.7699605 0
-9.7675705 4.1488709 1.2804641 0
-1.9516973 -10.448499 1.2163925 0
-10.417744 -2.1208379 1.281361 0
-9.7697115 4.1497803 1.5284737 0
-10.40631 -2.1185102 1.5288409 0
-1.9543495 -10.454576 1.5829971 0
-9.7644978 4.1475658 1.7766547 0
-10.402984 -2.1178329 1.7773569 0
-9.9535732 4.1505156 0.090437874 0
-9.946825 4.1487379 0.52884036 0
-9.9556637 4.1510663 -0.34873462 0
-1.9527559 -10.450925 1.9515429 0
-1.9057865 -10.641181 0.095096156 0
-1.9031177 -10.633634 0.52416414 0
-9.9434128 4.1478386 0.96747071 0
-9.9600906 4.1522331 -0.78988028 0
-10.635191 -2.0544043 0.084948197 0
-10.640324 -2.054846 -0.36537373 0
-1.9027438 -10.632576 0.95355684 0
-1.888504 -10.681297 0.12550172 0
-1.892365 -10.690502 -0.2438674 0
-9.9412708 4.1472745 1.4075776 0
-1.8910456 -10.687357 0.49401301 0
-1.888885 -10.682206 -0.61362898 0
-10.656132 -2.0562069 0.53481871 0
-10.639744 -2.0547962 0.98474324 0
-1.8917956 -10.689145 0.86319029 0
-1.9042444 -10.63682 1.3849375 0
4.4592276 -9.9401846 0.14786874 0
4.4595432 -9.9414368 -0.50154728 0
4.4601374 -9.9437933 0.47159624 0
4.4633565 -9.9565659 -0.17707396 0
-9.9374447 4.1462665 1.8500129 0
-1.894671 -10.695999 1.2343376 0
4.4618521 -9.9505968 0.7961514 0
4.458818 -10.003041 0.11446774 0
4.4595289 -9.9413795 1.1209421 0
-10.663551 -2.0568459 1.4386965 0
-1.8870754 -10.677892 1.6049569 0
-1.9087005 -10.64942 1.8203658 0
4.460731 -10.012291 0.50509715 0
4.4591503 -9.9398766 1.4480344 0
4.4608188 -10.012715 0.89639086 0
-10.646185 -2.0553508 1.8920316 0
4.4587379 -10.002654 1.288213 0
-1.8893399 -10.68329 1.9814279 0
4.4618616 -9.950635 1.7798377 0
-1.8258524 -10.930017 -0.25415218 0
-1.8269129 -10.932651 0.12185246 0
4.4597912 -10.007746 1.6836166 0
-1.8219411 -10.943839 0.010202527 0
-1.827487 -10.934075 0.49757439 0
-1.8210485 -10.938478 0.52798522 0
-1.8297915 -10.939798 -0.6325078 0
-1.8240765 -10.956666 -0.25096464 0
-1.8279986 -10.960859 0.090265647 0
-1.8245392 -10.950613 0.52894562 0
-1.8260324 -10.968414 0.26815134 0
-1.8220841 -10.944697 0.78612673 0
-1.8288512 -10.937464 0.87397289 0
-1.8250852 -10.95223 0.96806115 0
-1.8226478 -10.948084 1.0444953 0
-1.828167 -10.935765 1.2515274 0
-1.8208944 -10.937551 1.3026466 0
-1.8217726 -10.942419 1.407851 0
4.451406 -10.274431 0.26452476 0
4.4535661 -10.279417 0.0026350617 0
4.4487481 -10.268296 0.5256238 0
-1.8277297 -10.934678 1.6313487 0
-1.8251029 -10.962831 1.5634011 0
-1.8216658 -10.942102 1.8508413 0
4.4616084 -10.297979 0.78613037 0
4.4533534 -10.278926 1.0469055 0
-11.083745 -1.9270797 0.26206905 0
-1.8259879 -10.968147 1.8243114 0
-11.110436 -1.9317205 -0.0025666952 0
4.4551935 -10.283173 1.30818 0
-11.104996 -1.9307746 0.52374041 0
-11.092435 -1.9285907 0.78613144 0
4.4537034 -10.279734 1.5696518 0
-11.111644 -1.9319304 1.0486808 0
-1.7606103 -11.1885 -0.26549953 0
-11.169132 -1.9079264 0.075857937 0
-11.091407 -1.928412 1.3105571 0
-11.162109 -1.9074229 0.54341918 0
-1.765064 -11.200033 0.11790684 0
-1.7613361 -11.19038 0.50131255 0
-11.176571 -1.9084597 -0.39278764 0
-1.7594967 -11.185617 0.88473755 0
4.4562979 -10.285722 1.8327615 0
-1.7659445 -11.202313 -0.65182382 0
-11.16593 -1.9076968 1.0116285 0
-11.10297 -1.9304223 1.5743035 0
4.4511757 -10.481887 -0.20366657 0
-1.7590325 -11.184415 1.2695453 0
-10.616867 4.1542926 -0.011206627 0
4.452054 -10.485593 -0.54763877 0
-11.090958 -1.9283338 1.8372227 0
4.4554768 -10.500045 0.13839115 0
4.4539652 -10.493663 0.48089439 0
-10.630554 4.1596484 0.25436997 0
4.4517727 -10.484406 0.82320225 0
-1.74384 -11.286719 0.085323542 0
-1.7402005 -11.275408 0.53386909 0
-10.625844 4.1578054 0.52051449 0
-11.168516 -1.9078822 1.4817145 0
-10.630395 4.159586 0.78613585 0
-10.618295 4.1548514 1.0515685 0
4.4540105 -10.493855 1.1677816 0
-1.7673769 -11.206022 1.6596234 0
-1.7458823 -11.293066 0.98372626 0
-10.617168 4.1544108 1.3172332 0
4.4502711 -10.478066 1.5119686 0
-1.739728 -11.273939 1.4331502 0
-11.176435 -1.9084501 1.9555198 0
-10.731892 4.158483 0.077241406 0
-10.727802 4.1574678 -0.38802207 0
-10.723566 4.1564164 0.54200888 0
-10.641591 4.1639671 1.5853384 0
4.451179 -10.4819 1.8611757 0
-10.617923 4.1547055 1.8507179 0
-10.734482 4.1591263 1.0077829 0
-1.7432084 -11.284757 1.8877833 0
-1.6911085 -11.453424 0.11422591 0
-1.6949198 -11.463731 -0.27777505 0
-1.6928754 -11.458202 0.50526303 0
-10.733799 4.1589565 1.4750062 0
-1.6958692 -11.466297 -0.67126042 0
-1.6940348 -11.461337 0.89704132 0
-1.6942143 -11.461823 1.2902429 0
-10.727213 4.1573219 1.9442971 0
4.449461 -10.803481 0.1007973 0
4.4508686 -10.810815 0.51873308 0
-1.6965959 -11.468263 1.6866704 0
4.4492574 -10.80242 0.93686116 0
-1.6524062 -11.616627 0.080307111 0
4.449091 -10.801554 1.356595 0
-1.6576388 -11.633725 0.53940505 0
-1.6569121 -11.631351 0.99924529 0
4.4484367 -10.798143 1.7785217 0
-1.6556387 -11.62719 1.4604346 0
-1.6205845 -11.73472 0.11002728 0
-1.6254938 -11.748602 -0.29057699 0
-1.6243114 -11.745259 0.50956786 0
-1.6235106 -11.742994 -0.69187188 0
-1.6139904 -11.769986 -0.044723272 0
-1.6221719 -11.739209 0.90945488 0
-1.652894 -11.61822 1.9235283 0
-1.6155915 -11.781663 -0.32418573 0
-1.6160042 -11.784672 0.23204446 0
-1.6160544 -11.785038 0.50923836 0
-1.6147865 -11.775792 0.78614932 0
-1.6244972 -11.745784 1.3115308 0
-1.6154797 -11.780848 1.0629625 0
-1.6132962 -11.764923 1.3393271 0
4.4433227 -11.093919 -0.23483908 0
4.4437685 -11.095928 0.12829855 0
4.4448385 -11.100755 0.49118775 0
4.445776 -11.10498 -0.6003356 0
-1.6234004 -11.742683 1.7152995 0
4.4447255 -11.12337 -0.051601529 0
4.4440503 -11.12168 0.22823882 0
4.444622 -11.123113 0.50731051 0
4.445528 -11.103864 0.85477293 0
4.4413395 -11.114897 0.78615171 0
-1.6148152 -11.776001 1.6174498 0
4.4442282 -11.098002 1.2191103 0
-1.6146331 -11.774673 1.8958316 0
4.4494534 -11.135202 1.0652972 0
4.4414673 -11.085552 1.5844315 0
4.4422679 -11.117221 1.3438426 0
4.4378333 -11.106122 1.6226091 0
-1.5684216 -12.00181 0.074282929 0
-1.5677094 -11.999357 0.54507256 0
4.4464693 -11.108108 1.9576834 0
4.4502673 -11.137239 1.905974 0
-1.5693061 -12.004855 1.0166918 0
-1.5669267 -11.996663 1.4891938 0
-1.5677147 -12.089932 0.10446848 0
-1.564471 -12.080325 0.51475453 0
-1.57759 -12.119182 -0.30811316 0
-1.5737948 -12.107942 -0.72062898 0
-1.5648406 -11.989481 1.9641234 0
-1.5753615 -12.112581 0.9271481 0
-1.5717351 -12.10184 1.3394656 0
-1.5704381 -12.097999 1.7544101 0
-11.622634 4.1674938 -0.077376485 0
-11.618704 4.1694813 -0.43356478 0
-11.638414 4.1740751 0.061793149 0
-11.630215 4.1702123 0.49854457 0
-11.62715 4.1714501 0.55740499 0
-11.650395 4.1774483 0.20961684 0
-11.639861 4.1736712 0.78616303 0
-11.630651 4.172266 1.0536077 0
-11.630746 4.1704025 1.0737944 0
-11.633123 4.1712551 1.361856 0
-11.62434 4.170795 1.551 0
-11.631643 4.1707244 1.6503747 0
4.4327297 -11.690998 0.085615501 0
-11.631169 4.1705546 1.9398609 0
4.4359703 -11.709291 0.53410876 0
4.4364681 -11.712103 0.9836235 0
4.4327164 -11.776842 0.50268286 0
4.4346747 -11.786311 0.11654837 0
4.4374771 -11.799859 -0.27095109 0
4.4378371 -11.719831 1.4354231 0
4.4369164 -11.797149 -0.65938711 0
4.4378796 -11.801805 0.89045531 0
4.4360838 -11.709931 1.8883438 0
4.4367151 -11.796177 1.2787004 0
-12.568309 -1.8154478 -0.10195231 0
4.4345284 -11.785604 1.6683023 0
-12.575652 -1.8165087 0.19427872 0
-12.585111 -1.8178748 0.49016371 0
-12.581676 -1.8173788 0.78617293 0
-12.591853 -1.8188487 1.0823414 0
-1.5793521 -12.6755 0.094697431 0
-1.5784893 -12.672818 -0.33568466 0
-1.5773828 -12.669379 0.52459037 0
-12.57839 -1.8169042 1.3781973 0
-1.5786889 -12.673439 -0.76775134 0
-1.5782869 -12.67219 0.95505005 0
-12.594331 -1.8192066 1.6761404 0
-1.5778854 -12.670941 1.3869218 0
-12.566783 -1.8152275 1.9717029 0
4.4279003 -12.075608 0.18703204 0
-1.5806847 -12.774399 0.061247393 0
4.4329653 -12.089421 -0.11438155 0
-1.5802736 -12.772904 0.55812562 0
4.4349475 -12.094826 0.48629084 0
-1.5765667 -12.666843 1.820981 0
4.4346013 -12.093883 0.78617775 0
-1.5806 -12.774092 1.0556474 0
4.4335351 -12.090975 1.0859694 0
4.4310703 -12.084253 1.3857532 0
-1.575469 -12.755433 1.5532788 0
4.4299579 -12.081219 1.6861291 0
-12.863789 -1.8130062 0.046444863 0
-12.868263 -1.8132626 0.57303345 0
-12.882116 -1.8140566 -0.48166984 0
4.4338617 -12.091866 1.9886955 0
-12.875563 -1.8136809 1.1007259 0
-12.891056 -1.8145689 1.6315827 0
-12.643059 4.1850948 0.044644028 0
-12.634897 4.1833153 0.57461023 0
-12.643726 4.1852407 -0.48615044 0
4.4241443 -12.571587 -0.31047934 0
4.4257956 -12.580188 0.10298866 0
4.425683 -12.579602 0.51640093 0
4.4258752 -12.580606 -0.72642028 0
-12.638605 4.184124 1.1052758 0
4.4241529 -12.571631 0.92988175 0
-1.5814364 -13.284724 0.084540278 0
-1.5821872 -13.287177 -0.36646295 0
-1.5835574 -13.291655 0.53498626 0
4.427742 -12.590331 1.3466867 0
-12.641577 4.184772 1.6380868 0
-1.5861213 -13.300033 0.9865675 0
4.4251022 -12.576579 1.7633231 0
-1.5803628 -13.281216 1.4379296 0
-12.825646 4.1876893 -0.1574077 0
-12.827472 4.1882854 0.15760541 0
-12.828318 4.1885614 0.47204974 0
-1.5797939 -13.279358 1.8928571 0
-12.828638 4.1886663 0.78619528 0
4.4226065 -12.774708 0.066995263 0
4.4218836 -12.770259 0.55232608 0
-12.834253 4.1904998 1.1004868 0
-12.815842 4.1844883 1.4142165 0
4.424087 -12.783825 1.0388904 0
-12.820736 4.1860862 1.7294405 0
4.4232082 -12.778414 1.5265186 0
-1.5904233 -13.622481 0.046901941 0
-1.5922225 -13.62941 0.57262301 0
-1.5885103 -13.615113 1.0983365 0
-1.5867708 -13.608414 1.6256307 0
4.4148583 -13.199818 0.46219739 0
4.4187617 -13.211489 -0.18808854 0
4.421895 -13.220858 0.13680369 0
4.4155784 -13.201971 0.78620744 0
4.4170942 -13.206504 1.1103821 0
4.4182315 -13.209904 1.4350756 0
4.415812 -13.20267 1.7598572 0
-1.5935071 -13.988178 -0.40183902 0
-1.5960827 -13.997046 0.072551876 0
-1.5934713 -13.988054 0.54668474 0
-1.5956161 -13.99544 1.0216353 0
-1.5924335 -13.984481 1.4971945 0
4.4118671 -13.473228 -0.35683209 0
4.4139066 -13.484741 0.087499082 0
4.4123793 -13.47612 0.53174812 0
4.411685 -13.472203 0.97617757 0
-1.5939181 -13.989593 1.9769236 0
4.4117723 -13.472693 1.4223499 0
4.414485 -13.488008 1.8731405 0
-13.805317 4.1993871 0.024740189 0
-13.802156 4.1987453 -0.54570568 0
-13.805342 4.1993918 0.59466028 0
-13.792883 4.1968617 1.1646098 0
-13.794523 4.1971951 1.7370183 0
-1.6024106 -14.579013 0.030660361 0
-1.6018429 -14.57669 0.58869791 0
4.405611 -14.021057 0.045542091 0
-1.6023703 -14.578847 1.1474907 0
4.4068842 -14.029673 0.5740099 0
4.4037428 -14.008411 1.1021483 0
-1.6022606 -14.578399 1.7082534 0
4.4057131 -14.021748 1.6337793 0
-1.6016247 -14.750547 -0.44040293 0
-1.6046388 -14.761508 0.059670448 0
-1.6029129 -14.755232 0.55961597 0
-14.24524 4.2030039 -0.25250888 0
-14.245173 4.2029839 0.44048804 0
-14.265745 4.209054 0.093369007 0
-14.252155 4.2050443 0.7862342 0
-1.6045361 -14.761134 1.0603783 0
-14.270292 4.2103953 1.1325909 0
-1.6039903 -14.851155 0.090398788 0
-1.6071088 -14.77049 1.5637187 0
-14.259461 4.2072001 1.4787967 0
-1.6043112 -14.854127 0.43843642 0
-1.6049485 -14.860027 -0.25908756 0
-1.6053251 -14.863514 -0.60962379 0
-1.6055225 -14.865341 0.78623682 0
-1.6037825 -14.849231 1.1339223 0
-14.260911 4.2076278 1.8261242 0
-1.6064829 -14.874233 1.4831579 0
-1.603919 -14.850495 1.8308942 0
4.3980079 -14.52326 -0.41096532 0
4.4014406 -14.532998 0.078882933 0
4.3985682 -14.52671 0.54978758 0
4.4023547 -14.536017 -0.27597713 0
4.4018083 -14.534212 0.43272516 0
4.4013124 -14.543606 0.069313645 0
4.4010406 -14.531677 0.78624344 0
4.3976555 -14.5205 1.1394284 0
4.4001293 -14.536324 1.031059 0
4.3996496 -14.527085 1.493318 0
4.3989849 -14.529276 1.5132997 0
4.4010592 -14.531739 1.8481559 0
4.3983269 -14.525224 1.9983687 0
-15.430743 -1.7787086 0.42466265 0
-15.440909 -1.7798805 -0.30080307 0
-15.45238 -1.7812028 0.06166625 0
-15.431555 -1.7788022 1.1478637 0
-15.458231 -1.7818772 0.78625423 0
-15.433099 -1.7789801 1.5099391 0
-15.444108 -1.7802491 1.8735402 0
-1.6128132 -15.60871 0.045346886 0
-1.6148295 -15.616475 -0.48442471 0
-1.6155581 -15.619281 0.57424378 0
-15.151646 4.2150712 0.0016241074 0
-1.6149945 -15.61711 1.1038592 0
-1.6153953 -15.659251 0.012259752 0
-15.15723 4.2161222 -0.6155771 0
-15.168608 4.2182636 0.61807716 0
-1.6120253 -15.605676 1.6344223 0
-1.620168 -15.680062 0.60751301 0
-15.158079 4.2162819 1.2350223 0
-1.6143007 -15.654477 1.2024899 0
-15.154507 4.2156096 1.8540995 0
-1.6160839 -15.662253 1.8008063 0
4.3868084 -15.520644 0.019666165 0
4.3862395 -15.516376 0.59965867 0
4.3863187 -15.516971 1.1803148 0
4.3875823 -15.52646 1.7639271 0
4.3835173 -15.771538 0.57121974 0
4.3841715 -15.775964 -0.47573161 0
4.3855772 -15.785478 0.047934324 0
4.3827915 -15.766623 1.0946368 0
4.3840218 -15.774952 1.6207969 0
-16.007566 4.2277856 -0.37164271 0
-16.012058 4.228972 0.014813423 0
-16.01058 4.2285814 0.40079242 0
-16.003532 4.2267199 0.78628254 0
-16.006943 4.2276206 1.1716859 0
-16.00876 4.2281008 1.5575951 0
-15.987436 4.2224689 1.9427558 0
-1.6275635 -16.581915 0.028811306 0
-1.6265981 -16.577965 -0.53343827 0
-1.6269724 -16.579496 0.59054524 0
4.3781991 -16.108292 0.0086879134 0
4.3817787 -16.12146 -0.38212001 0
4.381928 -16.122011 0.39736712 0
-1.6311374 -16.596537 1.1538402 0
4.3772306 -16.104727 1.1747899 0
4.3836865 -16.128481 0.78628713 0
-1.6290014 -16.587797 1.7181063 0
4.3801556 -16.11549 1.564235 0
4.3770347 -16.104008 1.953433 0
-16.73295 -1.7631993 -0.02096498 0
-16.73428 -1.7632563 0.64038825 0
-16.740736 -1.7635337 -0.68351001 0
-16.729353 -1.7630447 1.302313 0
-16.731613 -1.7631418 1.9669492 0
-1.631516 -16.898346 -0.0089170933 0
-1.6315997 -16.898737 0.62832409 0
-1.6301317 -16.891888 1.2659824 0
-1.6314995 -16.89827 1.9066728 0
-16.739094 4.2340574 -0.025702238 0
-16.75876 4.2374692 0.64545071 0
-16.767754 4.2390289 -0.69884944 0
-16.766832 4.2388697 1.3182005 0
-16.752247 4.2363396 1.9919786 0
-1.6389093 -17.661791 -0.5888598 0
-1.6409278 -17.670593 0.6091342 0
-1.6454239 -17.690199 0.0099146962 0
4.3626499 -17.239235 -0.55151784 0
-1.6436882 -17.682629 1.2093803 0
4.3647079 -17.25469 0.59681153 0
4.3665648 -17.268637 0.02234295 0
4.362679 -17.239454 1.1709294 0
-1.6437597 -17.682941 1.8116392 0
4.3622503 -17.3323 -0.011655957 0
4.3655958 -17.261356 1.7493551 0
4.3658538 -17.362673 0.63158983 0
4.3628173 -17.337076 1.2748039 0
4.3628268 -17.337156 1.9208353 0
-1.652288 -18.338636 -0.033610404 0
-1.6528254 -18.341331 0.65305841 0
-1.6493092 -18.323696 1.3396704 0
4.3530774 -18.046227 0.35419279 0
4.3515253 -18.039793 0.78633976 0
4.3547583 -18.053196 -0.51247752 0
4.3577018 -18.065399 -0.079340577 0
4.353159 -18.046564 1.2184958 0
4.3539872 -18.049999 1.6512855 0
-18.211737 4.2550373 0.35097525 0
-18.212584 4.2552357 -0.52171171 0
-18.224192 4.2579474 -0.085460424 0
-18.221479 4.2573137 0.78634417 0
-18.219252 4.2567935 1.2218931 0
-18.220043 4.256978 1.6579528 0
-1.6555548 -18.910521 -0.010919541 0
-1.6562493 -18.913763 -0.6531145 0
-1.6583145 -18.923399 0.63054943 0
-1.6606464 -18.93428 1.2736143 0
-1.6580145 -18.921999 1.9177433 0
-18.671743 4.2624216 0.6784628 0
-18.687534 4.2649283 -0.059341848 0
-18.678175 4.2634425 -0.79782927 0
-18.66963 4.2620859 1.4167759 0
4.3406868 -19.050531 -0.0084609091 0
4.3402715 -19.047029 -0.64537406 0
4.341361 -19.05621 0.62796074 0
4.3417053 -19.059114 1.265412 0
4.3405471 -19.049351 1.9042891 0
-19.945572 -1.7210397 -0.61375475 0
