# .PCD v0.7 - Point Cloud Data file format
VERSION 0.7
FIELDS x y z intensity
SIZE 4 4 4 4
TYPE F F F F
COUNT 1 1 1 1
WIDTH 1437
HEIGHT 1
VIEWPOINT 0 0 0 1 0 0 0
POINTS 1437
DATA ascii
-4.143208 4.0550175 1.7389534 0
-4.2456584 -3.8849633 1.8748918 0
-4.1476927 4.0759234 1.6839111 0
-4.1387429 4.2899141 1.0636597 0
-4.2446647 -4.1543145 1.2013651 0
-4.1462607 4.4211106 -0.069088072 0
-4.1456208 4.4207602 0.18355265 0
-4.1390185 4.4171453 0.43571597 0
-4.275475 -4.1389155 1.1952429 0
-4.1512747 4.1913748 1.4381405 0
-4.1488953 4.4225526 -0.32290518 0
-4.1363783 4.4156995 -0.57636744 0
-4.2464967 -3.9240253 1.8751839 0
-4.2452106 -4.0102444 1.69541 0
-4.2532811 -4.2434878 0.94305146 0
-4.2420292 -4.1517348 1.3401856 0
-4.2408361 -4.3541188 -0.32715052 0
-4.1429386 4.2942629 1.2032993 0
-4.2505474 -4.3592567 -0.07236433 0
-4.2508039 -4.3593922 0.18244365 0
-4.1418223 4.4186802 0.68822289 0
-4.2490878 -4.1259074 1.4473357 0
-4.1536365 4.3079844 1.1913648 0
-4.1490865 4.0607705 1.8796402 0
-4.2637606 -3.906523 1.9492835 0
-4.2515392 -4.3597813 0.43697089 0
-4.2429919 -4.1526775 1.4800279 0
-4.1388068 4.0944948 1.8833833 0
-4.1395168 4.417418 0.94136977 0
-4.1421909 4.1867342 1.6926173 0
-4.2546768 -4.2442007 1.1987593 0
-4.2514238 -4.3597202 0.69181633 0
-4.1542664 4.306004 1.3446357 0
-4.1493278 4.0767293 1.9422903 0
-4.1324873 4.5321879 -0.071289629 0
-4.2671709 -4.3680515 -0.58773577 0
-4.1399574 4.3007474 1.4445416 0
-4.1298823 4.5307131 0.43654114 0
-4.2405028 -4.1216755 1.7040244 0
-4.1436229 4.5384936 -0.32743728 0
-4.1271505 4.5291657 -0.58215576 0
-4.2603855 -4.4159994 0.5001452 0
-4.1490555 4.3006029 1.4845641 0
-4.1522779 4.543395 0.18240967 0
-4.256597 -4.4120727 0.64326942 0
-4.2542067 -4.3611922 0.94787395 0
-4.1472697 4.5532131 0.35524741 0
-4.1411161 4.5464573 0.49951166 0
-4.1423693 4.4189796 1.1966062 0
-4.2423968 -4.4737473 -0.3322314 0
-4.1366606 4.2877555 1.6234512 0
-4.2648783 -4.045526 1.8967819 0
-4.2623596 -4.0183949 1.9599106 0
-4.2543988 -4.4097943 0.78598493 0
-4.2600017 -4.1693249 1.6238532 0
-4.2495432 -4.2415781 1.4556181 0
-4.2535877 -4.4798746 0.18140408 0
-4.1404495 4.5457253 0.64284915 0
-4.14464 4.5390697 0.69142157 0
-4.2561326 -4.4812679 0.43804657 0
-4.138607 4.5437026 0.78598547 0
-4.2744884 -4.4913177 -0.076749533 0
-4.2499871 -4.1595235 1.7635179 0
-4.2516665 -4.4788227 -0.59250593 0
-4.1382833 4.2998619 1.7020878 0
-4.2612138 -4.4168582 0.92885578 0
-4.2455254 -4.4005966 1.0708283 0
-4.1466799 4.1890273 1.9533738 0
-4.2488995 -4.4773073 0.69462061 0
-4.2592258 -4.3638477 1.2060322 0
-4.1387634 4.5438743 0.92906374 0
-4.1440759 4.5387502 0.94688284 0
-4.1411428 4.4183083 1.4535321 0
-4.1486864 4.3002205 1.7681992 0
-4.2414608 -4.1511788 1.903993 0
-4.1445961 4.2491097 1.9031531 0
-4.1352997 4.5400715 1.0720576 0
-4.2438822 -4.1233411 1.9666283 0
-4.137867 4.6558943 -0.33212596 0
-4.1449842 4.6600599 0.18150388 0
-4.1509538 4.6635542 -0.075563639 0
-4.2545719 -4.4099736 1.2145487 0
-4.1403675 4.6573577 0.43780279 0
-4.251153 -4.4785414 0.95250481 0
-4.1328077 4.283762 1.9072968 0
-4.2589869 -4.2464027 1.7181112 0
-4.1391249 4.6566305 -0.59123933 0
-4.2479072 -4.1814089 1.9104968 0
-4.1477938 4.5408554 1.2044686 0
-4.1400228 4.5452566 1.215973 0
-4.2585111 -4.3634696 1.4657845 0
-4.1441841 4.6595922 0.6945526 0
-4.2552357 -4.4106617 1.358218 0
-4.2516761 -4.5996814 0.43898422 0
-4.1307302 4.4126072 1.7111821 0
-4.2682495 -4.6090665 -0.079466194 0
-4.2669196 -4.6083136 0.18011002 0
-4.1338587 4.5384893 1.359175 0
-4.271142 -4.6107044 -0.3402583 0
-4.1506162 4.3063865 1.9666795 0
-4.2462392 -4.5966024 0.69754058 0
-4.2567191 -4.6025372 -0.60043842 0
-4.1350121 4.6542234 0.95123661 0
-4.264411 -4.4858003 1.21369 0
-4.2571468 -4.4126425 1.502768 0
-4.2463145 -4.2399287 1.9792042 0
-4.140017 4.7798929 -0.078188688 0
-4.150013 4.5421124 1.4642998 0
-4.1380496 4.5430903 1.5043721 0
-4.2568274 -4.6734948 0.34387329 0
-4.1333537 4.7758636 0.43875527 0
-4.1464443 4.7837801 0.18037774 0
-4.2556524 -4.3619576 1.7278981 0
-4.1445642 4.7826428 -0.33829975 0
-4.2503223 -4.4055686 1.6464667 0
-4.1326151 4.6528201 1.2097132 0
-4.2553349 -4.6017532 0.95806903 0
-4.258244 -4.6750498 0.49141398 0
-4.2497969 -4.6657763 0.63907361 0
-4.1313639 4.8057284 0.34276295 0
-4.2506738 -4.4782791 1.4733102 0
-4.2486873 -4.7207608 -0.081498533 0
-4.1403112 4.7800708 -0.59911454 0
-4.1504889 4.4076533 1.9237492 0
-4.2562132 -4.7251658 0.17925423 0
-4.1351967 4.8101864 0.49049878 0
-4.1395626 4.5447516 1.6500932 0
-4.1288824 4.8028417 0.6385501 0
-4.1462579 4.4211087 1.9783468 0
-4.2575994 -4.7259774 0.44017383 0
-4.1531773 4.7878513 0.69839472 0
-4.1258688 4.799336 0.78599066 0
-4.2499247 -4.4051566 1.792172 0
-4.2586389 -4.34266 1.9318248 0
-4.2660336 -4.6836019 0.78599083 0
-4.2704382 -4.7334924 -0.34556526 0
-4.2533312 -4.6696558 0.93302923 0
-4.2532372 -4.723424 -0.60747427 0
-4.2591166 -4.6038947 1.2201767 0
-4.131813 4.6523504 1.4705138 0
-4.1538301 4.5442739 1.7275571 0
-4.1364746 4.5413613 1.7957529 0
-4.2581081 -4.7262754 0.70147067 0
-4.2492628 -4.6651897 1.0799462 0
-4.1473894 4.7843513 0.95798862 0
-4.2448263 -4.4750772 1.7364669 0
-4.1294951 4.8982067 0.17958404 0
-4.1257544 4.8958712 -0.34208435 0
-4.258039 -4.3632202 1.9947369 0
-4.2467198 -4.4018345 1.9382081 0
-4.1411414 4.817102 0.93387002 0
-4.1279674 4.7726064 1.2167435 0
-4.1496153 4.9107704 -0.082208484 0
-4.1255746 4.8957586 -0.60501021 0
-4.2556667 -4.7248464 0.96346784 0
-4.2477827 -4.597477 1.4820954 0
-4.1403346 4.9049754 0.44003904 0
-4.1388392 4.8144236 1.0817447 0
-4.1384611 4.5435424 1.9437375 0
-4.2635365 -4.6808605 1.2288065 0
-4.1406655 4.5565844 1.9411361 0
-4.2588353 -4.8517442 -0.085465699 0
-4.2578268 -4.8511343 0.17810571 0
-4.2574692 -4.8509178 -0.34984326 0
-4.2534218 -4.6697559 1.3757584 0
-4.148037 4.5409932 1.9921715 0
-4.1502309 4.9111547 0.70164657 0
-4.1227083 4.8939686 0.96117014 0
-4.1413946 4.8173962 1.2302972 0
-4.2599545 -4.8524208 0.4413377 0
-4.2424192 -4.4852915 1.9471385 0
-4.1472802 4.6614041 1.7378144 0
-4.2618399 -4.7284598 1.2280983 0
-4.2619252 -4.8536124 -0.61656481 0
-4.1396251 4.7796559 1.4818872 0
-4.2448716 -4.5958281 1.7478942 0
-4.2544856 -4.6709232 1.524591 0
-4.140903 4.8168244 1.3790808 0
-4.2668309 -4.8565793 0.70535541 0
-4.1300693 5.0255017 -0.084564686 0
-4.1275573 5.0238824 -0.34821737 0
-4.1372104 5.0301042 0.17823695 0
-4.2553825 -4.8496561 0.96902996 0
-4.1402354 5.0320539 0.44122589 0
-4.2585731 -4.7265472 1.493777 0
-4.1408391 4.9052901 1.2266198 0
-4.1429739 4.8192334 1.5289372 0
-4.2564616 -4.9512458 0.32934746 0
-4.256784 -4.6734467 1.6745675 0
-4.2575455 -4.952507 0.48176134 0
-4.1356802 5.0291181 0.70431459 0
-4.2606559 -4.9801073 -0.089069217 0
-4.2606368 -4.9800954 0.17688532 0
-4.255991 -4.9506984 0.63401669 0
-4.2574449 -4.9781022 -0.35566741 0
-4.1541395 5.0410151 -0.61752659 0
-4.1379528 4.7153463 1.9611545 0
-4.1431689 4.8194599 1.6793554 0
-4.2548056 -4.9493198 0.78599632 0
-4.2652483 -4.982975 0.44260961 0
-4.1309729 5.0938716 0.48048645 0
-4.1370621 5.1013803 0.32664093 0
-4.2648168 -4.855361 1.2363797 0
-4.1588511 4.7912822 1.7526563 0
-4.2537522 -4.9757962 0.70804274 0
-4.1380734 5.0306602 0.96871197 0
-4.2616487 -4.6787877 1.8263148 0
-4.2486682 -4.7207499 1.76065 0
-4.253336 -4.9476099 0.93788135 0
-4.1451902 4.9080071 1.4932821 0
-4.1358991 5.0999465 0.63314271 0
-4.1272736 5.1529431 -0.088100493 0
-4.1261349 5.1521859 0.17723146 0
-4.2806959 -4.9926209 -0.62746501 0
-4.1385918 4.814136 1.829572 0
-4.2575397 -4.6581898 1.9712389 0
-4.2542491 -4.9486718 1.0899966 0
-4.127079 5.1528134 0.44218835 0
-4.1392617 5.1040921 0.78599763 0
-4.2605743 -4.9800563 0.97539026 0
-4.1315875 5.0946298 0.93869287 0
-4.2605972 -4.6776333 1.9779106 0
-4.1384792 5.0309219 1.234639 0
-4.1441917 5.1641927 -0.35615891 0
-4.2666726 -4.856483 1.5054026 0
-4.2513719 -4.9453254 1.242101 0
-4.1348457 5.1579785 -0.623411 0
-4.1335125 4.8082275 1.9804693 0
-4.1288009 5.0911937 1.0913481 0
-4.1314092 4.8994017 1.7591153 0
-4.2596731 -5.1090317 -0.092645407 0
-4.1433749 5.1636496 0.70851386 0
-4.2655706 -5.112833 0.17557138 0
-4.261631 -5.1102939 -0.36217242 0
-4.2575407 -5.1076574 0.4436619 0
-4.2538028 -4.948153 1.395256 0
-4.1297274 5.0923362 1.2445412 0
-4.1325641 5.1564612 0.97433734 0
-4.2683392 -4.9849048 1.2450763 0
-4.2619882 -5.1105237 -0.63328075 0
-4.26299 -5.1111698 0.71225226 0
-4.1477036 5.0368671 1.5045519 0
-4.2595887 -4.8521996 1.7755396 0
-4.125042 5.2831397 -0.091822386 0
-4.1416278 4.8840318 1.9837228 0
-4.1219282 5.1493888 1.2409062 0
-4.2598314 -4.9551659 1.5498981 0
-4.1379623 5.1024899 1.3993864 0
-4.1325841 5.288312 -0.36139476 0
-4.1390719 5.2927613 0.17567103 0
-4.2629519 -5.111145 0.98170996 0
-4.1340847 5.289341 0.44362342 0
-4.2590008 -4.8236613 1.9927282 0
-4.2691669 -4.9854221 1.5164318 0
-4.1253595 5.0224662 1.7709374 0
-4.1318169 5.0949125 1.5528469 0
-4.2540903 -5.2372704 -0.096081883 0
-4.1392775 5.292902 -0.63313371 0
-4.2615485 -4.9571629 1.704886 0
-4.2522364 -5.2360373 0.44481188 0
-4.142344 5.2950053 0.71232188 0
-4.2573075 -5.2394094 -0.36804342 0
-4.2703013 -5.2480493 0.17420948 0
-4.2654753 -5.1127715 1.2531902 0
-4.2561593 -5.2386456 -0.64129883 0
-4.2674632 -5.262177 0.31216782 0
-4.2624645 -5.2560134 0.4707678 0
-4.1364751 5.1590614 1.513665 0
-4.1381922 5.1027737 1.7094842 0
-4.1380076 5.2920313 0.98137015 0
-4.2622595 -4.9579897 1.8607612 0
-4.2654366 -4.9830928 1.7898296 0
-4.2664971 -5.2609854 0.62832195 0
-4.123292 5.0844002 1.8620697 0
-4.2594237 -5.2522635 0.78600305 0
-4.1270037 5.3984528 0.46945938 0
-4.277771 -5.2530165 0.71697229 0
-4.1338606 5.4074221 0.3099685 0
-4.1294694 5.4205613 -0.096128494 0
-4.124043 5.3945799 0.6279307 0
-4.1322389 5.4225197 0.17447455 0
-4.2605486 -5.2415643 0.98778397 0
-4.1331224 5.4231443 -0.36817473 0
-4.1295481 5.4206171 0.44486797 0
-4.2659287 -5.1130638 1.526829 0
-4.2648339 -5.2589345 0.94362342 0
-4.1265593 5.1524682 1.7849742 0
-4.1423459 5.2950063 1.2529906 0
-4.1271009 5.4188867 -0.64074689 0
-4.1284785 5.400382 0.78600407 0
-4.1327233 5.4228621 0.7157374 0
-4.2556248 -5.3726921 -0.37444758 0
-4.2676334 -5.2623868 1.1016219 0
-4.2661099 -5.3798828 -0.10078689 0
-4.115572 5.4107351 0.98569423 0
-4.261445 -5.3766837 0.44631907 0
-4.2722712 -5.3841085 0.17285182 0
-4.1376495 5.4123783 0.94459939 0
-4.2628031 -5.2564306 1.2593232 0
-4.2721128 -5.2492542 1.2630513 0
-4.1297879 5.4020948 1.1027632 0
-4.1386442 5.2924681 1.5257752 0
-4.268271 -5.114573 1.8039863 0
-4.2717004 -5.3837171 -0.65284938 0
-4.2671742 -5.3806129 0.72025454 0
-4.2618737 -5.2552843 1.4177599 0
-4.1312876 5.4040565 1.2617456 0
-4.1245432 5.5541048 -0.10000017 0
-4.2537537 -5.2370462 1.5359718 0
-4.1271052 5.41889 1.2601476 0
-4.1238899 5.5536289 -0.37417579 0
-4.1219378 5.552206 0.44609949 0
-4.1352816 5.5619302 0.17301233 0
-4.2658496 -5.3797045 0.99493235 0
-4.1208177 5.5513902 -0.64960778 0
-4.2639146 -5.2578011 1.5773697 0
-4.1370234 5.4115596 1.4220134 0
-4.1420841 5.294827 1.8029622 0
-4.2587185 -5.5119467 -0.10442427 0
-4.1355672 5.5621386 0.72011507 0
-4.2721834 -5.5214667 0.17148291 0
-4.2656598 -5.5168543 -0.38237584 0
-4.266006 -5.5170989 0.44778508 0
-4.1241679 5.5538316 0.99360591 0
-4.133141 5.4231572 1.536889 0
-4.2736115 -5.3850279 1.2725339 0
-4.1365237 5.4109054 1.5822197 0
-4.269032 -5.264111 1.7386886 0
-4.2724185 -5.2494574 1.8190222 0
-4.2690587 -5.5192575 -0.66209388 0
-4.2700644 -5.5199685 0.72455251 0
-4.1157651 5.687429 -0.10378578 0
-4.1312847 5.4040527 1.7421651 0
-4.1127973 5.6852002 -0.38024151 0
-4.2644768 -5.5782785 0.29493353 0
-4.2612977 -5.5741196 0.45916525 0
-4.2628551 -5.3776507 1.54963 0
-4.125988 5.5551577 1.2697933 0
-4.2668166 -5.2613792 1.8995326 0
-4.133626 5.70084 0.17159355 0
-4.2661343 -5.5804467 0.62249106 0
-4.2715273 -5.5210032 1.0024046 0
-4.134222 5.4239216 1.8160483 0
-4.1283345 5.4001937 1.9033777 0
-4.1213598 5.7242308 0.29270104 0
-4.1233068 5.6930914 -0.66020095 0
-4.2630267 -5.5763817 0.78601038 0
-4.1183619 5.7200665 0.45767376 0
-4.1453409 5.7096367 0.44806218 0
-4.1283097 5.6968484 0.72400796 0
-4.2537866 -5.5084596 1.2791972 0
-4.2567186 -5.6504259 0.17038952 0
-4.2641344 -5.6558299 -0.10905221 0
-4.2656956 -5.5798726 0.94951338 0
-4.1297016 5.735817 0.62148011 0
-4.131341 5.5590587 1.5492097 0
-4.2693534 -5.6596332 -0.38992292 0
-4.1232896 5.693079 1.0007894 0
-4.1256971 5.7302551 0.78601158 0
-4.2717996 -5.6614156 0.44933623 0
-4.26651 -5.5809383 1.1132562 0
-4.2763019 -5.3868728 1.8345971 0
-4.2678061 -5.6585054 0.72869039 0
-4.1286621 5.7343726 0.95050216 0
-4.2804799 -5.6677413 -0.67386496 0
-4.2652526 -5.5792933 1.2771788 0
-4.2648411 -5.5162754 1.5624354 0
-4.1263638 5.8383837 -0.10902312 0
-4.1272702 5.7324395 1.1150602 0
-4.1234612 5.5533161 1.8290164 0
-4.1213474 5.8345032 0.44905028 0
-4.2677026 -5.6584301 1.0091443 0
-4.130065 5.5804768 1.749458 0
-4.1331611 5.8436413 0.17008905 0
-4.135818 5.702486 1.281522 0
-4.2631807 -5.5765834 1.4414142 0
-4.1364145 5.846158 -0.39042103 0
-4.1253052 5.7297106 1.2797961 0
-4.1256132 5.8378029 0.72837341 0
-4.134078 5.8443508 -0.67251092 0
-4.1208463 5.6912441 1.5603245 0
-4.1206436 5.7232356 1.4444816 0
-4.262125 -5.575202 1.6064019 0
-4.2704463 -5.6604295 1.2917407 0
-4.2706928 -5.803761 0.16860165 0
-4.273922 -5.8061857 -0.11415097 0
-4.2650962 -5.7995586 0.4506762 0
-4.1208205 5.834096 1.0080962 0
-4.2731404 -5.5221438 1.8491191 0
-4.2632065 -5.7981396 -0.68168199 0
-4.1222882 5.7255201 1.6107745 0
-4.2907133 -5.8187938 -0.39970672 0
-4.2671418 -5.5817652 1.7736149 0
-4.2788668 -5.8098984 0.73387504 0
-4.1194725 5.9790921 0.16881704 0
-4.2743893 -5.6633029 1.5772439 0
-4.1255336 5.6947637 1.8456922 0
-4.1199832 5.7223182 1.7771562 0
-4.1334171 5.8438392 1.2918084 0
-4.1295104 5.9870887 -0.11396515 0
-4.1217065 5.9808717 -0.39668655 0
-4.2762446 -5.8079295 1.0175238 0
-4.2686367 -5.5837202 1.9413583 0
-4.1358995 5.9921784 0.45094955 0
-4.2595549 -5.9161725 0.27616638 0
-4.123878 5.9826016 0.73298776 0
-4.131093 5.9883494 -0.68314046 0
-4.1160297 5.83039 1.573077 0
-4.1274395 5.7675371 1.7706027 0
-4.2649155 -5.9236178 0.44599688 0
-4.2658482 -5.8001232 1.3014877 0
-4.2637892 -5.9446831 -0.11812839 0
-4.1238384 5.7276735 1.9461799 0
-4.2622623 -5.9435019 -0.40434062 0
-4.2705307 -5.9498978 0.16705765 0
-4.2659054 -5.6571202 1.8632768 0
-4.123589 5.9823713 1.0162971 0
-4.269743 -5.9492884 0.45232499 0
-4.2735295 -5.9355817 0.61575687 0
-4.1202903 6.0834737 0.27215195 0
-4.272706 -5.9344382 0.78601873 0
-4.2677689 -5.7226887 1.7808111 0
-4.2690477 -5.948751 0.73787689 0
-4.2779479 -5.9556351 -0.69484377 0
-4.1255856 6.0912924 0.44331104 0
-4.2715049 -5.9327703 0.95620018 0
-4.1120973 6.0713773 0.78601933 0
-4.2672744 -5.8011942 1.5893267 0
-4.1164489 6.12602 0.16724575 0
-4.1270537 6.0934596 0.6146974 0
-4.1283588 5.9861712 1.3021111 0
-4.2655954 -5.9460802 1.0241094 0
-4.2701402 -5.9308743 1.1264576 0
-4.12744 6.135036 -0.11875537 0
-4.1330938 5.8435893 1.8643968 0
-4.1232786 6.1316223 0.45230848 0
-4.1267567 6.1344752 -0.40547884 0
-4.1146903 6.124577 0.73729116 0
-4.126184 6.0921755 0.95730686 0
-4.2713666 -5.9325776 1.2972863 0
-4.1299438 6.1370897 -0.69451237 0
-4.1213045 5.9805512 1.5884202 0
-4.1218233 6.0857372 1.1284171 0
-4.1098981 6.120646 1.0229712 0
-4.2731805 -5.9519477 1.3135037 0
-4.2683864 -6.097723 -0.12327051 0
-4.2698617 -5.8031368 1.8807751 0
-4.2674861 -5.9271879 1.4679539 0
-4.2650642 -6.0950766 -0.41272205 0
-4.11691 5.9516559 1.7908494 0
-4.2773843 -6.1048913 0.16529296 0
-4.1179447 6.0800114 1.299597 0
-4.2668557 -6.0965037 0.74256796 0
-4.2871819 -6.1126962 0.45432568 0
-4.265996 -5.9251184 1.6395338 0
-4.28478 -6.1107831 -0.70726669 0
-4.120101 5.9795928 1.8787345 0
-4.2754502 -5.9537029 1.6049988 0
-4.1268258 6.093123 1.4731379 0
-4.1267381 6.13446 1.3134032 0
-4.1165938 6.279027 0.16553518 0
-4.1187644 6.2808599 -0.1232951 0
-4.1135693 6.0735507 1.643558 0
-4.1206884 6.282485 -0.41335505 0
-4.2795796 -6.1066399 1.0337458 0
-4.2789006 -5.9285045 1.8056092 0
-4.1090655 6.2726693 -0.70319211 0
-4.2757382 -5.9386497 1.814634 0
-4.1307268 6.2909627 0.45418775 0
-4.121295 6.2829971 0.74286872 0
-4.2673125 -5.9474087 1.8973802 0
-4.2714739 -6.1001825 1.3245779 0
-4.1265111 6.1342735 1.6043682 0
-4.1196423 6.0825171 1.8186508 0
-4.2699041 -6.2519002 -0.12841222 0
-4.2718744 -6.2535167 0.16373679 0
-4.2698889 -6.2518878 0.45561841 0
-4.2730994 -6.2545214 -0.42203873 0
-4.2794375 -5.9437876 1.9899625 0
-4.1273599 6.2881193 1.033519 0
-4.2619948 -6.0926313 1.6169099 0
-4.2777691 -6.2583523 -0.71798861 0
-4.1137276 6.2766066 1.3233414 0
-4.1264668 6.0925937 1.9956199 0
-4.285284 -6.2645164 0.74885476 0
-4.1222081 6.1591411 1.815823 0
-4.1091852 6.4292159 0.16392756 0
-4.101675 6.4226871 -0.42007327 0
-4.1300101 6.1371441 1.8994859 0
-4.2810693 -6.320859 0.25210834 0
-4.2795157 -6.3185649 0.43053204 0
-4.2775507 -6.3156638 0.60845762 0
-4.2802677 -6.2604017 1.0422499 0
-4.1291442 6.4465675 -0.12935898 0
-4.1195993 6.4382696 0.45571333 0
-4.2736883 -6.3099613 0.78602755 0
-4.1115766 6.4312949 0.74753904 0
5.5343838 5.3106275 -0.062201321 0
5.5661383 5.2782402 -0.17036441 0
5.4048066 5.4437056 0.24952739 0
5.3997898 5.4506712 0.21324298 0
5.4573698 5.3954606 -0.17280239 0
-4.1195111 6.4748998 0.24930489 0
5.5145879 5.3402658 -0.17192197 0
-4.1222663 6.440588 -0.71783876 0
5.6807022 5.1703348 0.022782773 0
5.6278129 5.2296185 0.022123873 0
5.4123793 5.451333 -0.11199367 0
5.4143448 5.4533119 0.068522751 0
5.4669976 5.4015703 -0.064781845 0
-4.1191969 6.4744062 0.42856339 0
-4.1208291 6.2826037 1.6187065 0
-4.2729592 -6.1223283 1.8274771 0
5.5697465 5.296886 0.068368912 0
-4.2769041 -6.3147097 0.96357125 0
5.3137422 5.5549407 -0.068401814 0
5.4023991 5.4543328 0.40623552 0
-4.1138158 6.4659486 0.60762608 0
5.3502326 5.5180731 -0.17610079 0
5.4638653 5.4043069 0.21324328 0
5.7368851 5.1154528 -0.16875336 0
5.7583427 5.0907969 0.18726557 0
5.3517714 5.520299 0.018552035 0
5.6169567 5.2500606 -0.06147635 0
5.2560506 5.6067805 0.24854314 0
5.683876 5.1741762 0.21405166 0
5.234478 5.6295552 0.18317963 0
5.4085016 5.4628992 -0.17507759 0
5.4096756 5.4645476 0.019200712 0
5.5776772 5.2930479 0.021146238 0
5.3925018 5.4814315 -0.066752046 0
5.7334952 5.1114683 -0.36113542 0
5.2340326 5.6309333 -0.17864421 0
5.4668841 5.4084187 0.019827157 0
5.391891 5.4802036 0.18434188 0
5.5766153 5.2916851 0.21362373 0
5.7197723 5.1352615 0.24843109 0
5.4686728 5.4048204 0.18491033 0
5.4106507 5.4495916 0.42829818 0
5.0733881 5.7804317 -0.07396245 0
5.7912807 5.0587649 -0.16810831 0
5.6273093 5.2289915 0.40546679 0
5.2605443 5.6115742 -0.11315084 0
5.2946186 5.5778389 -0.17768613 0
5.3153839 5.5583634 0.18370223 0
5.5747223 5.2892566 -0.36575347 0
5.5249014 5.3538995 0.020301133 0
5.3111672 5.5495729 0.43552762 0
5.7870655 5.0539513 0.40491697 0
-4.2751851 -6.2562323 1.3369782 0
5.634388 5.2378116 -0.17129385 0
5.545517 5.3314896 0.18542087 0
5.7169695 5.1327453 0.42812961 0
5.6190987 5.2539392 0.18599775 0
-4.2760224 -6.103806 1.9174842 0
5.7411461 5.1204624 0.21412787 0
5.297636 5.5823421 0.017460108 0
5.5249147 5.3539166 0.21331173 0
5.156949 5.7104993 0.18245186 0
5.6348801 5.2384253 0.21372208 0
5.5414624 5.3238921 0.43382883 0
5.2373896 5.6361012 0.21216175 0
5.1779871 5.6918592 -0.18049344 0
5.8476791 5.0045905 0.02364102 0
5.6830091 5.1613164 -0.55438763 0
5.7612009 5.0956392 -0.30446053 0
5.3517952 5.5203338 -0.37242675 0
5.6937275 5.180088 -0.060248882 0
5.7648702 5.1018572 -0.058575034 0
5.239563 5.6405573 -0.070804983 0
5.5785217 5.3052311 -0.11392754 0
5.7593503 5.0925035 0.43216902 0
5.6872978 5.1783171 -0.36378086 0
5.5700378 5.2832441 0.59760243 0
5.6919508 5.1839476 -0.1708197 0
5.903563 4.9446421 -0.055322975 0
5.4671488 5.4087791 0.40625361 0
5.1598797 5.7170849 -0.072732657 0
5.6927681 5.1784081 -0.3077172 0
5.6346245 5.2381067 -0.36538953 0
5.8351016 5.0238485 0.18757853 0
5.0582752 5.8045311 0.21130872 0
5.7473364 5.1277394 0.022249758 0
5.1215086 5.7532697 0.014885277 0
5.4690924 5.4114261 -0.36989218 0
5.7567825 5.0881529 -0.5511663 0
5.1825671 5.6991363 0.015611917 0
5.6955414 5.1832643 0.18642007 0
5.2376561 5.6365108 -0.37647551 0
5.5246129 5.3535175 0.40607956 0
5.4059906 5.4593749 -0.56722808 0
5.4700656 5.4075232 0.43454278 0
5.8977151 4.9436612 -0.35912311 0
5.5260429 5.3554082 -0.36855596 0
5.4131422 5.4694133 -0.37163532 0
5.2890463 5.5695238 0.60113126 0
5.8514843 5.0088124 -0.16833928 0
5.5742674 5.3011851 0.4276869 0
5.2433548 5.6452837 0.016273439 0
5.2965045 5.5806532 0.40699869 0
-4.1143355 6.4667654 0.7860288 0
5.6192269 5.2541709 0.43340689 0
5.6294212 5.2316227 -0.5598067 0
5.8994951 4.9381795 0.43114218 0
5.308279 5.543551 0.68713981 0
5.3600683 5.5323057 0.21247479 0
5.581398 5.2978225 0.4059121 0
5.8519206 5.0092969 0.21431391 0
5.3017416 5.5884686 0.21223713 0
5.8003039 5.0690699 0.21413228 0
5.7340908 5.1481171 0.066526473 0
5.5814033 5.3079715 0.24734116 0
5.8794422 4.981534 0.066522717 0
5.8386736 5.0297084 -0.057322055 0
5.0573416 5.8029499 -0.38219064 0
5.2710223 5.6227512 0.066428959 0
5.7344532 5.1484423 -0.11487621 0
5.4630232 5.3938594 0.68372726 0
5.9549465 4.8907113 -0.16691932 0
5.4137568 5.4527202 0.60715801 0
5.7900629 5.057374 -0.55500382 0
5.9063339 4.9490447 0.18803376 0
5.2383785 5.6379952 0.43638268 0
5.3510618 5.5192728 -0.56999671 0
5.8995609 4.9456515 0.40482736 0
-4.1158304 6.4349933 1.0411143 0
5.7987537 5.0672994 -0.36226529 0
5.691977 5.1839795 0.40557033 0
5.3962555 5.4889784 0.43522921 0
5.5221996 5.350328 -0.56419903 0
5.3003187 5.5863452 -0.37557155 0
5.4663734 5.4077229 -0.56620401 0
5.8048992 5.0743179 0.022398114 0
4.9370017 5.9186611 0.21062833 0
-4.2763472 -6.4139447 0.16188528 0
5.5396252 5.3204494 0.68218482 0
5.9083714 4.9551497 0.023406953 0
5.8380976 5.0287628 -0.30290359 0
5.7464843 5.1267371 0.40541595 0
5.1590672 5.7152596 0.43703914 0
5.1815176 5.6974688 0.40761533 0
5.7910776 5.0585337 0.59590238 0
-4.2772994 -6.3152933 1.1413405 0
5.1825919 5.6991754 -0.37931556 0
5.1252723 5.7594438 0.21138206 0
5.2417889 5.6428728 0.40737921 0
5.1110516 5.7755933 0.065936685 0
5.1106858 5.7751799 -0.11549318 0
5.8840294 4.9854202 -0.11552656 0
5.579607 5.2955251 -0.56285161 0
5.3596849 5.5317502 0.40691346 0
5.9084888 4.9552765 -0.16824791 0
5.6957798 5.1836824 0.43298835 0
4.9984694 5.8624887 -0.38488376 0
5.5723848 5.2993951 0.60701561 0
-4.2796993 -6.4167757 -0.13433474 0
5.9080553 4.9517798 -0.30040109 0
5.296155 5.5801311 -0.57307279 0
4.9984665 5.8737483 0.18092023 0
5.2331448 5.6266708 0.6894033 0
5.4110827 5.4665222 0.60032642 0
6.0110807 4.8365946 0.024184763 0
5.9092016 4.9560447 0.21432523 0
5.6897488 5.181283 -0.55965775 0
5.3539758 5.5234895 0.60105121 0
5.0669575 5.8192439 0.01339075 0
5.4685068 5.4106288 0.59971654 0
5.8542089 5.0118356 0.40514576 0
5.3914618 5.4793406 0.68602967 0
5.2621698 5.6133084 0.60691798 0
5.9787502 4.8773956 0.18840644 0
5.8386307 5.0296369 0.43193984 0
5.5259533 5.3552895 0.59919024 0
5.1894546 5.7100787 0.21152462 0
5.1075501 5.7716365 0.42701021 0
5.9642286 4.9004354 0.023489237 0
5.3460307 5.5119925 0.79485416 0
5.9626694 4.8988018 0.21441336 0
5.9589114 4.894865 -0.35990882 0
5.1252499 5.759407 0.40801722 0
5.8875484 4.9884019 0.24634027 0
6.0128193 4.8383641 0.2145623 0
5.7273846 5.142096 0.60685086 0
5.9041319 4.9455457 -0.54563212 0
5.8507018 5.0079446 -0.55552971 0
4.9488716 5.9265456 0.065120578 0
5.9750209 4.871655 0.43087411 0
5.0807991 5.7977519 0.43781242 0
5.406189 5.4596534 -0.76659298 0
6.0143676 4.8399405 -0.16734466 0
5.2731619 5.6250334 0.42686415 0
5.8590765 5.0172367 -0.362589 0
5.6921639 5.184206 0.59756029 0
5.6910334 5.1753693 0.67936414 0
5.1804705 5.6958051 0.60358179 0
-4.2782378 -6.4155412 -0.43139672 0
5.1313515 5.7694163 -0.18411317 0
5.9798312 4.8790603 -0.29842401 0
5.6194487 5.2545729 0.6811465 0
5.901072 4.9472804 0.59543055 0
5.1158581 5.7810245 0.24613708 0
5.8840041 4.9853988 0.4267782 0
5.74825 5.1288133 -0.55924261 0
5.5759935 5.2908874 -0.76001263 0
5.2422543 5.64359 -0.57676071 0
5.9837599 4.8851085 -0.054958642 0
6.1128464 4.7181325 0.21479711 0
5.9609108 4.8969593 0.40494221 0
5.8511925 5.0084887 0.59603405 0
5.5749454 5.2895422 0.79101801 0
5.0598316 5.807169 0.60527444 0
5.0084767 5.8800149 -0.18698299 0
5.1290112 5.7655773 -0.3827821 0
-4.279593 -6.4166861 0.45758891 0
6.0328226 4.8211308 0.24592882 0
5.6321392 5.2350097 -0.75826263 0
6.0358596 4.8235579 0.064618826 0
5.9742079 4.8704033 -0.54249436 0
5.0873761 5.8131218 0.18129578 0
5.6413116 5.2464395 0.59840643 0
4.9993896 5.8759933 0.43852216 0
5.6306334 5.2331328 0.790169 0
5.9058962 4.9524813 -0.55494553 0
5.4652052 5.4061317 0.79336065 0
5.8398571 5.0316491 -0.55046368 0
6.0501938 4.8053579 0.18876922 0
4.9427133 5.9290051 -0.38865298 0
5.52349 5.3520331 -0.76322472 0
5.068017 5.8210397 0.4084259 0
5.0096416 5.8820543 0.21056464 0
5.1241808 5.7576537 -0.58208901 0
5.9031987 4.9440632 0.67468715 0
5.3532934 5.5225015 -0.77068734 0
5.0114708 5.8852577 0.011858732 0
5.8671012 4.9710774 0.78602952 0
5.1070981 5.7711258 0.60663313 0
5.0064526 5.8764706 0.40872315 0
6.0161295 4.8417339 -0.36010933 0
5.2363157 5.6344471 -0.77610648 0
5.4101934 5.4652743 0.79473275 0
5.1859217 5.7044659 -0.58007723 0
6.0148401 4.8404217 0.40488806 0
6.0497684 4.8047228 -0.2963652 0
5.4688311 5.4110699 -0.76607704 0
5.7666807 5.1049247 0.67816174 0
5.0059919 5.8920555 -0.07799089 0
-4.1181154 6.4727068 0.96461844 0
5.7427058 5.1222959 -0.75506306 0
5.7517657 5.132946 0.59750855 0
5.8812232 4.9830427 0.60658616 0
6.039773 4.8266854 -0.11779338 0
5.1773486 5.690845 -0.77916753 0
5.1251526 5.7592473 0.60488164 0
4.9542441 5.9329791 0.24544686 0
5.0750232 5.832911 -0.18634203 0
4.9502115 5.9425845 0.010811061 0
6.0659719 4.781219 0.40478602 0
5.7943621 5.062284 0.78791761 0
6.115984 4.7211494 -0.35841215 0
4.8210678 6.0483098 0.00910905 0
5.4214044 5.4604225 0.78602964 0
4.8851175 5.9939747 -0.19049442 0
6.1223192 4.7272401 0.024071068 0
6.0380487 4.8253074 -0.30042052 0
5.297822 5.5826192 -0.77428186 0
6.0553122 4.812995 -0.053869218 0
5.1611776 5.7200022 0.69230008 0
6.1195354 4.731288 -0.052222788 0
6.1163955 4.7267437 -0.29400456 0
6.07444 4.7895961 0.023585767 0
5.5259099 5.3552318 0.79296386 0
5.2475471 5.6517377 0.60352993 0
5.5766983 5.3034968 0.7860297 0
4.886816 5.9971576 0.0098826587 0
5.6127863 5.2425075 0.92858076 0
6.1221027 4.7270317 -0.16709787 0
6.0738935 4.7890558 -0.167867 0
5.9738722 4.8698864 0.67340738 0
5.8392057 5.0305805 0.67677557 0
5.9606409 4.8966765 0.59563851 0
4.9179325 5.9573455 0.43930823 0
5.2978573 5.5826712 0.79759508 0
6.1138639 4.7230802 0.43006876 0
6.1719165 4.6668291 0.024362266 0
4.8356991 6.0403504 -0.081946284 0
5.2648869 5.6162062 0.78602976 0
4.9525414 5.9309402 0.42609063 0
4.9512262 5.9444218 -0.1894438 0
5.0039372 5.8720651 0.60674512 0
5.6917229 5.183672 0.79018849 0
5.744894 5.1248679 0.78923488 0
6.0116282 4.837152 0.59525621 0
4.9235277 5.9715314 -0.080240041 0
4.9477563 5.938138 0.40916005 0
5.0814314 5.7992301 0.69443405 0
6.0647326 4.7799926 -0.55281883 0
4.9976282 5.8717093 0.69623804 0
4.885026 5.993804 -0.39226604 0
-4.2756696 -6.413372 -0.72996759 0
6.0773726 4.7924976 0.2143341 0
6.0426526 4.7941036 0.67207742 0
5.2336607 5.6277871 0.94367784 0
5.1223021 5.754571 -0.78406322 0
4.9244394 5.9738417 0.17978226 0
-4.2751555 -6.4129386 0.75342309 0
5.971889 4.8668337 -0.78890347 0
5.9679518 4.9043365 -0.55612749 0
6.1756649 4.6703315 -0.16708684 0
6.0177608 4.8433952 -0.55468112 0
5.7331071 5.1472335 0.78602993 0
5.2426319 5.6441712 0.7994253 0
5.0704098 5.8250937 -0.58686823 0
4.8897772 6.0027065 0.20973231 0
4.94452 5.9322767 -0.5917238 0
6.1753774 4.6700625 0.21458206 0
5.008009 5.8791952 -0.58931679 0
5.2561703 5.6069078 0.96493709 0
5.6899357 5.1734476 0.92661744 0
5.5439696 5.3285899 0.93232715 0
5.8377042 5.0281177 -0.79920256 0
5.4057002 5.4589667 0.98946053 0
6.0507326 4.8061614 -0.54108506 0
5.9073176 4.9540138 -0.75185895 0
5.8564205 5.0142899 -0.75383008 0
5.3484645 5.5155139 0.9911074 0
6.0763483 4.7914844 -0.36095774 0
6.0426865 4.8290138 0.4257001 0
5.1230879 5.7558603 0.8021242 0
6.1254263 4.7398119 0.18897624 0
5.6994371 5.1930079 -0.76019228 0
-4.2722678 -6.253839 1.6342274 0
-4.2815304 -6.3215394 1.3200071 0
5.3156881 5.5589972 0.94129044 0
4.8820467 5.9882202 -0.59479004 0
5.5203452 5.3478761 0.98679638 0
6.0565391 4.814826 0.43082976 0
5.8559465 5.0137634 0.78832245 0
5.8066978 5.0763717 -0.75643253 0
5.576272 5.291245 0.98546302 0
6.0357423 4.8234639 0.60616964 0
5.3944674 5.485383 0.9385289 0
5.908742 4.9528704 -0.7949959 0
5.4185977 5.4575958 0.96506107 0
4.7628026 6.1154923 0.0073473454 0
6.192337 4.6631351 -0.051490515 0
4.9472942 5.9373016 0.60827267 0
5.6323462 5.2352672 0.98434258 0
6.1898832 4.6620865 0.24406964 0
5.8343544 5.0226231 0.92167449 0
6.2549548 4.5817552 -0.049957901 0
4.8288126 6.0633373 0.20928934 0
6.1778436 4.6723666 -0.35980487 0
5.9103107 4.9572406 0.78788233 0
5.1876793 5.7072582 0.8014853 0
6.1197701 4.7316265 -0.53828824 0
5.1124406 5.777163 0.78603023 0
6.1136236 4.722733 0.67107785 0
-4.1212521 6.2829614 1.9163105 0
6.1290522 4.7337132 0.40499532 0
5.2358727 5.6337657 0.99547362 0
5.0038619 5.871933 -0.79200983 0
5.4735446 5.4142728 0.93610394 0
5.0669837 5.8192883 -0.78932011 0
6.1909099 4.6628599 -0.30339825 0
6.0146098 4.8401871 -0.75025403 0
6.1957278 4.6664882 0.061816454 0
6.1954689 4.6662936 -0.1206789 0
5.7668381 5.1051917 0.92483091 0
5.9046192 4.9463201 0.91923672 0
4.7644043 6.1187119 -0.19535702 0
5.4060569 5.4449649 1.1434574 0
5.7951026 5.0631299 0.98098481 0
6.1886892 4.6580153 0.42988929 0
5.5779514 5.3046889 0.96522272 0
5.7278862 5.1425462 0.9652245 0
5.29671 5.5809593 0.99417549 0
5.4700532 5.4127345 0.98949158 0
6.2808628 4.5551386 0.024069011 0
4.8276343 6.0610509 -0.3963052 0
-4.1191869 6.437911 1.3367378 0
6.2346458 4.6185327 0.023658603 0
4.8313742 6.0683074 -0.19406974 0
4.9476972 5.925139 0.78603035 0
4.8391533 6.0494885 0.44031322 0
6.1936231 4.6649408 -0.29345936 0
5.8989859 4.9450312 0.97875255 0
4.7986073 6.0937343 0.24357128 0
4.7554226 6.1328526 -0.085033864 0
5.0781593 5.7915821 0.95124072 0
5.0690136 5.8227282 0.80470765 0
5.5631723 5.2906337 1.1436596 0
4.7664804 6.1228862 0.20885354 0
6.1911268 4.663023 0.42497736 0
6.1257515 4.7305393 0.59557843 0
5.1613913 5.7204823 0.948452 0
6.1827707 4.67697 0.40499461 0
5.9695587 4.9060192 -0.7533555 0
6.0336862 4.8218212 0.78603047 0
4.8888588 6.0009861 0.60974479 0
5.9680672 4.9044566 0.78798181 0
6.1177731 4.7228689 -0.74847102 0
6.2331767 4.6171989 -0.36021394 0
6.0793972 4.7945004 0.59617972 0
6.1755877 4.670259 0.59530103 0
4.8959937 6.0143561 0.40989819 0
6.2784534 4.5530133 0.4047769 0
6.1997781 4.6735802 0.18917716 0
4.8456993 6.0668063 0.17876364 0
6.1308308 4.7354226 -0.55538499 0
5.1820183 5.6982641 0.99858338 0
5.1213241 5.7529674 1.0003688 0
5.8530779 5.010581 0.9808889 0
6.2857418 4.559442 -0.16769671 0
4.757143 6.137609 0.17814068 0
4.9633851 5.9439263 0.60576469 0
4.9221096 5.9679356 0.6994375 0
5.7493 5.1300473 0.9835304 0
4.9460897 5.9351192 0.80791414 0
6.2625494 4.5920987 0.18968746 0
4.7655783 6.1210723 0.41051114 0
5.8811307 4.982964 0.96547139 0
5.5383258 5.3180141 1.1820441 0
5.0101357 5.8829198 0.80667567 0
4.832263 6.0700321 0.41024214 0
6.0210733 4.8467674 0.78758192 0
6.3254328 4.5121183 -0.04923892 0
4.6994567 6.1743464 0.41084006 0
6.1170697 4.7277193 -0.78339982 0
4.7044868 6.184833 0.0054236054 0
5.5724411 5.2863288 1.1804051 0
6.2424254 4.6255951 -0.16873196 0
4.6681919 6.210463 0.17745943 0
5.6982603 5.1915832 0.98529392 0
4.8078518 6.105474 0.060439289 0
6.074276 4.7894344 -0.75145209 0
5.5176706 5.3443403 1.18241 0
6.1830297 4.6772113 -0.55504364 0
4.8280411 6.0618405 -0.60114342 0
-4.1271248 6.486867 1.1441841 0
6.1942663 4.665843 -0.53693032 0
5.6870213 5.1683435 1.1747812 0
4.8024745 6.0986452 0.424427 0
6.2437801 4.6268244 0.21421501 0
5.4660606 5.3997526 1.1868109 0
6.3324161 4.4965911 -0.35955667 0
-4.2782264 -6.3166614 1.4983537 0
6.046978 4.8005581 0.91532654 0
5.9599257 4.8959274 0.97948915 0
6.0551815 4.8127999 -0.78902543 0
6.3391109 4.4953933 0.24252385 0
4.6373587 6.2376523 0.20802204 0
4.8288832 6.0634737 0.61118501 0
6.0750451 4.790195 0.78740877 0
5.7373719 5.1160254 1.1759835 0
6.265872 4.5966239 -0.29232067 0
5.6843958 5.1748052 1.1777267 0
-4.1168485 6.5964618 -0.13407215 0
6.2922974 4.5652237 0.2143009 0
6.3855333 4.4393063 0.023853391 0
6.1743298 4.6690836 -0.74925888 0
6.3390303 4.4953361 -0.30631113 0
6.0112419 4.8367586 0.97865301 0
5.2919083 5.5737944 1.1912646 0
6.1245828 4.7294159 0.78679883 0
6.1129961 4.7218246 0.91288143 0
5.6169796 5.2501016 1.1793234 0
5.7604113 5.0943017 1.171443 0
-4.117816 6.5973272 0.1618735 0
6.3295937 4.5176191 0.19003053 0
5.7253532 5.1402726 1.1444552 0
4.7707996 6.1315689 -0.40087736 0
5.6321983 5.2350831 1.1799095 0
6.3456159 4.5000062 0.059691131 0
6.3281612 4.5157256 -0.28990227 0
5.7918057 5.0593648 1.174823 0
6.3412232 4.5041375 -0.1681855 0
6.3428397 4.5055227 0.023323745 0
5.0040455 5.8722548 1.0056646 0
6.2360425 4.6198006 -0.55506033 0
6.1925077 4.6633754 0.67090601 0
4.7655821 6.1210799 -0.60504508 0
4.7078152 6.191771 0.20822264 0
6.2607441 4.5896397 -0.53413236 0
4.7045026 6.184866 -0.40318424 0
5.1012383 5.764504 1.1446068 0
4.6371584 6.2495461 0.059432209 0
5.4107542 5.4660616 1.1879284 0
4.8407564 6.0537314 0.70209599 0
6.2447476 4.6277032 0.40520781 0
6.2259107 4.6106033 -0.74893355 0
5.2360191 5.6328902 1.2001363 0
6.1765747 4.6711807 0.7865957 0
5.3539753 5.5234885 1.1902084 0
5.9866505 4.8895578 0.91891921 0
6.2666817 4.5977268 0.42983443 0
5.1192818 5.7848935 0.9658556 0
4.7597351 6.1447744 0.44139236 0
6.2944355 4.5671096 -0.36171812 0
5.4697971 5.4123859 1.1865203 0
4.9185505 5.9589124 0.95947254 0
6.3842964 4.4382768 0.40487671 0
6.3503771 4.5033827 -0.12406009 0
4.6374497 6.2499385 0.24173826 0
4.6329274 6.2438436 0.42385063 0
4.7103987 6.1971564 -0.19944972 0
4.8909993 6.0049968 0.81098741 0
6.0364819 4.8240552 0.96591377 0
6.3912745 4.4440851 0.21436484 0
5.2681179 5.6196527 1.1448532 0
5.2381492 5.63727 1.1949672 0
5.3954816 5.487422 1.1924994 0
4.5737438 6.2997603 0.20749338 0
6.3253899 4.5120621 -0.5312382 0
4.7684779 6.1269021 0.61272049 0
6.2880855 4.5615087 -0.55504644 0
6.3409824 4.5039315 0.40503854 0
4.9534502 5.9320283 0.96593642 0
6.2024941 4.6715846 0.60527116 0
6.2400393 4.6234288 0.59612322 0
4.8044181 6.1011138 0.60525411 0
6.1914845 4.6619387 -0.78164101 0
6.1905999 4.6626263 0.78603125 0
5.2503767 5.600728 1.3229373 0
4.9457831 5.9345646 1.0088327 0
6.1836662 4.6509652 0.91135806 0
6.3313913 4.5199952 0.42942148 0
5.1801047 5.6952238 1.1977477 0
5.0721984 5.8281245 1.0051799 0
4.6408587 6.2452245 -0.40655988 0
6.3492317 4.5109997 0.21417189 0
6.3464541 4.5006003 0.42360136 0
4.7031116 6.1819668 0.61380982 0
5.8808694 4.9827428 1.1450915 0
6.391459 4.437376 0.42891616 0
4.8824677 5.9890099 1.0109988 0
-4.1224546 6.479527 1.3231392 0
4.672008 6.2215056 0.44214451 0
4.5771351 6.3073807 0.0023936331 0
6.289628 4.5628695 0.59594357 0
-4.2869949 -6.4229374 1.0517995 0
5.9041209 4.9505672 1.1739321 0
4.8289523 6.0636077 0.81300718 0
5.8386497 5.0296679 1.1695788 0
5.0076227 5.8960223 0.95727986 0
6.4435987 4.3858676 0.023276806 0
5.3205194 5.5690699 1.1974671 0
4.5841055 6.3017135 0.17641982 0
6.1214747 4.726428 0.97874737 0
-4.1159582 6.3601952 1.8391285 0
5.8548164 5.0125093 1.1759031 0
5.567883 5.2951136 1.3234153 0
4.6477823 6.2602038 0.0031160414 0
4.7992897 6.0946012 0.78603148 0
-4.123055 6.602015 0.45764923 0
4.7574425 6.1384363 0.70474505 0
5.4145923 5.4535613 1.3235044 0
6.4012184 4.4499002 0.19020671 0
4.5784416 6.310317 -0.20359325 0
6.3960924 4.4480953 -0.36168802 0
4.6477957 6.2602334 -0.20210898 0
5.0791965 5.7940059 1.2103838 0
6.0760422 4.7911816 0.9803049 0
5.9585819 4.8945198 1.1733781 0
6.2663379 4.5972586 0.67036593 0
6.4470401 4.3886499 -0.16883722 0
6.2601604 4.5888448 -0.77863503 0
6.4623046 4.3694787 -0.047751248 0
6.3417077 4.5045528 0.59599817 0
6.3288965 4.4935756 0.78616536 0
6.3440971 4.5066004 -0.55603588 0
6.1737428 4.6685357 0.97851586 0
6.4022217 4.4511876 -0.28936976 0
6.4479427 4.3893795 0.21420568 0
-4.1288438 6.6071949 -0.43253398 0
6.4624062 4.3696051 0.19064358 0
4.6405787 6.2446189 -0.61412495 0
4.7004781 6.176476 0.81684303 0
6.0308704 4.8195705 1.1456575 0
6.3472013 4.5011306 0.60489351 0
4.8384275 6.0475702 0.96418303 0
6.4433126 4.3856363 0.40509039 0
6.4054976 4.4559236 -0.16976002 0
5.1639996 5.7263436 1.206934 0
5.4618549 5.4015684 1.3831857 0
4.6467533 6.257978 0.41176882 0
-4.1134758 6.5934439 -0.72944427 0
5.5737801 5.2880468 1.3787127 0
6.3964291 4.4437542 -0.52989769 0
5.0658779 5.8174138 1.2048559 0
5.9145823 4.9621496 1.167441 0
6.1893544 4.6616883 0.96640903 0
5.7265515 5.1413479 1.3242674 0
6.0479245 4.801971 1.1598656 0
5.349515 5.5170336 1.3887955 0
6.332231 4.5211058 0.66922951 0
6.3375955 4.501029 -0.75112641 0
5.1291018 5.7657251 1.2029862 0
4.6399398 6.253294 0.60476571 0
6.440546 4.3833995 -0.55529356 0
6.2572637 4.5848994 0.91044813 0
6.4929786 4.3300495 -0.31097364 0
4.6432533 6.2504058 0.61571831 0
4.77036 6.1306858 0.81592709 0
6.4108505 4.4622607 -0.049892664 0
6.2905302 4.5636654 0.78765535 0
5.2924547 5.5746098 1.3918078 0
4.7958322 6.09021 0.96648604 0
6.4986086 4.3338041 -0.12710273 0
4.5138507 6.3728123 0.20674282 0
4.7125263 6.2015929 -0.61281461 0
5.0063696 5.8763251 1.2081933 0
4.9541306 5.9328437 1.1460871 0
6.394464 4.4412322 0.66789556 0
5.5233002 5.3517828 1.3825637 0
5.6336775 5.2369266 1.3781404 0
6.452477 4.3930449 -0.36275381 0
6.3420143 4.4974523 0.78603196 0
6.2959032 4.5684047 -0.75360286 0
4.5819416 6.3181834 -0.41173029 0
-4.1195679 6.5988951 0.75366342 0
5.2353535 5.6329656 1.3951632 0
4.8280497 6.0618567 1.0158165 0
5.9864016 4.8891754 1.1646428 0
5.6890893 5.1804852 1.3764346 0
-4.1176357 6.4719524 1.5022464 0
4.5767412 6.3064971 0.6169557 0
5.4661074 5.3998437 1.4411346 0
4.6382823 6.2396502 0.81952518 0
5.6881351 5.1702933 1.4259566 0
-4.2819972 -6.3222294 1.678678 0
6.0702047 4.7854066 1.1734381 0
6.402245 4.4532161 -0.55761653 0
-4.1214972 6.4399195 1.6349996 0
5.7440081 5.1238265 1.3748537 0
6.5021591 4.3361716 0.23943996 0
6.2339025 4.6178579 0.9797343 0
5.8999233 4.9460416 1.3691453 0
6.118577 4.7299008 1.1574306 0
6.332675 4.5216923 -0.77697051 0
4.9460931 5.9351258 1.2116393 0
6.0228858 4.8486128 1.1752396 0
6.4719377 4.3814826 -0.28836966 0
5.849834 5.0069814 1.3713176 0
5.7980843 5.0665345 1.373291 0
6.391921 4.444623 -0.75211978 0
6.4472289 4.3888025 0.59636784 0
4.5178661 6.3821959 -0.2072373 0
4.5899353 6.3193974 0.44330522 0
6.2529244 4.6351256 0.78937256 0
4.7563863 6.1355176 0.96891004 0
4.5855403 6.3262725 0.41241315 0
6.5108089 4.3391867 0.022046149 0
6.4957757 4.3273859 -0.5566076 0
4.5001712 6.3992143 0.17524846 0
5.4108114 5.4497533 1.5030714 0
4.5803428 6.3145909 -0.62027735 0
5.4166403 5.4743228 1.3894941 0
6.4707437 4.3799944 0.42898896 0
5.5453777 5.3312287 1.437342 0
4.5843363 6.3024144 0.70990443 0
5.9016342 4.941577 1.4122825 0
4.5105982 6.365211 0.61838949 0
6.5099096 4.3384809 0.21391326 0
-4.2794089 -6.259697 1.9370466 0
6.5110011 4.3420682 0.055325985 0
6.5363755 4.305872 -0.047617614 0
4.4500675 6.4396849 -0.0013616085 0
5.1126533 5.7774029 1.3255875 0
6.2865458 4.5601511 0.97982645 0
5.3942189 5.4848833 1.4480072 0
5.9560404 4.8918571 1.3689498 0
4.6777306 6.2380619 0.70827472 0
6.1863918 4.6594567 1.1468098 0
4.5175457 6.3814468 0.41282114 0
5.0070534 5.8946366 1.2183516 0
6.39539 4.4475107 0.78800952 0
4.5220222 6.3919101 -0.00051137805 0
5.1218872 5.7538915 1.4033085 0
5.8355436 5.0245733 1.4179451 0
6.3300304 4.5181961 0.90957332 0
6.5087833 4.3375969 -0.3639192 0
4.5177898 6.3820171 -0.41576344 0
5.888051 4.9888277 1.3257686 0
4.8865671 5.9966917 1.215711 0
4.4501038 6.4397721 -0.2095893 0
4.4816933 6.4168229 0.2386322 0
4.4773746 6.4106393 0.42178005 0
5.6220489 5.2592821 1.433121 0
4.6428256 6.2571831 0.78603244 0
6.3353753 4.4991269 0.97943521 0
-4.2666349 -6.5660968 0.16028591 0
6.4006076 4.4491162 -0.77440548 0
5.7675538 5.1064048 1.4235207 0
4.7699041 6.1297698 1.0200306 0
6.3916597 4.4376335 0.90726644 0
5.7209663 5.1363335 1.50389 0
6.50913 4.3408208 0.42157671 0
6.5615191 4.2790661 -0.17079565 0
4.9236269 5.9717822 1.2233115 0
4.4522614 6.4450212 0.20599633 0
5.3195438 5.5670352 1.4545069 0
6.5003629 4.3349738 0.60414869 0
6.4140234 4.4630198 0.59748924 0
4.5074501 6.3578539 0.82432091 0
6.5415368 4.3121176 0.19054949 0
6.5201669 4.3465328 -0.17154536 0
6.4681201 4.3767252 0.66763818 0
4.9515891 5.9298 1.3263268 0
6.5136762 4.3414378 0.40557036 0
5.187356 5.7067447 1.4022193 0
6.5363684 4.3058629 0.42870891 0
4.4449191 6.4271603 0.62005198 0
4.4885206 6.4265985 0.054126561 0
4.8252764 6.0564752 1.2195874 0
6.1336222 4.7381063 1.1753983 0
6.476131 4.3867073 -0.53047383 0
4.798655 6.0937953 1.1473494 0
4.7060642 6.1881213 1.0230275 0
6.2305131 4.6147814 1.1732776 0
6.4519525 4.3926206 -0.75473082 0
5.681541 5.17135 1.5739397 0
6.6007919 4.2309971 0.19097003 0
4.4515634 6.4433236 -0.41955966 0
4.6378679 6.2505021 0.9672181 0
6.5670037 4.283246 0.21371484 0
6.4506249 4.3915477 0.78864056 0
6.0163646 4.8419738 1.3701409 0
4.5174999 6.38134 -0.62598604 0
5.0043106 5.8727188 1.4115858 0
4.5027323 6.4073744 0.44430086 0
5.5791802 5.3058572 1.5049096 0
6.5448451 4.3161216 -0.28796333 0
6.4664741 4.3746738 -0.77162826 0
6.0669913 4.7822275 1.3688602 0
6.5712361 4.2864718 0.021231472 0
-4.1138787 6.4660473 1.6819466 0
-4.2926044 -6.4276743 1.3520893 0
5.1629381 5.723958 1.4666624 0
6.0464783 4.7998123 1.4059492 0
5.6305332 5.2330089 1.5775418 0
5.0688295 5.8224158 1.409426 0
5.3493829 5.5168433 1.5913032 0
6.5645566 4.2813811 0.40563148 0
6.5671654 4.2833691 -0.36551553 0
-4.2716312 -6.5704398 -0.43977588 0
5.7918873 5.0594578 1.5707701 0
6.393877 4.4462509 0.98073411 0
6.5586953 4.2769141 -0.55959934 0
5.5219736 5.3500285 1.5834473 0
4.675055 6.2303219 0.97435743 0
5.4658141 5.406961 1.5862384 0
5.2458692 5.6542015 1.4620258 0
6.2001019 4.6740351 1.1575654 0
-4.2774158 -6.315465 1.8582065 0
6.3551569 4.506772 0.96739829 0
6.6538625 4.1666436 0.053015172 0
6.0448527 4.8307452 1.3272119 0
5.2334023 5.6299624 1.5980929 0
5.9832945 4.8843913 1.4116195 0
-4.2727699 -6.5714302 0.45925602 0
5.0824881 5.8016977 1.472851 0
6.1911521 4.6847997 1.1762042 0
6.1204658 4.7254581 1.3685971 0
-4.1217346 6.6008339 1.0510993 0
4.4557424 6.4534893 0.41356349 0
4.5840669 6.3229604 0.82420397 0
4.6431012 6.2500763 1.0266162 0
5.2717423 5.6235189 1.5057333 0
4.4996896 6.3976803 0.71329844 0
4.4135141 6.4943857 0.17410257 0
6.5163794 4.3435597 0.59772503 0
4.4103508 6.4837775 0.44510424 0
-4.2842917 -6.5814466 -0.14013296 0
5.1086125 5.7728372 1.5057838 0
5.8814588 4.983242 1.5057878 0
6.5428319 4.3136849 -0.5286929 0
4.6304679 6.2405291 1.1480218 0
5.2951069 5.578567 1.5960342 0
4.9464397 5.9357538 1.4167615 0
4.843574 6.0611849 1.2300107 0
6.5610285 4.2786918 0.59749591 0
6.5045629 4.3342838 0.78920984 0
6.2658334 4.596571 1.1545882 0
6.5369177 4.3065276 0.66706228 0
4.3879681 6.5137582 0.20530263 0
4.4514732 6.4431043 -0.63096201 0
6.5078306 4.3368492 -0.7564714 0
6.6120939 4.2442832 -0.047693729 0
4.4859715 6.4229479 0.60365617 0
6.6047044 4.2355967 0.4285354 0
4.3126454 6.5684433 0.052370131 0
5.582366 5.2990651 1.5826061 0
6.1869302 4.659862 1.3277364 0
4.755568 6.133255 1.2345624 0
5.1162605 5.7446609 1.6060982 0
6.2897215 4.562952 1.1747921 0
4.3158541 6.5650716 0.20492056 0
6.6102543 4.2421203 -0.28667867 0
5.7459354 5.1260924 1.5754846 0
6.3286929 4.5164285 1.1513104 0
6.4665675 4.3747907 0.90701896 0
6.5332527 4.3020921 -0.76939273 0
6.5071945 4.3395295 0.78603327 0
6.6664729 4.1609097 0.21358894 0
4.4929743 6.3762865 0.98149866 0
6.6254506 4.2285872 -0.17261663 0
4.389946 6.5187716 -0.21403438 0
6.6248775 4.2281632 0.21348435 0
6.4486246 4.3899307 0.98154557 0
4.7945337 6.0885615 1.328033 0
4.3913374 6.5223002 -0.0042280853 0
6.6044521 4.2352996 -0.5261786 0
6.6553564 4.1675792 0.42023742 0
4.8860044 5.9956365 1.4213866 0
4.3821654 6.4990473 -0.63508028 0
4.5876517 6.3124704 0.9787209 0
6.6208491 4.225183 0.40582821 0
5.6863413 5.1671529 1.6789441 0
4.7706099 6.1311879 1.2262332 0
5.0031419 5.8851213 1.4801747 0
6.6650829 4.1736698 -0.13328433 0
5.9054379 4.9519873 1.5698901 0
6.557776 4.2762132 -0.75693941 0
5.4644766 5.3966794 1.6975825 0
6.670918 4.1641006 -0.17250875 0
6.6638417 4.1728926 0.23614305 0
5.3878641 5.4721079 1.7039355 0
4.9485836 5.9262009 1.5069022 0
4.8218184 6.0497665 1.4249096 0
4.3834343 6.5022645 0.62249935 0
5.9574084 4.8932905 1.5682431 0
6.1866531 4.6551571 1.3997223 0
-4.2799029 -6.3366494 1.8534293 0
6.3432884 4.5059071 1.1752671 0
5.570004 5.2971306 1.6846187 0
4.3164177 6.5665627 0.41450727 0
5.8567858 5.0146947 1.5729952 0
6.6732593 4.1659818 0.19100267 0
4.4492011 6.4375768 0.82878166 0
6.0335817 4.8217373 1.5071738 0
4.4837699 6.4197965 0.78603357 0
4.9195299 5.9613957 1.4864336 0
6.559751 4.2777185 0.79000115 0
6.6726694 4.165308 -0.28515911 0
6.6347737 4.2354836 0.020173192 0
4.3201466 6.5764284 -0.21654004 0
6.4992967 4.3342628 0.96788776 0
6.6774836 4.1688132 0.020422012 0
4.3904819 6.5201311 -0.42550606 0
6.2296281 4.6139779 1.3693095 0
5.4179783 5.4569721 1.6849875 0
4.3215957 6.5802612 -0.0057449937 0
4.4099441 6.4824138 0.7161684 0
6.597775 4.2274508 -0.76689923 0
5.2331295 5.6266379 1.7180113 0
4.639461 6.2422004 1.233103 0
4.512991 6.3708029 1.0336658 0
6.3554106 4.5069518 1.1489756 0
5.619173 5.2540736 1.6872833 0
5.4233375 5.4837236 1.5948513 0
4.3921366 6.5243268 0.4142957 0
6.6314163 4.2329998 -0.36811066 0
5.8335538 5.0213094 1.6690718 0
4.6713848 6.2197013 1.2411231 0
-4.1055574 6.5863585 1.3475397 0
6.6236897 4.2272844 -0.56311136 0
5.9034395 4.9444456 1.663524 0
5.7647638 5.1016769 1.6755904 0
4.3147392 6.5621219 0.6241287 0
6.6744633 4.1666455 0.40598276 0
5.1878657 5.7075543 1.6075213 0
4.5845203 6.3239794 1.0319092 0
-4.2770615 -6.575161 -0.7430234 0
4.7095509 6.1953902 1.2311251 0
4.3225384 6.5835104 0.235223 0
4.3236222 6.5851035 0.17301956 0
6.1878872 4.6817493 1.3722651 0
6.5063186 4.3356624 0.98293447 0
4.3190293 6.578166 0.41945627 0
5.0028477 5.8701572 1.6177441 0
5.5473347 5.3348961 1.6944281 0
4.3207021 6.5778971 -0.42903596 0
4.2465944 6.6261687 -0.43143868 0
-4.2786336 -6.5765276 0.75914007 0
6.5384336 4.308362 0.9064827 0
6.4609118 4.367743 1.1468883 0
5.7299428 5.144393 1.6862335 0
6.670054 4.1634803 -0.5630945 0
6.0677061 4.7829347 1.5679115 0
6.1325645 4.7501407 1.4071164 0
6.6848431 4.1792097 -0.04760313 0
5.8760505 4.9786601 1.6863701 0
6.6115355 4.2436266 0.66704857 0
6.6133637 4.2196455 0.79070127 0
5.0678396 5.8207383 1.6154101 0
4.4808993 6.4156861 0.96820498 0
5.9750576 4.8717113 1.6591126 0
6.6281419 4.2305779 0.59879458 0
6.6820388 4.1720834 -0.368729 0
6.4017606 4.4528127 1.1769167 0
4.2522764 6.6418777 -0.0075135529 0
4.8380051 6.0464525 1.494349 0
5.2690301 5.6206264 1.6866667 0
4.3168583 6.5611792 0.71877187 0
6.2606187 4.589469 1.3981577 0
6.7323461 4.1107516 0.019831032 0
4.3232117 6.5836501 0.44635409 0
6.1684856 4.6636238 1.5655936 0
4.2524099 6.6422472 -0.21988535 0
5.1588106 5.7146816 1.7276305 0
6.6205502 4.2249618 -0.76071513 0
6.0232325 4.8489656 1.571463 0
5.6308026 5.2333446 1.7812921 0
4.3183818 6.5771794 0.60287213 0
6.7278652 4.1076317 -0.36875468 0
6.6688881 4.1760526 0.60286355 0
4.4068394 6.4720039 0.98730111 0
5.4073849 5.4613314 1.7938994 0
6.6753483 4.1672807 0.59884024 0
6.682806 4.1768837 0.42865032 0
6.6837959 4.1853881 -0.32246065 0
5.3214521 5.5710135 1.7155436 0
6.7447214 4.0999007 -0.046579957 0
5.7400284 5.1191483 1.7763463 0
6.7354078 4.112884 -0.17452884 0
6.4099655 4.4611254 1.1520017 0
6.6019077 4.2323089 0.90495169 0
5.3510685 5.5192828 1.797943 0
4.2543039 6.6474833 0.20394403 0
6.2931628 4.5659871 1.3722925 0
4.9464655 5.9357996 1.6245844 0
5.4666114 5.4080472 1.7916311 0
6.7449389 4.100142 0.19103086 0
6.5622725 4.2796402 0.98416018 0
-4.2864127 -6.4224453 1.6530336 0
-4.1189275 6.4739833 1.8646076 0
6.6815424 4.1754408 -0.52679932 0
