# .PCD v0.7 - Point Cloud Data file format
VERSION 0.7
FIELDS x y z intensity
SIZE 4 4 4 4
TYPE F F F F
COUNT 1 1 1 1
WIDTH 1429
HEIGHT 1
VIEWPOINT 0 0 0 1 0 0 0
POINTS 1429
DATA ascii
7.3096728 3.6101298 1.854827 0
7.7655392 -2.988132 0.8287859 0
2.607399 -7.9435539 0.15429458 0
7.8139591 -2.9639468 -0.28951448 0
7.5915756 -3.1015997 1.651312 0
7.4785652 3.6025534 1.0357805 0
7.7851419 -2.995302 -0.63332909 0
-4.3201051 -7.1229944 0.78000361 0
7.8147292 -2.964483 0.42926705 0
2.6181049 -7.9232917 0.67583138 0
2.7089055 -7.7975144 1.3973072 0
7.5126896 3.6079299 -0.7997762 0
2.6073508 -7.9425173 0.46508732 0
7.8138299 -2.9638565 -0.53123856 0
7.8289986 -2.9744194 -0.050204098 0
2.6178098 -7.9184475 -0.79603708 0
7.5085702 3.6044004 0.92207974 0
7.7309928 -3.0250549 1.1466717 0
7.5537081 -3.1352413 1.8656551 0
2.797426 -7.684319 1.8706791 0
7.8602304 -2.9312823 -0.0049140751 0
7.6357398 -3.0759432 1.6255721 0
7.8603139 -2.9313116 0.20491232 0
-4.3132763 -7.1165228 1.0939938 0
7.7762818 -2.9920614 1.0396073 0
2.6074529 -7.9447079 0.77635598 0
7.4824924 3.6045244 1.2469946 0
7.819828 -2.9680336 -0.77621603 0
7.6906843 -3.0504341 1.4536055 0
7.8289547 -2.9743891 0.66960132 0
2.6185055 -7.9298668 0.92148989 0
2.7243061 -7.7670259 1.6928974 0
7.8115206 -2.9622486 0.90865451 0
7.5038571 3.6003616 1.1683724 0
2.7082219 -7.788435 1.6427166 0
7.8724976 -2.9355714 -0.42899513 0
7.8824301 -2.939044 -0.21756893 0
7.863946 -2.9325814 0.62452036 0
7.5978079 -3.1040838 1.8685932 0
7.7324152 -3.0260761 1.3896186 0
2.6177804 -7.9179664 1.1668427 0
7.3667755 3.6129124 1.9022528 0
7.7737556 -2.9911373 1.250809 0
7.8837113 -2.939492 0.41492033 0
-4.3256602 -7.055398 1.5773233 0
7.9066091 -2.9082325 0.18936563 0
7.4777379 3.6021383 1.4589785 0
7.9109073 -2.911135 -0.051868498 0
7.908556 -2.9095471 -0.29364818 0
7.8632493 -2.9323378 0.83519125 0
2.6075532 -7.9468641 1.0889165 0
7.686533 -3.0488479 1.6673064 0
7.8855562 -2.9401371 -0.6453619 0
7.6431694 3.5860951 0.18593389 0
7.6380711 -3.077668 1.8732491 0
7.9154434 -2.9141984 0.43022045 0
2.5240941 -8.0539913 -0.31249076 0
7.9112625 -2.911375 -0.53746033 0
-4.3190484 -7.1219931 1.411381 0
2.524421 -8.0610123 0.18544261 0
7.7211952 -3.0180218 1.6323659 0
7.5101361 3.6057417 1.4186436 0
7.463346 3.5949152 1.6709964 0
7.6456552 3.5881636 -0.31092626 0
7.899147 -2.9031932 -0.78076863 0
7.8277383 -2.9735417 1.1527195 0
7.6530018 3.5942786 -0.062570751 0
2.617568 -7.914475 1.4148068 0
2.5248702 -8.0706635 -0.063881695 0
7.639977 3.5834377 -0.5604009 0
7.6555734 3.5942132 -0.0083383322 0
7.8662281 -2.9333794 1.0475798 0
2.5245318 -8.0633984 0.43399912 0
7.7768774 -2.9922791 1.4653399 0
7.649826 3.5914311 -0.43463808 0
7.6507912 3.5918982 0.4155339 0
7.9166088 -2.9149857 0.67162907 0
7.6507044 3.5923665 0.43363726 0
7.6400838 3.586715 0.62683648 0
2.5239651 -8.0512209 0.68226171 0
7.6645532 3.5985606 0.20359923 0
7.6676064 3.6000385 -0.22239745 0
2.5248172 -8.0695257 -0.56541312 0
7.9721971 -2.8780656 -0.009565413 0
-4.3128171 -7.2952895 -0.16658643 0
2.7094734 -7.8050575 1.8967909 0
-4.3106298 -7.0369401 1.9410851 0
-4.3144245 -7.2968569 0.15102769 0
7.8192239 -2.967613 1.3954996 0
7.9735112 -2.878504 0.2033405 0
7.9115553 -2.9115727 0.91336483 0
7.9664803 -2.8761582 -0.4375571 0
7.6548872 3.5938811 -0.65134043 0
7.6873512 -3.0491605 1.8855937 0
7.9563346 -2.8727734 0.62808907 0
-4.3099341 -7.2924776 0.46826285 0
2.6077628 -7.9513693 1.4038326 0
7.6558924 3.5966852 0.68216789 0
7.9851813 -2.8823979 -0.22447389 0
7.9957929 -2.8486891 -0.29705554 0
2.5242088 -8.0564547 0.93210655 0
7.6511254 3.5920601 0.84019554 0
7.5099802 3.6056082 1.6706321 0
8.0031967 -2.8535364 -0.05422473 0
7.96843 -2.8768089 -0.65454072 0
2.4857304 -8.1242085 0.15122719 0
2.4853501 -8.1124039 0.46796668 0
7.9833984 -2.881803 0.41624147 0
-4.3197746 -7.3020749 -0.48625475 0
7.9951167 -2.8482463 0.4307411 0
8.0034132 -2.8536777 0.18848583 0
7.7782626 -2.9927859 1.68261 0
7.906291 -2.9080176 1.1561238 0
7.9591131 -2.8737004 0.84146965 0
-4.3176193 -7.1206388 1.7304879 0
7.9987574 -2.8506298 -0.54227638 0
2.523484 -8.0408869 1.181293 0
-4.3122969 -7.2947817 0.7859484 0
2.6183109 -7.9266729 1.6683388 0
7.8905258 -2.9418745 1.2655957 0
7.7345705 -3.0276232 1.8844498 0
7.6619411 3.6017196 0.93218011 0
7.6524262 3.59269 1.0543928 0
7.4839826 3.6052723 1.8958286 0
7.8652987 -2.9330544 1.4776464 0
8.0482845 -2.8107617 -0.22778231 0
7.8233981 -2.9705195 1.6432568 0
8.0534458 -2.8124022 -0.012548447 0
7.648488 3.5905216 1.1811604 0
8.0106773 -2.8584332 0.67409325 0
7.9636631 -2.8752184 1.0565925 0
8.0075865 -2.85641 -0.79096794 0
7.5024886 3.599189 1.9238203 0
7.7743363 -2.9913497 1.9020003 0
7.9127359 -2.91237 1.4027658 0
2.4862547 -8.140481 0.78635836 0
8.0053616 -2.8549533 0.91745615 0
2.608062 -7.9577961 1.7220819 0
8.070034 -2.8176742 0.20206732 0
-4.3207383 -7.3030143 1.1057725 0
7.6609812 3.5968313 1.2718128 0
8.0706043 -2.8178556 0.41734317 0
2.5239663 -8.0512476 1.4356434 0
2.6181064 -7.923315 1.9225973 0
8.0937233 -2.7932706 0.18773201 0
2.4857049 -8.1234093 1.1039311 0
8.0683489 -2.8171387 -0.66666162 0
8.0709515 -2.8179655 0.63291109 0
7.9732652 -2.878422 1.2747481 0
8.102684 -2.798955 -0.057057649 0
8.0543766 -2.8126984 0.84774166 0
7.6523342 3.5937231 1.4346224 0
7.8200455 -2.9681852 1.8926407 0
7.8762617 -2.9368875 1.6995674 0
8.0896502 -2.8239086 -0.4499504 0
8.0091715 -2.8574476 1.1632047 0
7.9052348 -2.9073043 1.6494262 0
8.1024752 -2.7988229 0.43184894 0
8.110033 -2.8036177 -0.30332059 0
7.802443 3.5843594 -0.068296432 0
7.7947488 3.5781395 0.43542373 0
7.8039007 3.5855381 0.18377085 0
7.6591835 3.5959611 1.490083 0
8.1017237 -2.7983463 0.67639816 0
8.109869 -2.8035138 -0.55061001 0
7.8094435 3.5900185 -0.32210845 0
7.9682536 -2.87675 1.4930465 0
7.8572392 -2.9302366 1.9174019 0
8.0973921 -2.7955983 -0.79770613 0
-4.3207679 -7.3030434 1.4269403 0
7.8017235 3.5837777 -0.57578254 0
8.0894794 -2.7905779 0.92059094 0
2.5240653 -8.0533724 1.6919488 0
8.1590605 -2.7523797 -0.016904175 0
-4.3145075 -7.2795019 1.5979273 0
8.0034904 -2.8537281 1.4095924 0
8.0695248 -2.8175123 1.0667574 0
7.8333406 3.5813103 -0.23479033 0
7.8273792 3.5785289 0.41821772 0
7.6498575 3.5916617 1.6896561 0
7.891953 -2.8983347 1.8972112 0
7.8385763 3.5837526 0.20096666 0
2.4859822 -8.1320229 1.425409 0
7.8311772 3.5803006 -0.45416301 0
7.8430967 3.5858617 -0.017026752 0
7.810782 3.5911009 0.68825841 0
8.0797977 -2.784436 1.1656375 0
7.7926531 3.5764453 0.93961954 0
7.6556373 3.5942442 1.7107476 0
8.16572 -2.7543919 -0.45634502 0
8.1523476 -2.7503517 -0.67623782 0
8.168622 -2.7552686 0.41865396 0
8.185174 -2.7320895 0.18694362 0
7.8272367 3.5784621 -0.67494702 0
8.1809273 -2.7589865 0.20052168 0
8.1803503 -2.758812 -0.23747331 0
7.96208 -2.8746903 1.7136745 0
8.1877584 -2.7336776 -0.30584764 0
8.1946144 -2.7378914 -0.059449375 0
8.1663342 -2.7545776 0.63670242 0
-4.310925 -7.4776659 -0.4965089 0
8.0721416 -2.8183441 1.2866919 0
7.8423061 3.5854931 0.63638109 0
7.9946208 -2.8479216 1.6575032 0
-4.322217 -7.4889979 0.14857216 0
8.1550312 -2.7511625 0.8545593 0
-4.3236532 -7.4904399 -0.17418328 0
-4.316637 -7.4833984 0.47068989 0
8.1920624 -2.7363222 -0.55480069 0
7.6405687 3.5869498 1.9312917 0
8.2022324 -2.7425721 0.43280587 0
7.8369489 3.5829935 0.85453868 0
2.5240102 -8.052186 1.9511418 0
7.7984338 3.5811188 1.1946632 0
8.1929483 -2.7368672 0.67874694 0
-4.3223982 -7.3046331 1.7512311 0
2.485595 -8.1200037 1.7469906 0
-4.3138146 -7.4805655 0.79285276 0
7.6514974 3.5930269 1.9491855 0
8.068697 -2.8172493 1.5080292 0
8.0942841 -2.7936263 1.4165231 0
7.8347583 3.5819714 1.0740483 0
8.1659784 -2.7544699 1.0757781 0
8.1952572 -2.738286 0.92601776 0
7.9677501 -2.8765821 1.9407762 0
-4.3097491 -7.4764857 1.1157632 0
-4.3237987 -7.2912512 1.9738055 0
7.9986 -2.8505266 1.9116026 0
7.8336382 3.581449 1.2954659 0
8.1622515 -2.7533438 1.2972765 0
7.8050785 3.5864899 1.4526006 0
8.0854664 -2.7880328 1.6660401 0
8.2890902 -2.6968606 -0.022620052 0
8.0675898 -2.8168974 1.7327042 0
8.1954422 -2.7383995 1.1746879 0
8.2921181 -2.6977284 0.19896168 0
7.9497585 3.5687697 0.43743816 0
8.2880449 -2.6965609 0.42036438 0
8.2948656 -2.6985157 -0.2455951 0
2.4327717 -8.3803205 -0.079908043 0
7.9587851 3.5758555 0.18176156 0
7.9612756 3.5778105 -0.074593425 0
2.4322526 -8.3642044 -0.60112071 0
2.4328849 -8.383831 0.17987488 0
7.948482 3.5677674 -0.58865207 0
2.4326782 -8.3774128 0.43941307 0
8.2944622 -2.6984 -0.46956849 0
7.961617 3.5780785 -0.33187091 0
7.945962 3.5657895 0.69297314 0
8.3127537 -2.6908762 -0.063472509 0
8.3056221 -2.6866331 0.43384492 0
2.4330459 -8.3888311 -0.34145004 0
8.2870407 -2.6962731 -0.69428492 0
8.301877 -2.6844049 -0.56304038 0
2.4324455 -8.3701954 0.69877714 0
7.7941203 3.5776317 1.7096075 0
8.3191652 -2.6946909 0.18528003 0
8.2951488 -2.6985967 0.64235032 0
8.1648331 -2.7541237 1.5222461 0
-4.3110633 -7.4778047 1.441185 0
8.3026733 -2.6848786 0.68225783 0
8.288744 -2.6967614 0.864438 0
8.3274727 -2.6996338 -0.31476641 0
7.8473639 3.5878527 1.522444 0
8.2016106 -2.7421904 1.4266273 0
8.0658169 -2.816334 1.9607621 0
7.9559569 3.5736353 0.95064139 0
8.0943756 -2.7936842 1.9230794 0
8.2825279 -2.6949797 1.0874441 0
2.4327762 -8.3804617 0.96011746 0
8.0200005 3.5675178 0.19820523 0
8.0273113 3.5708017 -0.025476307 0
8.0285015 3.571337 -0.24995196 0
8.0270576 3.570688 0.42132983 0
2.4323022 -8.3657484 1.2207105 0
8.026762 3.5705554 -0.47550035 0
7.8417525 3.5852346 1.7486633 0
7.7950549 3.578387 1.972667 0
8.1742821 -2.7569785 1.7521366 0
8.3275709 -2.6996922 0.93417639 0
8.0196199 3.5673468 -0.70191944 0
7.9562788 3.5738881 1.209269 0
8.0244503 3.5695164 0.64471197 0
8.2054501 -2.74455 1.6813462 0
8.2881451 -2.6965895 1.313867 0
8.3119545 -2.6904008 1.1838803 0
-4.3173189 -7.6738605 0.47307003 0
-4.3268533 -7.6837072 -0.18152684 0
-4.3314033 -7.688406 0.1459766 0
-4.3231444 -7.4899287 1.7719561 0
-4.3117504 -7.6681094 0.79978901 0
8.0319252 3.5728748 0.86968029 0
-4.3207932 -7.534256 1.6230756 0
8.2759476 -2.6930943 1.5396167 0
-4.3309755 -7.6879644 -0.51086426 0
8.1621933 -2.7533264 1.9804306 0
2.4324288 -8.3696737 1.4854689 0
8.0167866 3.5660739 1.0935576 0
7.8469753 3.5876713 1.9813273 0
8.3119698 -2.6904099 1.4373409 0
7.9634266 3.579499 1.4715275 0
8.1105223 3.5596049 0.17984006 0
8.1040974 3.5547087 0.43941897 0
8.1131105 3.5615771 -0.080367178 0
8.2026634 -2.7428377 1.938068 0
8.1171789 3.564678 -0.34191912 0
-4.3165021 -7.673017 1.128444 0
8.0251179 3.5698166 1.322274 0
8.1152534 3.5632107 -0.60450715 0
8.4691353 -2.6633201 -0.3238579 0
8.4750891 -2.6667485 0.18317747 0
8.4714642 -2.6646614 0.43614954 0
2.4325438 -8.3732405 1.7533782 0
7.9572492 3.5746496 1.7340482 0
8.1251926 3.5707858 0.70056331 0
8.2975368 -2.6992812 1.775674 0
8.4941797 -2.6777401 -0.071330726 0
8.1092587 3.5586421 0.96044797 0
8.4792385 -2.669137 -0.58088809 0
8.500144 -2.6600571 -0.26199132 0
8.4757576 -2.6671333 0.68961668 0
8.3264952 -2.6990521 1.6969039 0
8.5120659 -2.6632895 0.19542496 0
8.5206203 -2.6656091 -0.033868462 0
-4.319849 -7.6764736 1.4593438 0
8.0363932 3.574882 1.5548034 0
8.5210915 -2.6657369 0.42413831 0
8.1132183 3.5616596 1.223593 0
8.4894962 -2.6750436 0.94531351 0
8.3111391 -2.6899154 1.953176 0
8.516695 -2.6645448 -0.7279731 0
8.5223351 -2.6660743 0.65336168 0
8.5364723 -2.6699073 -0.49725264 0
8.2223587 3.5553761 -0.26490939 0
8.2277584 3.5577095 0.19495569 0
8.2306652 3.5589654 -0.034978807 0
8.0325136 3.5731392 1.7875447 0
8.5215702 -2.6658669 0.88333362 0
8.4813137 -2.6703322 1.2005823 0
8.2303715 3.5588386 0.42449403 0
8.2277737 3.5577164 0.65421379 0
-4.3244548 -7.8769174 -0.18876478 0
-4.3267488 -7.8793554 0.14362165 0
-4.3212013 -7.6778698 1.7929769 0
-4.3173757 -7.8693938 -0.52152491 0
-4.3219757 -7.8742824 0.47565678 0
8.1233158 3.5693552 1.4905759 0
8.2462349 3.5656943 -0.49992007 0
8.2197075 3.5542307 0.88405675 0
8.5228291 -2.666208 1.1149169 0
8.4815407 -2.6704626 1.4589241 0
8.2438602 3.5646679 -0.73424959 0
8.5056124 -2.6615398 1.3455545 0
8.2837601 3.5553124 0.17746691 0
-4.3208899 -7.8731284 0.80789214 0
8.2881451 3.5585563 -0.087607741 0
8.2834368 3.555074 -0.35304654 0
8.2819233 3.5539548 0.44189325 0
8.2767639 3.5501378 0.70626593 0
8.1142368 3.5624354 1.7567333 0
8.6452236 -2.6427488 0.18079969 0
8.6476727 -2.6441123 -0.077462286 0
8.2916746 3.561168 -0.62167913 0
8.6434355 -2.6417532 0.4385646 0
8.6476765 -2.644115 -0.33662266 0
8.2425146 3.5640862 1.1188223 0
-4.3190784 -7.8712029 1.1411424 0
2.3660352 -8.6977501 0.81539732 0
8.4859762 -2.6730168 1.721102 0
-4.323339 -7.7938528 1.6486852 0
8.5230789 -2.6662757 1.5844897 0
8.2868538 3.5576012 0.97281837 0
8.6494026 -2.6450758 0.69696605 0
8.2348328 3.5607669 1.3520921 0
8.6582174 -2.6499846 -0.59885257 0
2.3659914 -8.6952982 1.153688 0
8.2843771 3.5557692 1.2399645 0
8.5099049 -2.6627038 1.8206342 0
8.6555309 -2.648489 0.95680928 0
8.2314682 3.5593128 1.5882829 0
-4.3255858 -7.878119 1.4777403 0
8.479969 -2.6695583 1.9844414 0
2.3659611 -8.6936054 1.4939736 0
8.7470169 -2.6266837 0.19162193 0
2.3344927 -8.8349972 -0.10360071 0
8.6605759 -2.6512983 1.2185841 0
8.7560654 -2.6289988 -0.045311838 0
8.2865715 3.5573924 1.5101156 0
2.3345809 -8.8399258 0.17195901 0
8.749774 -2.6273892 0.42782778 0
2.334444 -8.8322687 0.44730735 0
8.2299442 3.5586541 1.8279073 0
8.6369095 -2.6381195 1.4778136 0
8.4357357 3.5422025 0.19171858 0
8.4404917 3.5343554 0.17547134 0
2.3346076 -8.8414173 -0.38081896 0
8.7636147 -2.6309302 -0.28363252 0
2.3344705 -8.833746 -0.65845585 0
8.7596331 -2.6299114 -0.52249837 0
8.4474888 3.5470824 -0.045199037 0
-4.3230891 -8.0771561 -0.19641018 0
8.4448547 3.545989 -0.28251302 0
2.3345051 -8.8356886 0.723037 0
-4.3270674 -8.0815067 0.14103079 0
8.4549389 3.5447257 -0.094245493 0
8.4342842 3.5415993 0.66384971 0
-4.3201332 -8.0739231 -0.53480858 0
8.7630138 -2.6307764 0.6650877 0
-4.3295746 -7.8823581 1.8173212 0
8.7465715 -2.6265697 0.90149343 0
8.457449 3.5465281 -0.36491024 0
8.7990379 -2.6055129 0.17875682 0
8.4538517 3.5497251 0.42802384 0
8.2768316 3.5501878 1.7805779 0
8.7622967 -2.6305931 -0.76421964 0
8.4570379 3.5462325 0.4442842 0
8.4539614 3.5497706 -0.52264255 0
8.4547977 3.5446246 -0.63667005 0
-4.3185019 -8.0721397 0.81545401 0
-4.3380675 -8.0935383 0.47865379 0
8.4547501 3.5445902 0.7136333 0
8.449872 3.5480723 -0.76326871 0
8.8194103 -2.6164784 -0.084661543 0
2.334641 -8.8432789 1.0003819 0
2.3660791 -8.700202 1.8383842 0
8.820797 -2.6172247 -0.34877825 0
8.4500179 3.5481334 0.90240222 0
8.6477718 -2.6441677 1.745706 0
8.7571373 -2.6292729 1.1415821 0
8.4530849 3.5433953 0.98384023 0
8.8185234 -2.6160004 -0.61411363 0
-4.3167248 -8.0701952 1.1537666 0
2.3344939 -8.8350534 1.2780164 0
8.8207273 -2.6171873 0.70413995 0
8.7389326 -2.6246154 1.3798 0
8.839056 -2.6270528 0.44143647 0
8.4487638 3.5476122 1.1413516 0
-4.3265529 -8.0646152 1.2830392 0
8.4525089 3.5429809 1.2557241 0
8.8254528 -2.6197305 0.96864086 0
8.4424553 3.5449924 1.3813968 0
2.3344753 -8.8340225 1.5586046 0
-4.3190422 -8.0727301 1.4947135 0
8.7521667 -2.6280012 1.6256558 0
8.8297729 -2.6220555 1.2350823 0
-4.3240457 -8.0611486 1.675192 0
8.4448328 3.54598 1.6254606 0
8.465332 3.5521863 1.5325123 0
8.8132896 -2.6131835 1.5004207 0
8.6335392 3.5346715 0.17271669 0
8.6353493 3.5359323 -0.1016998 0
-4.3151364 -8.0684586 1.837377 0
2.334794 -8.8518353 1.8459047 0
8.7623806 -2.6306143 1.8751129 0
8.6339407 3.5349514 0.44669187 0
-4.3195367 -8.2812624 0.13852867 0
8.4527197 3.543133 1.8074019 0
8.6399345 3.5391247 -0.37757266 0
-4.3225255 -8.284627 -0.20446748 0
8.6325645 3.533993 0.72092199 0
8.6372995 3.5372903 -0.65444756 0
-4.3197541 -8.2815075 -0.54827744 0
-4.3232527 -8.2854462 0.48096901 0
8.4541121 3.5498333 1.8747668 0
8.6677628 3.530545 0.1880438 0
8.6703386 3.5315721 -0.055710793 0
8.6737967 3.5329502 -0.30063629 0
9.0067768 -2.5925136 -0.092753977 0
9.0073109 -2.5897422 -0.30345756 0
9.0058842 -2.5920494 -0.36206186 0
8.828413 -2.6213238 1.7743731 0
9.0032177 -2.5906632 0.4436723 0
9.0113068 -2.5948687 0.17556858 0
8.6335659 3.5346906 0.99629378 0
8.6822605 3.5363238 0.43162864 0
9.0178165 -2.5922706 0.18717891 0
-4.3264103 -8.2889996 0.82417399 0
9.0003109 -2.5891516 -0.63230211 0
8.6798878 3.5353782 -0.54767185 0
9.0077419 -2.5898461 -0.55088061 0
9.0259647 -2.5942311 -0.058601379 0
8.6689634 3.5310237 -0.79439354 0
8.677824 3.5345554 0.67553306 0
9.0196218 -2.592705 0.43225351 0
8.9963017 -2.5870931 -0.79853165 0
9.0042667 -2.5912087 0.71200573 0
8.6707306 3.5317283 0.91974753 0
8.6272306 3.5302784 1.272341 0
-4.3166275 -8.2779884 1.1672655 0
9.0198383 -2.5927567 0.67767113 0
8.9948206 -2.586297 0.98037094 0
9.0141563 -2.5913894 0.92347348 0
8.6737614 3.5329363 1.1662621 0
9.0021 -2.5900817 1.2519497 0
9.0141449 -2.5913868 1.1710892 0
8.6315565 3.5332906 1.552282 0
8.6624174 3.5284147 1.4126775 0
-4.3265643 -8.2891731 1.5150737 0
-4.3220181 -8.3353624 1.3021016 0
9.0114708 -2.5907433 1.4204028 0
9.0059471 -2.592082 1.5258303 0
8.8223457 3.5266454 0.17007795 0
8.6303291 3.5324366 1.8343917 0
8.8158798 3.522279 0.44918588 0
8.8287849 3.5309947 -0.10991406 0
9.0019989 -2.5884638 1.6709373 0
8.6782074 3.5347083 1.6666541 0
8.8321638 3.5332763 -0.39115334 0
8.8202171 3.5252082 -0.6721313 0
-4.3245044 -8.2868547 1.8640658 0
8.9979172 -2.5879073 1.8004599 0
9.1831284 -2.5580509 0.17319007 0
-4.3201714 -8.4968023 -0.21275204 0
8.828229 3.5306189 0.72927892 0
-4.319416 -8.3316536 1.7019138 0
-4.3242269 -8.5015011 0.13558251 0
9.1925402 -2.5627742 -0.10071471 0
-4.3258309 -8.5033598 0.48386037 0
8.8223667 3.5266602 1.0095191 0
-4.3265901 -8.5042391 -0.56333208 0
8.6718426 3.5321715 1.9197915 0
9.2026768 -2.5678616 -0.37643164 0
9.2003384 -2.5666878 0.44654602 0
8.9062939 3.5149009 0.18426439 0
8.9083538 3.5156882 -0.067028493 0
9.0174112 -2.5921729 1.9301202 0
8.8154001 3.5219553 1.2908177 0
9.2110739 -2.5720761 -0.65439403 0
-4.3328018 -8.5114365 0.83316511 0
9.2085323 -2.5708003 0.72105247 0
8.9099369 3.516293 -0.57313359 0
8.9187155 3.5196471 0.43536776 0
8.9243908 3.5218158 -0.32070619 0
8.9079103 3.5155189 0.68640363 0
-4.3242002 -8.5014706 1.1824121 0
9.2073631 -2.5702138 0.99629045 0
2.223469 -9.3504639 -0.42524892 0
8.9081535 3.5156116 0.93858546 0
9.2818947 -2.5488517 -0.071124405 0
9.1934299 -2.5632207 1.2713702 0
2.2235048 -9.3604259 0.45650527 0
2.2235408 -9.3705053 0.16271882 0
2.2302034 -9.3318768 0.848553 0
8.824338 3.5279911 1.5769888 0
9.2846947 -2.5494833 0.43658841 0
9.2891541 -2.5504892 -0.32669294 0
2.223567 -9.3778582 -0.13198751 0
9.2980309 -2.5524914 0.18257296 0
9.2834978 -2.5492134 -0.58272344 0
2.2235167 -9.3638048 -0.72339034 0
-4.3206043 -8.497304 1.533818 0
8.9126692 3.5173371 1.1928928 0
9.2891397 -2.5504858 0.69091368 0
2.2235665 -9.3777218 0.75138032 0
9.0069056 3.5106404 -0.11709684 0
9.0067387 3.5105312 0.16755348 0
9.1936378 -2.5633249 1.5502313 0
2.2302003 -9.3309956 1.209175 0
2.2234769 -9.3526707 1.044842 0
8.8162746 3.5225461 1.863113 0
9.0075111 3.5110366 -0.40285075 0
9.009409 3.5122793 0.45190227 0
9.2693977 -2.5460331 1.2003489 0
9.0042515 3.5089028 -0.6898396 0
8.9136639 3.5177169 1.4491322 0
9.3056908 -2.5542192 0.94757611 0
9.0108709 3.5132363 0.73674524 0
2.2302005 -9.3310356 1.5720587 0
-4.3236074 -8.500783 1.889464 0
9.385746 -2.5317817 0.17022055 0
2.2235475 -9.3723412 1.3438386 0
8.9072151 3.5152528 1.7067479 0
-4.3161216 -8.7140427 -0.22128654 0
9.2024355 -2.5677404 1.834079 0
9.0157776 3.5164487 1.0231152 0
-4.3202076 -8.621254 1.322589 0
-4.3223796 -8.7215071 0.13267829 0
9.3978176 -2.537626 -0.10978156 0
9.3896036 -2.5336497 0.44925427 0
9.3922052 -2.534909 -0.39002991 0
9.2907448 -2.5508478 1.4620472 0
-4.3217316 -8.7207336 0.48670411 0
9.3910418 -2.5343459 -0.67216605 0
-4.3233399 -8.7226515 -0.57770294 0
9.0099201 3.512614 1.3100716 0
9.4007664 -2.5390534 0.72935331 0
2.2235301 -9.3674898 1.642906 0
-4.3214798 -8.7204332 0.84112364 0
9.290288 -2.5507448 1.7238491 0
8.9180098 3.5193777 1.9716611 0
9.4035625 -2.5404072 1.0105339 0
2.2302356 -9.3408594 1.93962 0
-4.3216705 -8.6234035 1.7315421 0
9.0100174 3.5126774 1.6001353 0
-4.3231034 -8.7223701 1.1970708 0
9.1612844 3.4986563 0.1801946 0
9.1749344 3.503649 -0.079893857 0
2.2235265 -9.3665113 1.9457121 0
9.1701336 3.501893 -0.34023416 0
9.4026213 -2.5399513 1.2931457 0
9.1718674 3.5025275 0.4394021 0
9.2920876 -2.551151 1.9897305 0
9.1717863 3.5024977 0.69911826 0
9.2040339 3.4976714 0.16478033 0
9.1840858 3.5069966 -0.6042639 0
9.0090628 3.5120528 1.8931894 0
9.2100849 3.5015099 -0.12578812 0
9.2037077 3.4974644 -0.41663581 0
9.204525 3.4979832 0.45462987 0
-4.3233924 -8.7227144 1.5551215 0
9.3996277 -2.538502 1.5777569 0
9.1740913 3.5033407 0.96000296 0
9.2046223 3.4980447 -0.70979738 0
9.2138405 3.5038931 0.74542129 0
9.1710434 3.5022256 1.2219586 0
9.3932638 -2.5354214 1.8645725 0
9.2197819 3.5076625 1.0377014 0
9.5987568 -2.5049639 0.1670633 0
9.5906162 -2.5075772 0.44165 0
9.576437 -2.5045917 0.70511246 0
9.5996962 -2.5094893 0.17758805 0
9.602561 -2.5100925 -0.087111622 0
9.1693258 3.5015976 1.4861673 0
9.5997076 -2.5094917 -0.35247552 0
-4.3279953 -8.7282047 1.9173508 0
9.6065216 -2.5085864 -0.11900714 0
9.6015654 -2.506274 0.45239082 0
9.5931854 -2.5081184 -0.61880124 0
9.2039738 3.4976332 1.3291031 0
9.590785 -2.5012445 -0.69257247 0
9.6074696 -2.5090287 -0.40606803 0
9.6010981 -2.5060558 0.7380935 0
-4.330554 -8.9614067 0.12935929 0
-4.3321462 -8.9633617 0.49008477 0
-4.3286858 -8.9591131 -0.59394896 0
9.5992231 -2.5093896 0.97183228 0
-4.3414717 -8.9748135 -0.23266828 0
9.2022305 3.4965274 1.6243396 0
9.1770535 3.5044243 1.7551413 0
9.6044598 -2.5076244 1.0251775 0
-4.3311758 -8.9621706 0.85121375 0
9.6011925 -2.5098042 1.239206 0
9.6044369 -2.5076132 1.3138222 0
-4.3292651 -8.9358501 1.3458952 0
-4.3285275 -8.9589186 1.2133271 0
9.1978292 3.4937351 1.9221032 0
9.4061813 3.4824278 0.16192825 0
9.6005926 -2.5096779 1.5086077 0
9.415081 3.4878967 -0.13452318 0
9.5979395 -2.5045824 1.6038196 0
9.4146004 3.4876015 -0.43182939 0
9.4140377 3.4872558 0.45763272 0
9.4029579 3.4804471 -0.72930968 0
-4.3180895 -8.9461012 1.5758512 0
9.4380369 3.4829278 -0.092511535 0
9.4125805 3.4863598 0.7537694 0
9.4445038 3.4851887 0.17561886 0
9.5935068 -2.5081859 1.7796746 0
-4.324779 -8.9290514 1.7629313 0
9.455617 3.4890742 -0.36337453 0
9.4101658 3.4848764 1.050774 0
9.4571323 3.4896042 0.4440147 0
9.4436474 3.4848893 0.71222305 0
9.4560518 3.4892263 -0.63497227 0
9.6088448 -2.5096698 1.9002718 0
9.8043385 -2.4691062 0.45533895 0
9.4566202 3.4894249 0.9828676 0
9.8227539 -2.4773791 -0.1286301 0
9.4157047 3.4882805 1.3505468 0
9.829401 -2.480365 0.16358151 0
-4.3297524 -8.9604225 1.9458816 0
9.4402781 3.4837112 1.2523205 0
9.8249416 -2.4783616 -0.42225063 0
9.8124886 -2.4727676 0.74744034 0
9.8167934 -2.4747014 -0.71644771 0
-4.3283763 -9.1970396 0.12617522 0
-4.3272023 -9.1955547 -0.24122292 0
2.0968103 -9.9489269 0.15261434 0
9.8095369 -2.4714415 1.0401733 0
-4.321661 -9.1885481 -0.60921991 0
9.4158192 3.4883506 1.6523488 0
2.0967271 -9.9566908 -0.16234714 0
2.0967917 -9.9506617 0.46681595 0
-4.336585 -9.2074194 0.49345583 0
-4.3233705 -9.1907091 0.86029923 0
9.4552708 3.4889534 1.5281374 0
2.0966282 -9.9659004 -0.47913331 0
9.8143177 -2.4735892 1.3355145 0
9.9109316 -2.4600081 -0.10242724 0
9.9050093 -2.4588494 -0.3777703 0
9.4365654 3.4824135 1.8011986 0
2.0965698 -9.9713421 0.78251505 0
9.4069548 3.4829032 1.9554687 0
2.0965703 -9.9712906 -0.79803729 0
9.9187336 -2.461535 0.17229711 0
9.9111233 -2.4600458 0.44696754 0
9.9022503 -2.4583097 -0.65477395 0
9.6175957 3.4672272 0.1589077 0
9.6258831 3.4721587 -0.14355025 0
2.0967031 -9.9589281 1.0979233 0
-4.3282299 -9.1968546 1.2295464 0
9.6240768 3.4710839 0.46062398 0
9.9194603 -2.4616768 0.72228271 0
9.6299858 3.4745996 -0.447366 0
9.8146086 -2.4737198 1.6329873 0
9.9056683 -2.4589784 0.99722904 0
9.624814 3.4715221 -0.75205314 0
9.6283941 3.4736521 0.76310337 0
-4.3332553 -9.2567387 0.94462258 0
9.6151199 3.4657543 1.0652525 0
2.0966127 -9.9673519 1.4169537 0
-4.3304691 -9.1996861 1.601087 0
9.9142818 -2.4606638 1.2756793 0
-4.3252645 -9.2442417 1.3683313 0
9.8284636 -2.479944 1.9366817 0
2.0750806 -10.073423 0.88744557 0
9.9066639 -2.4591732 1.5545237 0
9.7256012 3.4630799 0.17110039 0
2.0966427 -9.9645567 1.7375457 0
10.038691 -2.4402919 0.16052052 0
9.734024 3.4658904 -0.10690239 0
9.6358929 3.4781139 1.373036 0
10.035503 -2.4389148 0.45881891 0
2.0753109 -10.051955 1.2723004 0
9.7351131 3.4662535 0.44847468 0
-4.321732 -9.1886377 1.9732778 0
10.052034 -2.446059 -0.1389643 0
9.7422276 3.4686275 -0.38652563 0
10.047154 -2.4439497 -0.43882746 0
9.7322588 3.4653013 -0.6661163 0
10.03463 -2.4385376 -0.7391336 0
9.7332153 3.4656203 0.72625768 0
-4.3254337 -9.2445068 1.7954577 0
10.045056 -2.4430432 0.75796592 0
9.913126 -2.4604375 1.8387134 0
9.637785 3.4792397 1.681686 0
-4.325634 -9.4405603 -0.25130093 0
9.7418146 3.4684896 1.0058875 0
10.043235 -2.442256 1.0578539 0
-4.3312407 -9.4478617 0.12269096 0
-4.3315277 -9.4482365 0.4967173 0
-4.3317904 -9.4485779 -0.62770993 0
2.0750899 -10.072554 1.6631753 0
9.7461281 3.4699285 1.2873116 0
10.052917 -2.4464405 1.3609798 0
-4.3369355 -9.4552794 0.87167346 0
9.8510065 3.4589474 -0.15338293 0
9.6436176 3.4827101 1.9948152 0
9.8487072 3.4576237 -0.46313077 0
9.7324028 3.4653492 1.5684663 0
9.8515148 3.4592402 0.46394581 0
9.8625135 3.4655726 0.1552327 0
10.040695 -2.4411588 1.6636766 0
9.8505764 3.4586995 0.77275693 0
-4.3350792 -9.4528618 1.2475824 0
9.8609734 3.4646857 -0.77665472 0
9.8480415 3.4572403 1.0824635 0
9.7443933 3.4693499 1.8570019 0
-4.3267169 -9.4419708 1.62427 0
10.041194 -2.4413741 1.971499 0
9.8517056 3.4593499 1.3947417 0
10.259947 -2.408751 -0.40747726 0
10.258234 -2.4084411 0.4527553 0
10.27026 -2.4106159 -0.12045541 0
10.270239 -2.4106121 0.16643174 0
10.2717 -2.4046075 0.46238154 0
10.283587 -2.4095433 0.15679383 0
10.262421 -2.409198 -0.69711947 0
10.28511 -2.4101765 -0.14947811 0
-4.3369465 -9.5919561 0.95959407 0
10.267384 -2.4100955 0.73970217 0
10.286491 -2.4107497 -0.45697498 0
10.276443 -2.4065773 -0.76494181 0
9.8540611 3.460706 1.7097666 0
10.277359 -2.4069571 0.76843822 0
10.25717 -2.4082487 1.0266304 0
-4.3315272 -9.5832081 1.3937219 0
10.250458 -2.4070349 1.315027 0
10.284134 -2.4097705 1.0761516 0
-4.3208308 -9.6904879 0.49997699 0
-4.3307018 -9.7037315 0.11913469 0
10.047101 3.446013 -0.41127503 0
10.054111 3.4482412 0.16572821 0
-4.3326573 -9.706356 -0.26263237 0
10.05044 3.4470742 0.45360458 0
10.061438 3.4505696 -0.12296954 0
10.043192 3.4447708 -0.70163727 0
10.284071 -2.4097443 1.3853558 0
-4.337358 -9.7126627 -0.64643019 0
10.088223 3.4462945 -0.16387436 0
10.063511 3.4512286 0.74248356 0
10.08388 3.4438765 0.46734312 0
10.092126 3.448468 0.15189219 0
-4.3348298 -9.7092705 0.88222295 0
10.270573 -2.4106722 1.6097466 0
-4.3307037 -9.5818787 1.8308612 0
10.26861 -2.4033246 1.6945778 0
10.099743 3.4527094 -0.48203063 0
10.06278 3.4509962 1.0321144 0
10.088884 3.4466627 0.78331405 0
-4.3246036 -9.695549 1.263963 0
10.088591 3.4464996 1.1003139 0
10.061954 3.4507334 1.3234544 0
10.271763 -2.4108877 1.905442 0
10.078987 3.4411514 1.4179248 0
10.062626 3.4509468 1.6174917 0
-4.3383317 -9.7139692 1.6517657 0
10.516012 -2.367219 0.15331432 0
10.525923 -2.3711691 -0.16039771 0
10.521482 -2.3693988 0.46618849 0
10.084984 3.4444911 1.7403281 0
10.524548 -2.370621 -0.47494364 0
10.053561 3.4480662 1.9128635 0
1.9506452 -10.640515 0.14049862 0
10.529194 -2.3724725 -0.79210961 0
10.531584 -2.3734252 0.78011709 0
1.9501705 -10.659465 -0.19931036 0
1.9504646 -10.647722 -0.5390057 0
10.523952 -2.3703837 1.0942876 0
1.9500117 -10.665801 0.47934291 0
1.9503828 -10.650988 0.81826597 0
-4.3312917 -9.9275579 0.97445792 0
-4.3361273 -9.9778528 -0.27420938 0
-4.3287716 -9.9676828 -0.66397041 0
-4.3409181 -9.984477 0.115079 0
-4.3349543 -9.9762306 0.50414336 0
10.335627 3.4325879 -0.17490244 0
10.541414 -2.3773432 1.4131248 0
-4.3262558 -9.9642038 0.89272666 0
10.334984 3.4322422 0.47109017 0
10.333906 3.4316628 -0.49911636 0
10.344069 3.4371321 0.14812976 0
10.639179 -2.3528116 -0.43933201 0
10.649548 -2.3545337 0.16007546 0
10.653864 -2.3552506 -0.13976794 0
1.9497774 -10.675155 1.1608064 0
10.513643 -2.3662746 1.7283145 0
10.33288 3.4311101 0.79413903 0
10.653126 -2.355128 0.45938787 0
10.638145 -2.3526402 -0.74138832 0
10.639957 -2.352941 0.75842929 0
-4.3317695 -9.9283543 1.4195169 0
10.388788 3.426038 0.16026291 0
10.634054 -2.3519604 1.0582775 0
1.950083 -10.662958 1.5026736 0
-4.3295794 -9.9687996 1.283491 0
10.333443 3.4314129 1.1184703 0
10.389368 3.426213 -0.43936491 0
10.391663 3.4269066 0.45918953 0
10.4072 3.4316006 -0.13998386 0
10.395203 3.4279764 -0.74231172 0
10.400499 3.4295762 0.75901699 0
1.9502991 -10.654329 1.8471947 0
-4.3246131 -9.9619331 1.675311 0
-4.3303237 -9.9259443 1.8669096 0
10.340969 3.4354632 1.445805 0
10.658678 -2.3560503 1.3633438 0
10.402699 3.4302406 1.0599833 0
10.636713 -2.352402 1.6653085 0
10.387384 3.4256139 1.3607088 0
10.33094 3.4300654 1.7734009 0
10.784142 -2.3324001 0.14917532 0
10.779013 -2.3304398 -0.49440491 0
10.788937 -2.3342323 -0.1725347 0
10.795208 -2.3366284 0.47043151 0
10.3874 3.4256184 1.6654383 0
10.787384 -2.3336391 0.79184759 0
10.641932 -2.3532686 1.9744242 0
10.788853 -2.3341999 1.1147265 0
1.8962077 -10.913604 0.93163925 0
10.392315 3.4271038 1.9745539 0
10.5905 3.4159472 0.14450045 0
-4.3281469 -10.244096 0.5078826 0
-4.3341179 -10.252605 -0.28587598 0
10.792315 -2.3355224 1.4399565 0
10.597969 3.4198306 -0.18674287 0
10.590364 3.4158762 0.47489691 0
-4.3384643 -10.2588 0.11120389 0
10.592485 3.4169791 -0.51851261 0
10.58806 3.4146783 0.80555761 0
-4.3367939 -10.256419 -0.68495214 0
1.8962535 -10.911776 1.3477949 0
-4.3324976 -10.250296 0.90512818 0
10.788555 -2.3340859 1.7670232 0
10.584211 3.412677 1.1370968 0
-4.3326807 -10.250557 1.3037257 0
-4.3344669 -10.294613 0.99110967 0
1.8961008 -10.917871 1.7673464 0
10.589128 3.4152339 1.4715773 0
-4.3353667 -10.254385 1.7053236 0
10.585049 3.4131124 1.8077208 0
-4.3371243 -10.299191 1.4476969 0
10.756628 3.40399 -0.15714329 0
10.75375 3.4031656 -0.46937841 0
10.756338 3.4039071 0.46518272 0
11.056049 -2.2920065 -0.1600658 0
10.768055 3.4072649 0.15400453 0
11.060602 -2.2933733 -0.1851207 0
11.052027 -2.2902367 -0.5155465 0
11.063618 -2.2944763 0.14483775 0
11.056368 -2.2920547 0.46616697 0
11.066128 -2.2935326 0.15306072 0
10.751066 3.4023964 -0.78334236 0
11.068048 -2.2938235 -0.47558081 0
11.071268 -2.2972746 0.47470444 0
11.059429 -2.2925181 0.77964491 0
11.060907 -2.2934849 0.80453777 0
11.064871 -2.2933421 -0.79199505 0
10.760019 3.4049621 1.089349 0
10.785719 3.4123268 0.77812928 0
-4.3396773 -10.303588 1.9074278 0
11.060911 -2.2927427 1.0943494 0
11.058918 -2.2927573 1.1355884 0
10.850109 3.394686 -0.19791108 0
10.763584 3.4059839 1.4043413 0
11.057768 -2.2922666 1.410513 0
10.864941 3.4021294 0.14034416 0
10.858971 3.3991334 -0.5385648 0
-4.3300767 -10.535756 0.10731001 0
11.064409 -2.2947659 1.4694979 0
10.86828 3.403805 0.47912109 0
-4.3343816 -10.542082 0.5122236 0
10.860882 3.4000924 0.81794274 0
-4.3389134 -10.54874 -0.29878694 0
10.759188 3.4047236 1.7209946 0
11.052168 -2.2914188 1.7287834 0
-4.3414927 -10.55253 -0.70649886 0
-4.3351674 -10.543237 0.91783804 0
11.067907 -2.2960451 1.8063568 0
10.872969 3.4061587 1.159335 0
-4.3372526 -10.5463 1.3252395 0
10.875616 3.4074876 1.5024704 0
10.85816 3.3987257 1.8452058 0
-4.3355536 -10.676599 0.54245174 0
-4.341291 -10.552235 1.735824 0
-4.3338199 -10.673512 1.0083374 0
11.34898 -2.2510467 -0.19860429 0
11.351912 -2.2520714 0.14034873 0
11.344254 -2.2493942 -0.53841656 0
11.359848 -2.2548466 0.47919807 0
1.779725 -11.455141 -0.24127698 0
1.7792695 -11.466709 0.12598817 0
1.7794451 -11.462249 0.49333394 0
11.36272 -2.255851 0.81876719 0
-4.3343239 -10.674409 1.4760835 0
1.779321 -11.465402 -0.61099005 0
11.346075 -2.2500312 1.1579854 0
1.7788968 -11.476171 0.86177999 0
11.146793 3.3842971 -0.21161669 0
11.149921 3.3858116 0.13600829 0
11.152756 3.3871839 0.48344672 0
11.150602 3.3861406 -0.56094754 0
1.7792646 -11.46683 1.2305152 0
11.162472 3.3819401 0.47190848 0
11.142683 3.3823078 0.83077747 0
11.174732 3.3852646 0.14726979 0
11.360121 -2.2549422 1.5020397 0
-4.3318968 -10.670087 1.9460335 0
11.176819 3.3858304 -0.17810023 0
-4.3373795 -10.848148 0.10270913 0
-4.3355985 -10.845448 -0.31160808 0
11.172474 3.3846521 -0.50423157 0
11.168867 3.3836744 0.79706848 0
-4.3400607 -10.852212 0.51677585 0
-4.3346415 -10.843999 -0.72734928 0
11.346401 -2.250145 1.8454417 0
11.151461 3.3865559 1.1804309 0
1.7792323 -11.467652 1.6021042 0
11.163189 3.3821347 1.12279 0
-4.3394341 -10.851262 0.93137318 0
11.512062 -2.2249115 0.47387284 0
11.521437 -2.2261941 0.145362 0
11.518457 -2.2257867 -0.51373547 0
11.53079 -2.227474 -0.1842097 0
11.148441 3.3850944 1.5313015 0
11.166061 3.3829136 1.4511836 0
11.527678 -2.2270482 0.8034451 0
-4.3430166 -10.856692 1.3480798 0
1.7791077 -11.470816 1.9773225 0
11.133146 3.377691 1.8827988 0
11.158457 3.3808515 1.7808948 0
11.527363 -2.227005 1.1339219 0
11.512962 -2.225035 1.4646565 0
-4.3391552 -10.850839 1.7661364 0
11.634214 -2.1998787 -0.56102282 0
11.646696 -2.2040436 -0.21257323 0
11.648184 -2.2045398 0.13572302 0
11.517225 -2.2256181 1.8002032 0
11.644331 -2.203254 0.83184248 0
11.663534 -2.2096612 0.48395944 0
-4.3389273 -11.082812 0.5486874 0
11.436962 3.3625767 -0.22486305 0
11.443306 3.3655369 0.48786512 0
11.453619 3.3703477 0.13133629 0
11.673477 -2.2129786 1.184044 0
11.442106 3.3649771 -0.58318728 0
11.428928 3.3588288 0.84379852 0
11.652544 -2.2059946 1.5340747 0
-4.3449798 -11.093961 1.02791 0
11.42898 3.3588531 1.2013199 0
-4.3399777 -11.167252 -0.32587653 0
-4.3371339 -11.162804 0.52129459 0
-4.3434777 -11.172725 0.097899899 0
-4.3369999 -11.079262 1.5072044 0
-4.3401008 -11.167444 -0.75134075 0
-4.3328204 -11.156058 0.94458026 0
1.6873845 -11.900096 0.085227236 0
11.435614 3.3619483 1.5619286 0
11.672077 -2.2125113 1.8923283 0
1.6873708 -11.900443 0.53417885 0
1.6875215 -11.896619 0.98348355 0
-4.3445902 -11.174464 1.3714699 0
-4.3400664 -11.084909 1.9911075 0
11.593676 3.3549759 -0.19881433 0
11.596563 3.3557146 0.14028095 0
11.59656 3.3557136 -0.53946561 0
11.599558 3.3564808 0.47917303 0
11.447258 3.3673804 1.9270319 0
-4.3358741 -11.160834 1.7978374 0
11.612577 3.3598118 0.81923687 0
1.6868026 -11.914872 1.4361011 0
11.602192 3.3571546 1.1593742 0
1.6876842 -11.892487 1.8877789 0
11.96759 -2.1563706 0.13068214 0
11.976011 -2.1590466 -0.22825336 0
11.605295 3.3579483 1.502555 0
11.979546 -2.1601701 0.48893684 0
11.979164 -2.1600487 -0.58863968 0
11.98308 -2.1612935 0.84804213 0
11.59528 3.355386 1.8467712 0
11.747265 3.3419383 0.12688227 0
11.967085 -2.1562097 1.2069309 0
12.029057 -2.1525059 0.13673991 0
12.023016 -2.1517675 0.4825539 0
12.032347 -2.1529083 -0.20977604 0
12.027924 -2.1523674 -0.55711466 0
11.763899 3.3494108 -0.24015486 0
11.764919 3.3498695 0.49285558 0
11.760174 3.3477376 -0.60786128 0
11.747128 3.3418763 0.85859132 0
12.020399 -2.1514475 1.1758516 0
12.052332 -2.1553516 0.83023125 0
11.983688 -2.1614869 1.5710434 0
-4.3386402 -11.49469 0.093188539 0
11.75909 3.3472507 1.2271574 0
-4.342207 -11.500448 0.5263297 0
-4.345788 -11.506228 -0.34107393 0
12.022219 -2.15167 1.5255114 0
-4.3408012 -11.498178 -0.77586257 0
-4.3429513 -11.512364 0.55533552 0
11.752832 3.3444397 1.5964485 0
11.980312 -2.1604142 1.9361936 0
-4.3447685 -11.504583 0.96037257 0
-4.3424792 -11.511464 1.0471525 0
12.028814 -2.1524763 1.8790734 0
11.747856 3.3422034 1.9686612 0
-4.3450623 -11.505057 1.3959706 0
-4.3426518 -11.511793 1.5408233 0
-4.3445215 -11.504185 1.834083 0
12.064421 3.3254244 0.48691782 0
12.080441 3.3292797 0.13219456 0
12.081144 3.3229253 -0.25480992 0
12.080172 3.3292148 -0.22323483 0
12.086554 3.3252628 0.12158006 0
12.077711 3.3286226 -0.57975096 0
12.078194 3.3216507 -0.63240224 0
12.066257 3.3258662 0.84188479 0
12.086227 3.3251216 0.49781376 0
12.087927 3.3258569 0.87459725 0
12.06591 3.3257828 1.1980891 0
12.090178 3.3268292 1.2529444 0
-4.342154 -11.845667 0.087925494 0
-4.3415995 -11.844742 -0.35610807 0
12.080353 3.3292587 1.5583194 0
12.446247 -2.1476493 -0.25161636 0
12.44982 -2.1487288 0.12268145 0
-4.346065 -11.852186 0.53160721 0
12.088949 3.3262985 1.6333169 0
12.45052 -2.1489403 -0.62774259 0
12.460119 -2.1518404 0.4969064 0
-4.3434029 -11.847749 0.9756918 0
12.448557 -2.1483474 0.87114286 0
12.075287 3.3280394 1.919516 0
12.438562 -2.1453278 1.2460499 0
-4.3358769 -11.835201 1.4202155 0
-4.3409824 -11.954304 0.057223141 0
12.447384 -2.1479926 1.6249365 0
-4.3448629 -11.961967 0.56232679 0
-4.3424335 -11.846132 1.8698002 0
-4.3438458 -11.959958 1.0680788 0
-4.3438854 -11.960036 1.5757324 0
12.432547 3.301924 -0.27133805 0
12.441286 3.3055532 0.11601284 0
12.434654 3.3027995 0.5032618 0
12.439976 3.3050096 -0.66097903 0
12.438507 3.3043997 0.89107639 0
12.438768 3.304508 1.2802646 0
-4.3445053 -12.211904 0.082399011 0
12.431942 3.3016732 1.6709157 0
-4.3471336 -12.216432 -0.37303185 0
-4.3451605 -12.213032 0.53702378 0
-4.343287 -12.209805 0.99203038 0
12.59206 3.2954793 0.12363109 0
12.585297 3.2939534 0.49564791 0
12.595024 3.2961476 -0.24911988 0
12.583981 3.2936566 -0.62219405 0
-4.3457885 -12.214114 1.4492067 0
12.591967 3.2954581 0.86835569 0
12.60803 3.2990816 1.2437512 0
-4.3456554 -12.213885 1.9088898 0
12.584995 3.2938855 1.6176796 0
-4.345139 -12.434434 0.049686968 0
-4.3424978 -12.429028 0.56960803 0
12.602488 3.2978311 1.9997523 0
12.803844 3.2791007 0.11032493 0
12.804707 3.2794445 0.50909132 0
-4.3524666 -12.449434 1.0912484 0
12.81707 3.2843726 -0.28965783 0
12.808851 3.2810962 -0.69008374 0
12.830606 3.2897675 0.90982151 0
-4.3497515 -12.443875 1.6138625 0
12.818153 3.2848041 1.31036 0
-4.3474579 -12.597796 0.07652396 0
-4.3526535 -12.60705 -0.39095318 0
12.823925 3.2871044 1.7148229 0
-4.3556437 -12.612374 0.54316789 0
-4.3492794 -12.60104 1.009992 0
-4.3421192 -12.58829 1.4774764 0
-4.3433704 -12.590518 1.9489107 0
13.166569 3.2605393 0.11396292 0
13.161539 3.2594802 0.50534737 0
13.171965 3.2616756 -0.27827781 0
13.194143 3.2532275 0.10414256 0
13.204412 3.2571509 -0.30804992 0
13.188837 3.2652283 -0.67336869 0
13.180012 3.26337 0.89810878 0
13.215271 3.2613003 0.51565224 0
13.208746 3.2588065 -0.7219671 0
13.433271 -2.2710438 -0.30306643 0
13.170351 3.2613356 1.291116 0
13.440159 -2.2730179 0.10548542 0
13.208342 3.258652 0.92767036 0
13.439606 -2.2728593 0.51390457 0
13.4373 -2.2721987 -0.71360874 0
-4.3506474 -12.946544 0.041585565 0
13.436411 -2.2719436 0.92263758 0
13.164209 3.2600427 1.6862819 0
13.208378 3.2586663 1.3413327 0
-4.3531284 -12.951812 0.57791609 0
13.4398 -2.2729151 1.3332362 0
-4.3476963 -12.998964 0.070391819 0
13.206223 3.2578428 1.7572451 0
-4.3489585 -13.001289 -0.40894705 0
-4.3559947 -12.957898 1.1153553 0
-4.3485947 -13.000619 0.54904109 0
13.438251 -2.2724714 1.7459677 0
-4.3435497 -12.931471 1.6520916 0
-4.3535228 -13.009696 1.0288484 0
-4.346067 -12.995963 1.508867 0
-4.3505583 -13.004235 1.9938076 0
13.625582 3.231571 0.097220972 0
13.635611 3.2352388 -0.3288151 0
13.632002 3.2339189 0.52229834 0
13.626106 3.2317631 -0.75534105 0
13.623402 3.2307732 0.94753379 0
13.635014 3.2350204 1.3755708 0
13.620771 3.2298114 1.8037173 0
-4.3512769 -13.428237 0.063751638 0
-4.350153 -13.426094 0.55560613 0
-4.35463 -13.43463 -0.42912346 0
13.783424 3.2176983 0.10355966 0
-4.3521776 -13.429955 1.0482469 0
-4.3510747 -13.479718 0.58626568 0
-4.3571744 -13.493168 0.032876551 0
13.808754 3.2226541 -0.3105765 0
13.807013 3.2223134 0.51625991 0
13.806314 3.222177 -0.72556186 0
-4.3563766 -13.437961 1.5434085 0
-4.3567686 -13.492273 1.1407943 0
13.825783 3.2259862 0.93088597 0
13.825602 3.2259507 1.3466812 0
-4.3560553 -13.490701 1.6969635 0
13.810785 3.2230515 1.7631807 0
14.08375 3.2071989 -0.35043472 0
14.084738 3.2075446 0.52958441 0
14.07481 3.2040732 -0.79148912 0
14.101797 3.2135088 0.089500189 0
14.089527 3.2092187 0.97015548 0
14.083336 3.2070539 1.4116794 0
-4.3502703 -13.872644 0.056864291 0
-4.3544173 -13.880835 -0.4499051 0
14.080418 3.2060339 1.8558757 0
-4.3580108 -13.887931 0.5628348 0
-4.3577981 -13.88751 1.0696974 0
-4.3509183 -13.873924 1.5770943 0
-4.3577294 -14.061928 0.023802012 0
-4.3538709 -14.053084 0.59542966 0
-4.358778 -14.06433 1.1682289 0
14.617807 -2.4188452 -0.36494613 0
-4.3619671 -14.071638 1.7436113 0
14.630871 -2.4223874 0.5346356 0
14.644636 -2.42612 0.084515467 0
14.516451 3.1784954 0.091111764 0
14.628914 -2.4218571 0.98494929 0
14.518026 3.1787801 -0.34668183 0
14.513475 3.1779571 0.52823544 0
14.512682 3.1778138 -0.78557777 0
14.520292 3.1791899 0.96620262 0
14.560436 3.1761978 0.082134843 0
14.640846 -2.4250925 1.4380314 0
14.568466 3.1788766 -0.37399429 0
14.574711 3.1809604 0.53752786 0
14.529009 3.1807661 1.4064292 0
14.569998 3.1793873 0.99347895 0
14.628723 -2.4218054 1.8916963 0
14.501408 3.1757748 1.8454431 0
14.57198 3.1800492 1.4513719 0
-4.3550854 -14.354795 0.049291432 0
-4.3531337 -14.3508 0.57003099 0
-4.3572936 -14.359314 -0.47242469 0
14.555334 3.1744955 1.9098065 0
-4.3609715 -14.366843 1.0922638 0
-4.3645954 -14.374262 1.6168212 0
-4.3582969 -14.669308 0.014050871 0
-4.3574567 -14.667305 0.60531127 0
-4.3600922 -14.673587 1.197612 0
15.068941 3.1420219 0.54552025 0
15.078835 3.1451666 0.07369858 0
15.079645 3.1454237 -0.39892459 0
-4.3640904 -14.68312 1.7928696 0
15.075188 3.1440074 1.0180795 0
15.087027 3.1477702 1.4933437 0
-4.3616791 -14.869969 0.041133612 0
-4.3589258 -14.864122 0.57815361 0
-4.3652563 -14.877566 -0.49709451 0
15.080248 3.1456153 1.9699923 0
-4.3605857 -14.867647 1.1159199 0
-4.3596625 -14.865686 1.6554004 0
15.320393 3.1303434 0.077428699 0
15.311365 3.128844 0.54181159 0
15.320719 3.1303976 -0.38769794 0
15.330729 3.1320601 1.0076296 0
15.32189 3.1305919 1.4740281 0
15.32995 3.1319308 1.9447609 0
-4.3626962 -15.329137 0.0033689737 0
-4.3619494 -15.327281 0.61599612 0
15.634144 3.1107953 0.55478251 0
15.640089 3.1125915 -0.42647076 0
15.645727 3.1142943 0.06440635 0
-4.3594298 -15.321025 1.2289822 0
15.639881 3.1125286 1.0458593 0
-4.3615518 -15.40282 0.032691568 0
15.632294 3.1102359 1.5379386 0
-4.3648252 -15.410036 0.58684677 0
-4.3667932 -15.414375 -0.5226661 0
-4.3599353 -15.399255 1.141196 0
-4.3660674 -15.337508 1.8458889 0
-4.3662181 -15.413108 1.6991162 0
16.085165 -2.6040828 0.5599913 0
16.089188 -2.6051118 -0.44200206 0
16.098923 -2.6076026 0.059160829 0
16.087677 -2.6047251 1.0613203 0
16.095621 -2.6067576 1.5651598 0
16.218777 3.073761 -0.43371683 0
16.233889 3.0760491 0.061828986 0
16.237791 3.0747435 0.564713 0
16.248192 3.0777242 0.054498166 0
16.240807 3.0770967 0.55769318 0
16.247366 3.0774877 -0.45648313 0
16.246145 3.0779049 1.0545675 0
-4.367434 -15.984165 0.023378491 0
16.248734 3.0778797 1.0759577 0
-4.3649607 -15.978498 -0.54963899 0
-4.3704834 -15.991153 0.59615463 0
16.241529 3.0772061 1.5527608 0
-4.3659582 -15.980783 1.1691697 0
16.243748 3.0764506 1.5884237 0
-4.3678513 -16.039682 -0.0082018971 0
-4.3651195 -16.032608 0.62746954 0
-4.3642449 -15.976857 1.7441095 0
-4.3692718 -16.04336 1.264388 0
-4.3626871 -16.02631 1.9018408 0
16.883953 3.0333047 0.044016719 0
-4.3668933 -16.589802 0.013662964 0
-4.3706317 -16.598715 -0.57963997 0
16.898863 3.0373476 -0.48880762 0
-4.3719106 -16.601763 0.60596347 0
16.902075 3.0382183 0.57571101 0
-4.3667307 -16.589413 1.1985114 0
16.91029 3.0404458 1.1088281 0
-4.3691735 -16.595238 1.7940193 0
16.905254 3.0390809 1.6432946 0
-4.3719358 -16.802185 -0.020677209 0
-4.3716412 -16.801388 0.64006245 0
-4.3687091 -16.793459 1.3011502 0
-4.3707008 -16.798845 1.9653126 0
17.286749 3.0149624 0.043790817 0
17.282129 3.0143304 0.57552779 0
17.285831 3.0148368 -0.48862779 0
17.284798 3.0146954 1.1079731 0
17.273733 3.0131817 1.6413466 0
-4.3700719 -17.247452 0.0030243397 0
-4.3760271 -17.262238 0.61665392 0
-4.3795505 -17.270987 -0.61240494 0
-4.3764281 -17.263233 1.2313669 0
17.605095 2.9929428 0.032023787 0
17.605762 2.9931138 -0.52404225 0
17.612238 2.9947705 0.58750498 0
17.608082 2.9937072 1.1435677 0
-4.375174 -17.260118 1.8480214 0
17.600809 2.9918466 1.701088 0
17.921789 -2.8349783 0.027322859 0
17.915539 -2.8334742 0.59196496 0
-4.3763537 -17.627148 -0.034244925 0
17.932789 -2.8376253 -0.53871334 0
-4.3763342 -17.627094 0.65364397 0
17.922813 -2.8352246 1.1575756 0
-4.3764062 -17.627296 1.3423822 0
17.9245 -2.8356304 1.7252809 0
-4.3760495 -17.960911 -0.0085991025 0
-4.3806562 -17.972839 -0.646644 0
-4.3813443 -17.974623 0.62825567 0
-4.3748889 -17.957907 1.265205 0
-4.3774323 -17.964493 1.9054217 0
18.385778 2.9466355 0.018992692 0
18.386658 2.9468472 -0.5631786 0
18.38817 2.9472113 0.60045028 0
18.386374 2.946779 1.1825633 0
18.380968 2.945478 1.7663568 0
18.475397 2.9406347 -0.54995579 0
18.474312 2.9405019 0.59599996 0
18.491989 2.9426634 0.023089141 0
18.495846 2.9431348 1.1704354 0
18.469862 2.9399579 1.744307 0
-4.3787241 -18.515776 -0.048918962 0
-4.3808603 -18.522104 0.66843557 0
-4.3748403 -18.504272 1.3857955 0
-4.381814 -18.728895 -0.021174282 0
-4.3825436 -18.730867 -0.68384033 0
-4.3839712 -18.734728 0.64068288 0
-4.3798766 -18.723658 1.3028375 0
-4.3850341 -18.737602 1.9689277 0
19.235943 2.8940461 0.0047484338 0
19.246052 2.8963263 -0.6064418 0
19.247749 2.896709 0.6148628 0
19.23642 2.8941538 1.2253244 0
19.24354 2.8957593 1.8388662 0
-4.3857503 -19.497625 -0.065234333 0
-4.3878331 -19.504099 0.68475306 0
-4.3846049 -19.550482 -0.034676909 0
-4.387197 -19.502123 1.4356652 0
-4.3871551 -19.557693 -0.72467172 0
-4.3894205 -19.564098 0.65432906 0
19.87977 2.8558447 -0.00080347061 0
-4.3876538 -19.559103 1.3441502 0
19.890959 2.8570504 0.62039995 0
19.893314 2.8573043 -0.6232819 0
19.887783 2.8567083 1.2423904 0
19.887825 2.8567128 1.8667212 0
20.181376 2.8375955 -0.011165738 0
20.176212 2.8365083 0.63047367 0
20.18799 2.8389883 -0.65403438 0
20.167347 2.8346417 1.2723289 0
20.188133 2.8390183 1.9185547 0
20.295973 -3.1331418 -0.014219224 0
20.286606 -3.1310294 -0.66234481 0
20.305553 -3.1353028 0.63379073 0
20.299173 -3.1338642 1.2824199 0
20.294514 -3.1328132 1.9331245 0
-4.3923545 -20.456148 -0.049662739 0
-4.3909287 -20.451925 0.66898495 0
-4.390811 -20.451576 -0.76901209 0
-4.3871818 -20.440828 1.3878175 0
-4.3902397 -20.562822 0.70239794 0
-4.3937268 -20.574215 -0.083205938 0
-4.3869004 -20.55191 1.4881539 0
21.222788 2.7732801 -0.028756946 0
21.240757 2.7767961 0.6484766 0
21.241978 2.777035 -0.70752144 0
21.231718 2.7750275 1.3263736 0
21.563189 2.7572103 -0.029868811 0
21.553667 2.7563219 -0.70933378 0
21.557476 2.7566772 0.64916867 0
21.546194 2.7556245 1.3283404 0
-4.3943467 -21.424345 -0.065724224 0
-4.3963604 -21.430603 0.68523902 0
-4.3994513 -21.44021 1.437762 0
-4.3971524 -21.741022 -0.10274076 0
-4.3996034 -21.749462 0.72229421 0
-4.3996034 -21.749462 1.5484891 0
22.404236 2.7049191 -0.7666837 0
22.419931 2.7077572 -0.049081415 0
22.420849 2.7079229 0.66849768 0
22.405945 2.7052281 1.3861748 0
-4.4045072 -22.509443 -0.083848953 0
-4.4023819 -22.502499 0.70312226 0
-4.4028606 -22.504063 1.4910122 0
-4.4048581 -23.044462 -0.12467146 0
-4.4052944 -23.046047 0.74410021 0
-4.4062328 -23.049459 1.6141458 0
23.567635 2.636035 -0.064547032 0
23.560215 2.6354499 0.68381715 0
23.563917 2.6357417 1.4331588 0
23.489841 -3.5342352 -0.070181489 0
23.482151 -3.5326154 0.6894443 0
23.475859 -3.5312903 1.4495224 0
23.728516 2.6269004 -0.071346104 0
23.732948 2.6276367 0.69082457 0
23.71666 2.6249311 1.4531381 0
-4.410521 -23.687052 -0.10357741 0
-4.4106498 -23.687496 0.72298551 0
-4.4065962 -23.673538 1.549803 0
-4.4131641 -24.493584 0.76854604 0
-4.4175758 -24.510574 -0.14945242 0
-4.4145546 -24.498938 1.6876475 0
25.214468 2.535913 -0.096714348 0
25.212879 2.5356722 0.71608627 0
25.205 2.5344789 1.5294327 0
-4.4194374 -24.99748 -0.12563121 0
-4.4171343 -24.989105 0.7448796 0
-4.4180799 -24.992542 1.6164874 0
26.015078 2.4863882 0.72637224 0
26.026176 2.4871039 -0.10716638 0
26.029282 2.4873042 1.5614792 0
-4.4233375 -26.119684 -0.17671311 0
-4.4219527 -26.114019 0.79601133 0
-4.4242816 -26.123549 1.7703345 0
-4.4227357 -26.430449 -0.14981079 0
-4.4238143 -26.434603 0.76928574 0
