# .PCD v0.7 - Point Cloud Data file format
VERSION 0.7
FIELDS x y z intensity
SIZE 4 4 4 4
TYPE F F F F
COUNT 1 1 1 1
WIDTH 1407
HEIGHT 1
VIEWPOINT 0 0 0 1 0 0 0
POINTS 1407
DATA ascii
0.97770298 -3.7357724 0.79110587 0
0.90703845 -3.727833 0.90538585 0
-1.1825457 -3.7118587 0.60444802 0
-0.79456615 -3.7016675 1.0992662 0
0.56646413 -3.7322607 1.1383876 0
1.2517604 -3.7390139 -0.05173856 0
-0.0051541328 -3.7187164 1.3127942 0
-0.83816189 -3.7072568 1.0517416 0
1.0491608 -3.7311881 0.73130763 0
-0.39953813 -3.699276 1.3089266 0
-0.88324356 -3.7130072 0.99563926 0
0.026696352 -3.7212493 1.3090047 0
1.2126374 -3.7232807 -0.47849679 0
-1.2744918 -3.7126644 -0.39254397 0
-0.080070391 -3.7207892 1.3090476 0
-1.2575893 -3.6991992 -0.54794157 0
-0.26354623 -3.7156522 1.3009446 0
1.2519196 -3.7385421 -0.15645438 0
1.2516146 -3.7394459 0.15540434 0
1.2537742 -3.7330494 -0.26126987 0
0.15411973 -3.7230151 1.3007662 0
1.2567275 -3.7243021 0.36081111 0
1.1222339 -3.7236741 0.67477793 0
1.2594862 -3.7341869 0.22632812 0
-1.1669946 -3.7065587 -0.69373536 0
0.0735569 -3.7239792 1.3073035 0
-1.1677053 -3.7071419 0.69003731 0
1.1923387 -3.7212894 0.56006992 0
0.45648029 -3.7250586 1.2246437 0
-1.0773606 -3.7112806 0.80788875 0
0.9332577 -3.7284503 0.90272611 0
-1.0718608 -3.7076356 0.83447188 0
-1.3671706 -3.7041276 0.073790357 0
1.2526354 -3.7364223 0.25836563 0
1.2990901 -3.7294641 -0.048805356 0
-1.063454 -3.7020447 0.8755852 0
0.5636096 -3.7134531 1.2250012 0
0.23216999 -3.7255909 1.2952579 0
1.131834 -3.7371726 0.6040231 0
-0.089419842 -3.7229478 1.3206202 0
0.67482394 -3.722904 1.1391876 0
1.1127312 -3.74828 0.57213962 0
0.39081264 -3.7176135 1.2822983 0
-0.83456731 -3.6913576 1.1392767 0
-0.69249392 -3.7087061 1.1776675 0
1.0252107 -3.7349741 0.78802937 0
0.34723684 -3.7131257 1.3101268 0
1.1634927 -3.7347932 0.56946558 0
1.0113047 -3.7207973 0.87567896 0
-1.1816418 -3.7090218 0.69530296 0
1.2971925 -3.7353623 0.053709239 0
0.76221299 -3.7265728 1.0843045 0
-1.2677302 -3.7072778 0.54161227 0
-0.61757624 -3.7095902 1.2255468 0
1.2606181 -3.7285101 0.39297086 0
-0.97787809 -3.7069829 0.97525221 0
-0.94733959 -3.6940672 1.0526358 0
0.83568835 -3.7292449 1.0238092 0
1.299444 -3.7283645 0.25875503 0
-1.3689795 -3.7055266 0.23108745 0
1.2991717 -3.7292109 -0.25779831 0
0.30908346 -3.7288582 1.290161 0
1.2968524 -3.7364194 -0.15390682 0
1.2520676 -3.7381041 -0.36968052 0
0.90056032 -3.7333853 0.96482128 0
-1.3709075 -3.7070181 -0.24358547 0
0.574705 -3.7382917 1.1735904 0
1.2055211 -3.7434034 0.46498084 0
-0.95417494 -3.720721 0.96485186 0
0.83761942 -3.717901 1.0795749 0
1.3447707 -3.7229965 -0.14960548 0
0.1340339 -3.7356565 1.3113546 0
1.2103095 -3.7298632 0.56766665 0
-1.29536 -3.6958704 0.60348797 0
1.3003925 -3.7254164 -0.36340541 0
0.67209256 -3.7078352 1.2264366 0
-0.18766902 -3.7347841 1.3115566 0
-0.64198709 -3.7152553 1.2240665 0
-0.73080695 -3.7263982 1.1404778 0
0.68410683 -3.7301791 1.1573403 0
-0.40807509 -3.7147443 1.3268994 0
0.97739267 -3.7364831 0.90066516 0
-0.34379458 -3.7249577 1.3171926 0
-0.25893545 -3.7256811 1.3359812 0
1.2532411 -3.7346282 0.4637292 0
-1.3663285 -3.7034762 0.38825408 0
0.97639263 -3.7370093 0.90427524 0
1.2934637 -3.7469506 0.15571749 0
0.73795164 -3.7249925 1.1493213 0
0.9368068 -3.7206249 1.0120616 0
-0.9795146 -3.7123582 1.0021535 0
-1.172663 -3.703985 0.81220686 0
1.0694623 -3.740797 0.78621763 0
1.2526307 -3.7364361 -0.47832787 0
0.23972262 -3.7083294 1.396769 0
1.1182547 -3.7384527 0.73053288 0
1.1329697 -3.7409225 0.69493043 0
1.1632121 -3.7355521 0.67436314 0
-0.50912797 -3.7128034 1.3126886 0
0.54112208 -3.72211 1.2729826 0
-1.302562 -3.7164187 0.51050138 0
1.343219 -3.7280664 0.2589888 0
1.3412397 -3.734534 0.15708822 0
1.3287199 -3.7357051 0.2265299 0
-1.2603235 -3.7013774 0.69602191 0
-0.34282184 -3.721823 1.3429966 0
0.45594078 -3.7206559 1.3128207 0
1.1286396 -3.7266247 0.78592116 0
0.46183372 -3.7320273 1.280038 0
0.88116133 -3.7365906 1.0207975 0
-1.1820855 -3.7104146 0.78592116 0
1.3395808 -3.7399554 0.054436445 0
-0.71627116 -3.7075605 1.2351986 0
-0.88961172 -3.708704 1.1138651 0
0.78928173 -3.7228966 1.1425209 0
-0.42521119 -3.7131579 1.3492637 0
1.3391457 -3.7413771 -0.048728108 0
1.1189071 -3.7322881 0.78209031 0
-0.080042131 -3.719476 1.3974706 0
1.2608744 -3.7272246 0.55964702 0
1.3876417 -3.7241952 -0.045004576 0
0.24201068 -3.7437241 1.3132496 0
1.3883536 -3.7217445 0.15843621 0
0.13345812 -3.719609 1.3977444 0
1.3413558 -3.7341549 -0.25625956 0
1.0499564 -3.7279332 0.90098703 0
1.294891 -3.7425151 0.36090448 0
1.2993373 -3.7286961 -0.47243965 0
0.89931303 -3.7282147 1.054143 0
-1.2635059 -3.7039127 -0.71067929 0
1.2980759 -3.7326162 0.46289337 0
1.3432517 -3.7279601 0.36040926 0
1.167734 -3.723325 0.77802801 0
1.0235094 -3.7390301 0.8975938 0
-1.3770599 -3.711777 -0.40523577 0
1.0126007 -3.7255654 0.9657656 0
0.026729517 -3.725872 1.3983963 0
1.1911438 -3.7268651 0.72816223 0
-1.2963723 -3.6987588 0.69468307 0
-1.0661474 -3.711421 0.96580255 0
1.3426023 -3.7300823 -0.36151475 0
1.2528644 -3.7357442 0.56693685 0
0.98309267 -3.7234216 1.0083075 0
-0.48579001 -3.7168987 1.3416955 0
-0.2938199 -3.716362 1.3987236 0
-1.1721678 -3.7108026 0.84418702 0
1.3903899 -3.7147331 0.35995287 0
1.2084808 -3.7350345 0.67241263 0
1.3845717 -3.7347653 0.055996537 0
0.34730336 -3.7138367 1.399066 0
-1.4710252 -3.7015455 -0.091213405 0
1.3869807 -3.7264712 -0.25229371 0
-1.0725782 -3.7082415 0.98677182 0
0.90721536 -3.7271898 1.077992 0
0.69223607 -3.7155325 1.262374 0
-0.79287434 -3.7200983 1.1876637 0
-0.87498188 -3.7004859 1.192143 0
-0.18725705 -3.7265856 1.3992709 0
-0.61787248 -3.7113695 1.3147837 0
-0.7296387 -3.7204413 1.2291328 0
-0.40078497 -3.7108204 1.399454 0
1.3282804 -3.7380865 0.39291239 0
-1.4671435 -3.6986308 -0.25235945 0
1.0718458 -3.7348788 0.89327508 0
1.3994675 -3.7264116 0.22690505 0
1.1229888 -3.721719 0.88724768 0
0.78897554 -3.7381773 1.1426396 0
-0.94909167 -3.7008994 1.1426516 0
1.2504203 -3.7385845 0.60228443 0
0.83529985 -3.7300401 1.1387432 0
-1.1811618 -3.7075148 0.87650251 0
0.026563052 -3.7026682 1.483448 0
-1.4763021 -3.7055078 0.069197565 0
-1.4711163 -3.7016139 0.22971086 0
-0.55831337 -3.7115879 1.354298 0
0.88759577 -3.7229266 1.1309639 0
1.3426664 -3.7298722 0.46205628 0
-0.83729368 -3.7034166 1.2297845 0
1.3827775 -3.740943 -0.15060902 0
-0.50779003 -3.7030466 1.4003253 0
-1.0758321 -3.7091029 1.0085483 0
-1.3725562 -3.7082934 0.54596651 0
1.0297405 -3.7241755 1.0042305 0
1.2978721 -3.7332501 0.56549668 0
-1.3708613 -3.7069824 -0.56619519 0
1.342065 -3.7318375 -0.46981412 0
1.1293601 -3.7290039 0.87662262 0
1.262554 -3.7188003 0.72620583 0
1.429136 -3.7292337 -0.044213861 0
0.56596726 -3.728987 1.3160831 0
1.256978 -3.7581911 0.50877106 0
1.2534822 -3.7339139 0.67047763 0
1.3830982 -3.7398381 0.25899082 0
-0.51858139 -3.7215378 1.3596779 0
1.4291151 -3.72931 -0.14683941 0
-1.4179689 -3.7018874 0.50867748 0
1.2485702 -3.7330527 0.69428879 0
1.1201439 -3.7302144 0.89927328 0
1.3651534 -3.7229965 0.50859159 0
-0.9801569 -3.7089639 1.1270986 0
-1.2574949 -3.6991241 0.85143322 0
1.3847268 -3.734231 -0.35965323 0
0.60917115 -3.7422793 1.2723672 0
-0.80603004 -3.7122247 1.2510766 0
-1.4687905 -3.6998675 0.38963839 0
1.0118916 -3.7229564 1.0557435 0
1.4278419 -3.7339396 0.15838419 0
1.2086227 -3.734633 0.77750933 0
-1.0658846 -3.7105062 1.0559214 0
-0.60417461 -3.7139413 1.3668623 0
0.9781816 -3.7301195 1.0755376 0
1.4260604 -3.7404177 0.056508124 0
1.0759904 -3.7245874 1.0002588 0
0.89973861 -3.729979 1.1441743 0
0.1333324 -3.716105 1.4864123 0
-1.4710526 -3.701566 -0.41609597 0
0.78699452 -3.728791 1.2314274 0
1.328564 -3.7365496 0.55945826 0
-0.29312372 -3.7075562 1.4865308 0
-0.7279247 -3.7117016 1.3175895 0
-0.63703895 -3.7104297 1.3690759 0
0.076868057 -3.7166784 1.4927168 0
0.67480129 -3.7227788 1.3177352 0
-1.2994784 -3.7076209 0.78592217 0
-0.0038733482 -3.7159965 1.5003948 0
1.4296052 -3.7275274 -0.35534525 0
0.39347589 -3.7107174 1.4631618 0
0.83884192 -3.7136919 1.2536917 0
0.93165493 -3.7319844 1.1282139 0
-0.88181186 -3.7017245 1.2624017 0
0.31396723 -3.7167313 1.4711889 0
1.2472936 -3.7292361 0.78592223 0
1.2971656 -3.7354455 0.6689769 0
1.3402708 -3.7377007 0.56475729 0
-1.3634291 -3.7012336 -0.72844362 0
-1.3678634 -3.7046635 0.70360023 0
-0.18695946 -3.7206631 1.487705 0
1.2545176 -3.7308474 0.77456808 0
-1.1818969 -3.7098224 0.96729523 0
1.1631237 -3.735791 0.88704789 0
0.76056564 -3.7319553 1.2614422 0
1.4257435 -3.7415707 0.25916424 0
-1.171154 -3.7018988 1.0146191 0
1.4252898 -3.7432206 -0.25340092 0
1.3877759 -3.7237334 0.56239843 0
0.45739788 -3.7325463 1.4040685 0
-0.61762071 -3.7098572 1.4041424 0
1.3827789 -3.7409377 0.46201128 0
-0.087933779 -3.7199056 1.5096022 0
-1.4147625 -3.6935165 0.6938498 0
-0.40057591 -3.7088845 1.4886651 0
-0.080263533 -3.7297642 1.488698 0
-1.4209877 -3.7097688 0.60086673 0
1.1713151 -3.7136421 0.98997217 0
1.1207973 -3.7273939 0.99706584 0
0.23118782 -3.7279322 1.480847 0
-0.83692563 -3.7017887 1.3193908 0
0.15137267 -3.7293103 1.4883887 0
1.3958497 -3.7477214 0.39287227 0
1.3818057 -3.7442882 -0.46996796 0
0.78392988 -3.7142708 1.3195143 0
0.24081914 -3.725292 1.4891577 0
1.4260459 -3.7404709 0.36021587 0
1.4695194 -3.7378507 0.15875024 0
1.3682367 -3.731405 0.60078549 0
0.9786557 -3.7335892 1.123487 0
-1.2976197 -3.7023177 0.8772487 0
-1.470396 -3.7010729 0.54981542 0
1.1310675 -3.7346418 0.96769702 0
1.0494204 -3.7301261 1.0727811 0
1.4704797 -3.7341523 -0.24942952 0
1.4289278 -3.729991 -0.4628464 0
-0.25185227 -3.7121766 1.5251079 0
1.4683101 -3.7425079 -0.14725569 0
-0.95124489 -3.7092955 1.2335776 0
-0.69716215 -3.7162421 1.3766527 0
-1.1780956 -3.7156651 1.0003693 0
-1.4701173 -3.7008638 -0.58081955 0
1.5166793 -3.7185268 0.25995257 0
-1.071877 -3.7076492 1.1404707 0
-0.71861601 -3.7097828 1.3847136 0
0.56589907 -3.7285378 1.4058392 0
1.1885294 -3.7390649 0.898516 0
1.466238 -3.750488 -0.045558661 0
1.0271646 -3.7303164 1.1175673 0
-1.1795993 -3.7026107 1.0576991 0
1.0126066 -3.7255871 1.1463959 0
-1.5839341 -3.7026749 0.064750925 0
-1.5770495 -3.6976578 -0.26313764 0
1.4263566 -3.7393408 0.46130943 0
1.3394537 -3.7403703 0.66799885 0
1.4650865 -3.7462656 0.2267466 0
1.467243 -3.7323596 0.3924078 0
1.465517 -3.7532651 0.056313694 0
1.5135282 -3.7314179 0.15964082 0
1.1223577 -3.7205603 1.068644 0
1.5145634 -3.7271829 -0.24602163 0
0.46338856 -3.727823 1.461149 0
1.2056923 -3.7429194 0.88553631 0
-0.50874901 -3.7100401 1.4913604 0
-0.33778214 -3.7125399 1.5345221 0
1.2962511 -3.7382877 0.77361768 0
1.4295976 -3.7275553 0.56172478 0
-1.0673399 -3.7155721 1.1468711 0
1.4668899 -3.7479777 0.25924167 0
1.4692321 -3.7389572 0.35999566 0
1.512301 -3.7364385 -0.14462075 0
0.90040922 -3.7327592 1.2348049 0
1.3967512 -3.7424109 0.5591374 0
0.34898019 -3.7317679 1.4919806 0
1.2542144 -3.7317455 0.88040239 0
-0.1775887 -3.7323024 1.5213833 0
-1.3614435 -3.6996977 0.86151642 0
-1.5913701 -3.7080936 -0.10001883 0
1.5104206 -3.744132 -0.043476075 0
-0.97442198 -3.7039781 1.2787811 0
1.4709524 -3.7323322 0.46035099 0
1.3425968 -3.7301002 0.77018207 0
0.9062587 -3.7306683 1.2533021 0
-0.79689431 -3.7038114 1.3989484 0
-1.5889931 -3.7063613 0.22800741 0
-0.78739834 -3.7115347 1.3852217 0
1.0730675 -3.7318449 1.1132697 0
-0.9891243 -3.7264788 1.2056272 0
1.5098636 -3.7464104 0.057843447 0
1.4704584 -3.7342348 -0.46107119 0
1.5361365 -3.7294209 0.22721878 0
1.3642486 -3.7205288 0.78592312 0
1.326798 -3.7461193 0.72749358 0
1.467024 -3.7474616 -0.35756046 0
1.3703973 -3.7372978 0.69325864 0
1.1302992 -3.7321048 1.0586463 0
1.5138917 -3.7299314 0.3596524 0
0.45679465 -3.7276237 1.4933856 0
-0.94876081 -3.6996093 1.3227801 0
-0.7290982 -3.7176852 1.4086781 0
1.251525 -3.7418873 0.87777317 0
1.4311285 -3.721988 0.66269124 0
-1.5808382 -3.7004187 0.39121649 0
1.2108626 -3.7282991 0.99004859 0
-1.264967 -3.7050767 1.0100152 0
1.3825171 -3.7418392 0.66666055 0
1.3329409 -3.7128308 0.89188939 0
1.4893124 -3.7271535 0.50521505 0
1.3883417 -3.7217851 0.7668494 0
1.2585294 -3.7389858 0.89676565 0
0.53619015 -3.7360556 1.4572191 0
1.5122232 -3.7367568 -0.35261369 0
-1.5431464 -3.7066889 0.50511825 0
1.5545585 -3.7358356 0.059645027 0
-1.4200872 -3.7074177 0.78592336 0
-1.4729364 -3.7029803 0.71082246 0
1.4717628 -3.7292109 0.56091207 0
1.5147305 -3.7264993 -0.4561621 0
0.67688411 -3.7342696 1.4097657 0
1.1927997 -3.7191379 1.0660082 0
0.61331832 -3.729996 1.4500802 0
1.5557313 -3.7307215 -0.24484658 0
-1.5393227 -3.6975043 0.5993526 0
1.4669749 -3.7340891 0.55811685 0
1.553457 -3.7406387 -0.041840702 0
-1.276983 -3.7063963 1.0227547 0
-1.4707499 -3.7013385 -0.74816501 0
-1.0789104 -3.7134893 1.2120194 0
-0.42986631 -3.7214472 1.5465989 0
1.2564762 -3.7250466 0.98589885 0
1.5134196 -3.7318623 0.4597832 0
1.0124102 -3.724864 1.2371641 0
1.3980256 -3.7349045 0.72544044 0
-0.72513747 -3.6974895 1.4957249 0
1.5531459 -3.7419958 -0.14398617 0
-1.1677902 -3.7072115 1.1547461 0
0.89864892 -3.7254615 1.3246062 0
1.2955346 -3.7405143 0.87950647 0
1.1169844 -3.7372668 1.1103033 0
0.56565636 -3.7269385 1.4960446 0
-1.1807102 -3.7060978 1.1490936 0
-1.3027514 -3.7169592 0.96939778 0
1.5525064 -3.7447836 0.15943003 0
-1.5762072 -3.6970439 0.55414802 0
1.488938 -3.7262163 0.59900093 0
-1.5904865 -3.7074497 -0.43185824 0
1.5559304 -3.7298529 0.35948193 0
-0.61934865 -3.7202365 1.4963872 0
-1.4170094 -3.6993823 0.87814254 0
1.5555227 -3.7316313 -0.34915811 0
1.553668 -3.7397184 0.25974143 0
0.68773448 -3.7295229 1.4445971 0
1.2507019 -3.7394264 0.96960247 0
-1.0677147 -3.7168767 1.2380055 0
-1.2965159 -3.6991684 1.0600656 0
0.78634536 -3.7257154 1.4118493 0
-0.84006953 -3.7156944 1.4121258 0
-0.88279271 -3.7123239 1.3954517 0
-1.5387875 -3.6962185 0.69272137 0
1.5962516 -3.7364953 0.060378537 0
1.1298206 -3.7305243 1.1498621 0
1.5958401 -3.7384157 -0.040447354 0
1.5963312 -3.7361238 -0.14159703 0
-0.51774716 -3.7201011 1.5563898 0
1.3404725 -3.7370415 0.87624639 0
0.9747436 -3.7433598 1.2522477 0
1.5971744 -3.7321889 -0.24338067 0
0.76187742 -3.727669 1.4390625 0
-1.6941881 -3.698705 0.060178146 0
1.4701493 -3.7354248 0.66304779 0
1.0498372 -3.7284205 1.2458644 0
-0.60066319 -3.7080872 1.5637304 0
1.5334723 -3.748389 0.3925156 0
1.5124424 -3.7358603 0.56060636 0
1.5954509 -3.740232 0.16015027 0
-1.5821593 -3.7013814 -0.59838855 0
1.3682781 -3.731518 0.87844527 0
0.83783746 -3.7171504 1.4317235 0
1.6036521 -3.7345636 0.22728536 0
-1.6959989 -3.6999853 -0.1070416 0
1.5546339 -3.735507 -0.4560464 0
-1.072192 -3.7079153 1.2965131 0
1.6394918 -3.7282109 -0.1389851 0
1.2971363 -3.7355368 0.98525983 0
-1.4689143 -3.6999605 0.87203139 0
-1.3642037 -3.7018325 1.0220615 0
1.5971432 -3.7323351 0.35936844 0
1.0106738 -3.7184756 1.3275676 0
-0.89535213 -3.7138407 1.4202888 0
1.2084837 -3.7350261 1.1012349 0
-0.16103339 -3.6996086 1.706179 0
-1.6968892 -3.7006147 0.2265359 0
-1.6941245 -3.6986601 -0.27488744 0
1.4726049 -3.7259679 0.76394916 0
1.4666228 -3.7363589 0.72460389 0
1.3841989 -3.7360482 0.87363225 0
1.6380222 -3.7355821 -0.039057612 0
-0.95048738 -3.7063417 1.4148881 0
-1.0650333 -3.7075424 1.3281446 0
1.1571602 -3.7519159 1.1101687 0
1.3992063 -3.7279503 0.8922981 0
0.67681295 -3.7338769 1.5007739 0
1.5346293 -3.7401512 0.55791283 0
1.6376195 -3.737602 0.061016768 0
1.638263 -3.7343745 0.16090535 0
-1.5392399 -3.6973054 0.78592432 0
0.23514664 -3.7184942 1.666209 0
-1.2614133 -3.7022455 1.1682919 0
1.5952289 -3.7412679 -0.34934515 0
-1.1806214 -3.7058189 1.240595 0
1.5934085 -3.7497625 0.25972047 0
1.5517247 -3.7481935 0.46015334 0
1.5975957 -3.7302232 -0.45217139 0
0.31341112 -3.7181122 1.6581409 0
-1.1796753 -3.7136805 1.2213047 0
0.15476537 -3.7215354 1.6754314 0
0.07511282 -3.7205484 1.6838663 0
1.6032975 -3.7373803 0.39216423 0
-1.3809295 -3.7053001 1.0303476 0
-1.6934853 -3.6982079 0.39279136 0
1.2585485 -3.7388904 1.0669627 0
1.6380128 -3.7356296 0.26011977 0
1.1201212 -3.7303126 1.2430735 0
1.5576222 -3.7224755 0.65895271 0
1.5111845 -3.7410064 0.66248095 0
1.4219526 -3.7553561 0.77051783 0
-0.97416258 -3.7037525 1.4343383 0
1.2527088 -3.7454267 1.0621346 0
-0.98047543 -3.7137697 1.4062555 0
1.3402987 -3.7376094 0.98273212 0
0.89988548 -3.730588 1.4167478 0
1.595786 -3.7386682 0.45916593 0
1.1298416 -3.7305934 1.2415997 0
1.5528814 -3.7431493 0.56041145 0
1.6803466 -3.730238 -0.037433535 0
0.38858402 -3.7233841 1.6520641 0
1.6366384 -3.7425232 -0.24379408 0
1.4276053 -3.7348001 0.87110347 0
-1.0632615 -3.6911881 1.411793 0
-1.4220681 -3.7125893 0.97112131 0
-0.0083968639 -3.7256024 1.6944836 0
-1.5858958 -3.7041044 0.71882623 0
1.2518077 -3.7388737 1.0984173 0
-1.6950417 -3.6993084 -0.44455934 0
1.6721982 -3.7295935 0.22751245 0
1.4971634 -3.7468011 0.69199795 0
1.6378417 -3.7364876 0.35929555 0
1.6375287 -3.7380571 -0.34664124 0
-0.089932442 -3.7239969 1.7035451 0
-1.6696118 -3.7070091 0.50158262 0
1.6796684 -3.7339132 -0.13867256 0
-0.84036016 -3.71698 1.5038019 0
-0.69737744 -3.7165897 1.5770289 0
1.4852362 -3.7169521 0.87910336 0
1.6794519 -3.7350867 0.1612756 0
-0.25153422 -3.71157 1.7201376 0
0.46440339 -3.7250793 1.6453056 0
1.6787424 -3.7389309 0.061580792 0
1.2476922 -3.730428 1.1531956 0
-1.5390464 -3.6968408 0.87914306 0
-1.6659966 -3.6989822 0.59694487 0
-0.33293891 -3.7036183 1.7285274 0
0.7877996 -3.7326057 1.5045636 0
1.4718119 -3.7290218 0.86779922 0
1.3292875 -3.7326286 1.0638766 0
-1.2733347 -3.7015011 1.2285292 0
1.3841631 -3.736172 0.9795199 0
-1.062945 -3.7002726 1.4187751 0
-1.3024893 -3.7162116 1.1535976 0
0.54055178 -3.7237227 1.6380233 0
1.619555 -3.7381461 0.50100565 0
1.3731192 -3.7447207 0.97172296 0
1.6790478 -3.7372768 0.26022655 0
1.3444202 -3.7241414 1.0870576 0
1.495497 -3.742631 0.78592503 0
1.5949482 -3.7425778 0.55956572 0
1.2954991 -3.7406249 1.0951974 0
-0.78446484 -3.7069471 1.5858549 0
1.6373281 -3.7390633 0.45874524 0
1.7215316 -3.7293932 -0.036449283 0
-1.1724532 -3.7110364 1.3147653 0
1.5107869 -3.7426331 0.76503074 0
0.90298223 -3.7425835 1.4332823 0
-1.4198945 -3.7069147 1.0635467 0
-1.2955315 -3.6963596 1.2438084 0
-1.4111768 -3.6841555 1.1542814 0
-1.5936356 -3.7097447 -0.77212775 0
1.6775737 -3.745265 -0.24281758 0
-1.1806022 -3.7057586 1.3326145 0
1.6361837 -3.7448032 -0.45390296 0
1.6713631 -3.7370918 0.39201927 0
1.6021509 -3.7464874 0.5577749 0
1.1888883 -3.7373898 1.2415218 0
0.97748804 -3.7327907 1.426656 0
1.128329 -3.7255993 1.3330978 0
1.466089 -3.7398016 0.89241791 0
-0.9515667 -3.7105505 1.5075378 0
-1.4720273 -3.7022979 1.0356891 0
-1.6966126 -3.7004192 -0.61635303 0
1.01367 -3.7294996 1.421222 0
-1.8124433 -3.6971772 0.055137932 0
-1.6670644 -3.7013531 0.69142604 0
1.6776584 -3.7448056 -0.34642488 0
1.5540644 -3.7379901 0.76273525 0
1.5326368 -3.7543375 0.72531569 0
1.5954063 -3.7404401 0.66010159 0
1.720633 -3.7346861 0.26039767 0
1.7193521 -3.7422309 -0.13887343 0
-1.7075627 -3.7081614 0.56008029 0
1.7189281 -3.7447283 0.061694652 0
0.61221778 -3.7332561 1.6341647 0
-1.2524786 -3.6951277 1.3268243 0
-1.8143563 -3.6984892 -0.1154646 0
1.6789562 -3.7377732 -0.44989252 0
1.4255441 -3.7422955 0.97828132 0
1.7216382 -3.728766 0.35889754 0
-1.0704653 -3.7064569 1.454405 0
0.89980847 -3.7302685 1.5087883 0
-1.3683569 -3.7050452 1.1849797 0
1.739674 -3.7319496 0.22759354 0
-0.42527556 -3.7132723 1.7427518 0
-1.8126945 -3.6973495 0.22490962 0
-1.6625156 -3.6912534 0.78592557 0
1.6222502 -3.7443669 0.59583521 0
1.6764531 -3.7513371 0.35942304 0
1.636101 -3.745218 0.55906266 0
1.3724219 -3.7428186 1.0647331 0
-1.5412155 -3.7020509 0.97272611 0
1.5113041 -3.7405171 0.86808991 0
1.6391449 -3.7299507 0.65775251 0
-1.489929 -3.7077124 1.0388076 0
1.7404883 -3.7235477 0.39165914 0
1.3976214 -3.7372854 1.0627151 0
1.720041 -3.7381735 -0.34321034 0
1.7177777 -3.7515047 0.1607787 0
1.2597127 -3.7330511 1.2379076 0
1.7183735 -3.7479954 -0.24195677 0
-1.1677666 -3.6972148 1.4245341 0
1.6772363 -3.7470927 0.45876426 0
1.2493174 -3.735287 1.2463639 0
-1.5916533 -3.7083001 0.88475639 0
1.7610216 -3.7380354 0.062863052 0
1.3832948 -3.7391615 1.0879374 0
1.0479287 -3.7362287 1.4234512 0
-0.88046765 -3.7088001 1.5982876 0
0.68541384 -3.7367356 1.6289093 0
1.6027105 -3.7420428 0.72344011 0
1.6206318 -3.7406316 0.69102693 0
1.4911627 -3.7317839 0.97312814 0
-1.8196621 -3.7021279 -0.28778034 0
-1.6866181 -3.6933525 -0.78736007 0
1.7618107 -3.7329473 0.26054287 0
1.5351989 -3.7360966 0.89072746 0
1.4683782 -3.7422459 0.97571647 0
0.76141846 -3.7291687 1.6208758 0
1.6786146 -3.7396235 0.55788082 0
-1.3766229 -3.6996911 1.2381704 0
1.7605103 -3.7413318 -0.13768774 0
1.7601154 -3.7438788 -0.037445396 0
1.7628901 -3.725987 0.35873419 0
1.7605872 -3.7408357 0.16169032 0
1.5546162 -3.7355835 0.8652162 0
1.5952208 -3.7413058 0.76183641 0
-0.51367974 -3.7130949 1.7544568 0
1.4282465 -3.7324686 1.082935 0
-1.1802808 -3.7047501 1.4250717 0
1.3690679 -3.7336719 1.1572316 0
1.6167016 -3.7315602 0.7859261 0
1.7193464 -3.7422647 -0.44918984 0
-1.7961603 -3.7006383 0.49823728 0
-1.0651132 -3.7078204 1.5126531 0
1.6697167 -3.7518733 0.55763805 0
1.0120037 -3.7233686 1.5127807 0
1.3302135 -3.7276113 1.2342858 0
1.7597489 -3.7462418 -0.24033087 0
0.91111994 -3.712991 1.6055233 0
1.8036525 -3.7248268 0.26078987 0
1.8028058 -3.7308552 0.16253121 0
1.4731357 -3.7239237 1.0776167 0
-1.8227878 -3.7042716 0.39470404 0
-1.4146941 -3.6933377 1.248274 0
-1.7085416 -3.7088537 0.72778559 0
1.7605227 -3.7412517 -0.34241349 0
1.7182916 -3.7484777 0.45846039 0
1.1294035 -3.7291472 1.4264205 0
1.1190462 -3.7350008 1.4193909 0
1.8018856 -3.7374065 0.063440099 0
1.7624547 -3.7287939 0.45707107 0
1.7620536 -3.7313807 -0.44447643 0
1.8016281 -3.7392395 -0.036136776 0
1.8019669 -3.7368276 -0.13602215 0
-0.60107255 -3.7087696 1.7653602 0
1.510854 -3.7423584 0.97334504 0
1.8038129 -3.7236853 0.35859004 0
-1.8221617 -3.7038422 -0.46149254 0
1.636934 -3.7410395 0.76045698 0
1.5959685 -3.7378168 0.86389941 0
1.8019907 -3.7366581 -0.2372877 0
-1.6676601 -3.7026758 0.88045967 0
1.6715769 -3.735172 0.7221334 0
0.83214366 -3.7367537 1.6174076 0
-1.5792704 -3.6992762 1.0490601 0
-1.5441313 -3.7090545 1.0669115 0
1.6041481 -3.730624 0.88894379 0
1.6773405 -3.7465286 0.6588676 0
-0.97572398 -3.7067883 1.6101444 0
-1.8149986 -3.6989295 0.56442446 0
-1.3023475 -3.715807 1.3393843 0
1.7185017 -3.7472403 0.55792832 0
-1.4723635 -3.7025504 1.2007656 0
1.7387853 -3.7411201 0.55670261 0
-1.6919684 -3.6971354 0.89396322 0
-1.7994804 -3.7074788 0.59395325 0
1.5537907 -3.7391837 0.97034705 0
1.8036036 -3.7251751 0.45656821 0
1.464427 -3.7505176 1.0630873 0
1.7519732 -3.7454128 0.4967404 0
1.7617217 -3.7335205 0.55613726 0
1.8071523 -3.732826 0.39171648 0
1.7202083 -3.7371881 0.65682006 0
1.6385441 -3.7329645 0.86129951 0
-1.1762795 -3.7141752 1.4775203 0
1.8058372 -3.74877 0.22740428 0
1.8424324 -3.7378521 0.06386973 0
1.6788144 -3.7385414 0.75881797 0
1.1891987 -3.7359412 1.4160959 0
-1.8150229 -3.6989462 -0.63507801 0
1.8421247 -3.7402961 -0.035609007 0
1.6202177 -3.7396758 0.88080168 0
0.98005533 -3.7229035 1.6033192 0
1.8006295 -3.7463496 -0.3422243 0
1.2528604 -3.7458801 1.3411301 0
1.74964 -3.7404251 0.59356678 0
1.8019588 -3.7368855 -0.44437259 0
-1.2968564 -3.70014 1.4304328 0
1.8417919 -3.7429397 -0.13614914 0
1.370909 -3.7386928 1.251443 0
1.8418661 -3.7423503 0.16220425 0
-1.6013136 -3.7099035 1.0475774 0
-1.6668255 -3.7008228 0.97500134 0
1.4979225 -3.7487013 1.0682588 0
-1.3703721 -3.706604 1.3498701 0
-1.7984203 -3.7052946 0.69004887 0
-1.9345598 -3.6948943 0.22317073 0
-1.4834204 -3.6994822 1.2485416 0
1.8419747 -3.7414875 0.2605899 0
1.5958157 -3.7385297 0.96809864 0
1.8427494 -3.7353344 -0.3384198 0
1.7210724 -3.7320983 0.75664562 0
-1.9425225 -3.7001891 0.049399883 0
-1.2793541 -3.7095778 1.4393085 0
-0.6977036 -3.7171161 1.7807474 0
1.2606323 -3.7284391 1.4110593 0
1.6801832 -3.7311239 0.85942239 0
-1.942873 -3.7004223 -0.12487742 0
-1.1825591 -3.7119009 1.5198035 0
1.8412149 -3.7475233 -0.23837477 0
1.5096235 -3.7473924 1.0813253 0
1.883167 -3.7354167 -0.13419387 0
1.5548905 -3.7343879 1.0751387 0
-0.78154635 -3.7023828 1.7893735 0
1.8827629 -3.7390454 -0.034868687 0
1.6390325 -3.730515 0.96426576 0
1.8826692 -3.7398858 0.064107746 0
1.8068299 -3.7367342 0.55615509 0
1.248623 -3.7332108 1.4330076 0
1.8834519 -3.7328587 0.26082474 0
-1.8187594 -3.701509 0.73533177 0
1.6713539 -3.7371733 0.88877028 0
1.050175 -3.7270391 1.599802 0
1.3951013 -3.7521293 1.2367785 0
1.8425491 -3.7369254 -0.44294745 0
-1.5472564 -3.7165611 1.1618087 0
1.8012323 -3.7420571 0.55637079 0
-1.4196781 -3.7063496 1.3438153 0
-1.0764229 -3.7099445 1.6239612 0
1.7516659 -3.7447562 0.68968821 0
-1.7981235 -3.7046831 0.78592753 0
1.8738008 -3.7439196 0.22757776 0
1.882755 -3.739116 -0.23580068 0
1.4674019 -3.7313354 1.2305357 0
-1.9468331 -3.7030556 -0.30078465 0
1.7380126 -3.7490938 0.7227428 0
1.8405478 -3.7528217 0.35900953 0
1.6220403 -3.7438824 0.97599369 0
1.7587402 -3.7527456 0.65794718 0
1.5977411 -3.7295449 1.0713855 0
1.5318919 -3.7596405 1.0629548 0
1.6133236 -3.7237632 1.0697513 0
1.1336533 -3.7431796 1.5226974 0
1.8831165 -3.7358704 -0.33744478 0
-1.9268206 -3.6960082 0.49442002 0
-1.9427514 -3.7003415 0.39640102 0
-1.2717986 -3.7105188 1.4968088 0
1.6812977 -3.7250843 0.96119505 0
-1.2945807 -3.6936467 1.5232368 0
1.8813505 -3.7517257 0.1619601 0
1.369972 -3.7361376 1.345284 0
-1.5408394 -3.7011473 1.2545958 0
1.8018091 -3.7379513 0.65537703 0
1.9235307 -3.7347519 0.064924777 0
-1.9383688 -3.697427 -0.47617728 0
1.6033123 -3.7372639 1.0579484 0
-1.6923444 -3.6974015 1.0634362 0
1.7406478 -3.7219012 0.88602388 0
1.840693 -3.7516685 0.45768797 0
-1.6590585 -3.6835778 1.1631333 0
1.4992055 -3.7519119 1.1631707 0
1.7198911 -3.7390563 0.8595944 0
1.88238 -3.7424831 0.35874432 0
1.7501129 -3.7414362 0.78592789 0
1.7602863 -3.7427759 0.75731921 0
1.8832583 -3.7345967 -0.44104284 0
-1.7958547 -3.7000089 0.88166946 0
1.9231315 -3.7388709 -0.13408238 0
1.9228628 -3.7416434 -0.034675986 0
1.8735874 -3.7470543 0.39187711 0
1.3286822 -3.7359087 1.4097915 0
1.8032799 -3.7274804 0.75392723 0
-1.67164 -3.7115123 1.0706162 0
-1.9345031 -3.6948566 0.56949544 0
1.8794272 -3.7348142 0.493516 0
-1.3801608 -3.7042987 1.4503121 0
-1.1699321 -3.7002089 1.6346571 0
-1.4715493 -3.7019389 1.3677958 0
1.9227722 -3.742579 -0.23566449 0
1.806656 -3.7388432 0.72131306 0
1.882291 -3.7432816 0.45699465 0
-1.811234 -3.696348 0.90592557 0
1.8429097 -3.734061 0.65423739 0
1.9234343 -3.7357466 -0.33645225 0
1.7467079 -3.7341568 0.88189518 0
-1.5920296 -3.7085743 1.2201626 0
-1.9300305 -3.7021654 0.59144199 0
1.840552 -3.752789 0.55684745 0
1.2468218 -3.7278254 1.5264139 0
1.7218431 -3.7275584 0.96012467 0
-1.4179921 -3.7019479 1.437569 0
-1.9232624 -3.6891828 0.68907863 0
1.5358543 -3.7314293 1.2286087 0
1.9224025 -3.7463932 0.2606602 0
1.9637334 -3.734453 0.065265045 0
1.9216809 -3.7538393 0.16206886 0
1.9414032 -3.7407496 0.22770473 0
-1.9353509 -3.6954203 -0.65407825 0
-1.7937119 -3.6955941 0.97728676 0
-1.5950055 -3.7021573 1.2599337 0
1.9226985 -3.7433391 0.35868627 0
1.9419677 -3.7302382 0.39151156 0
1.4961853 -3.7443535 1.2573016 0
1.3673064 -3.7288678 1.4387884 0
-0.88425612 -3.7145422 1.8070979 0
1.7602117 -3.7432573 0.85914385 0
-1.5388497 -3.696368 1.3487295 0
1.9235519 -3.7345331 0.45631462 0
1.7418296 -3.7237279 0.97743028 0
1.1159884 -3.7483356 1.6012902 0
1.8823156 -3.7430611 0.55557179 0
1.6804779 -3.7295265 1.0670456 0
1.8733865 -3.750005 0.55658674 0
-1.9284906 -3.6908588 0.74276638 0
2.0044658 -3.7248554 -0.031797707 0
1.8761113 -3.7282245 0.68877047 0
1.8430704 -3.7327847 0.75392807 0
1.6709411 -3.7408803 1.0572553 0
1.9625492 -3.7488103 -0.035117149 0
1.9626726 -3.7473142 -0.13485491 0
1.9225628 -3.7447391 -0.44265509 0
-1.3703768 -3.7066076 1.516939 0
-2.0600429 -3.6913612 0.22137193 0
1.8832897 -3.7343147 0.65368426 0
1.8846358 -3.7451649 0.59062374 0
-2.0662889 -3.6953869 0.044110835 0
1.397006 -3.7409103 1.4081769 0
1.1886466 -3.738518 1.5945061 0
1.9625 -3.7494071 0.16249132 0
1.9628031 -3.7457314 -0.23557973 0
1.8019986 -3.7366021 0.85667676 0
1.96286 -3.7450421 0.26074678 0
1.4899389 -3.7287211 1.3503439 0
1.6329551 -3.7609968 1.0777274 0
-1.2687824 -3.6953928 1.6472675 0
1.9630804 -3.7423692 0.35860643 0
2.0037858 -3.7348416 0.16341496 0
-1.927672 -3.6976414 0.78592902 0
1.2607176 -3.7280109 1.5878377 0
-0.97639322 -3.7077715 1.8193346 0
1.9625901 -3.7483144 -0.33853459 0
1.6037502 -3.7337849 1.2273204 0
1.7401786 -3.726742 1.0538921 0
2.0033293 -3.741549 -0.13346091 0
2.0031743 -3.7438247 0.06470646 0
1.9632316 -3.7405367 0.45644224 0
-2.0700722 -3.6978252 -0.31309325 0
1.4671385 -3.7330339 1.4037862 0
1.873594 -3.7469571 0.72158134 0
-1.8080831 -3.6941872 1.0781887 0
1.7593061 -3.7490969 0.96364641 0
-2.081778 -3.7053699 -0.13528228 0
1.9217637 -3.752986 0.55607796 0
2.0038183 -3.7343659 0.35841376 0
-1.6956437 -3.699734 1.2355224 0
-1.5376594 -3.6935091 1.4435816 0
2.0085955 -3.7430456 0.22771922 0
1.6266561 -3.7545362 1.1679726 0
-1.6691208 -3.7059188 1.2610716 0
-1.4199681 -3.7071068 1.5337518 0
2.0030093 -3.7462463 0.26077843 0
2.0041118 -3.7300572 -0.43693763 0
-2.0615289 -3.6920025 0.49019325 0
1.9623266 -3.7515087 -0.44350994 0
-1.7988122 -3.7061021 1.0740436 0
1.9409992 -3.7482679 0.55628049 0
-2.0711532 -3.6985219 0.39825881 0
2.0027585 -3.7499318 -0.23581088 0
1.9634485 -3.7379072 0.55443823 0
1.8821133 -3.7448771 0.75510156 0
1.8417807 -3.7430289 0.85689425 0
-1.5832543 -3.7021794 1.3885622 0
-1.4622483 -3.6949549 1.5346258 0
-1.492666 -3.7111733 1.4648083 0
1.805323 -3.7550042 0.88936281 0
1.3306768 -3.7251008 1.5835381 0
2.0435526 -3.7393048 0.065315932 0
1.5372465 -3.7215183 1.39879 0
1.8834188 -3.7427464 0.78592962 0
1.8011022 -3.7429845 0.96083981 0
1.7174759 -3.7532818 1.0715841 0
-2.0683904 -3.6967416 -0.49334764 0
1.3701196 -3.7365401 1.5356481 0
1.7492784 -3.7396522 1.0746719 0
2.0436308 -3.7378504 -0.23298377 0
2.043231 -3.745291 -0.034012973 0
-1.9317303 -3.6930127 0.91795772 0
2.0433192 -3.7436519 0.16308002 0
1.9418069 -3.7332327 0.72002 0
1.9214983 -3.7557235 0.65581292 0
2.0144293 -3.7324233 0.48930079 0
-1.9311298 -3.7042739 0.88317573 0
2.043829 -3.7341633 -0.33400059 0
2.0431335 -3.7471077 -0.13395649 0
-1.663182 -3.6927333 1.3552103 0
1.9635985 -3.7360885 0.65294981 0
2.002244 -3.7574868 -0.33995908 0
-2.0632844 -3.6951463 0.58878285 0
1.6229596 -3.7460043 1.2631779 0
1.874281 -3.7368667 0.88650644 0
2.0082302 -3.7523272 0.39184293 0
2.0028481 -3.7486162 0.45670861 0
2.0431969 -3.7459276 0.26082662 0
-1.7956141 -3.699513 1.169886 0
1.8804902 -3.7369266 0.88331497 0
1.6710613 -3.7398016 1.2269405 0
-1.924239 -3.6910563 0.97983295 0
1.842388 -3.7382045 0.95848769 0
-1.7113049 -3.7072232 1.2722857 0
1.9224844 -3.7455485 0.75454497 0
1.4939599 -3.7387841 1.4477603 0
1.8819916 -3.7459702 0.85654128 0
2.0837402 -3.7347741 -0.13170603 0
2.0088174 -3.7374094 0.55554676 0
2.0033703 -3.7409449 0.55444103 0
-2.073791 -3.7002223 0.57575691 0
2.0835814 -3.7388034 0.065522596 0
1.8069333 -3.735481 1.0543263 0
2.0835159 -3.7404711 -0.03319177 0
1.758194 -3.7562678 1.0706247 0
1.9637669 -3.7340457 0.75214624 0
-1.3786576 -3.7023408 1.663851 0
1.8013217 -3.7414215 1.0649999 0
2.0038657 -3.7336683 0.65228236 0
2.0833826 -3.7438557 0.16316698 0
1.3985918 -3.73157 1.5820708 0
2.0835195 -3.7403772 -0.23311388 0
-1.0834949 -3.7200234 1.8383509 0
-2.0684061 -3.6967516 -0.67585909 0
1.9231937 -3.738229 0.85421503 0
1.7487569 -3.7385373 1.1712936 0
2.0426581 -3.7559569 0.35874873 0
2.019037 -3.7409608 0.58790457 0
1.6045673 -3.7272942 1.3980602 0
2.0833607 -3.7444108 0.26088566 0
-2.0575621 -3.6848986 0.78593045 0
2.0430858 -3.7479954 0.45654798 0
-2.1891341 -3.6865869 0.21951383 0
1.6190554 -3.7369931 1.3583953 0
2.0835569 -3.7394249 -0.33478761 0
-2.1960034 -3.6908762 0.038497031 0
1.8431984 -3.7317677 1.0609546 0
-1.5969992 -3.7046053 1.476506 0
2.0427835 -3.7536237 -0.4426108 0
2.1236873 -3.7328529 -0.13119823 0
-2.0634398 -3.6935508 0.75277352 0
2.0090866 -3.7305739 0.71951389 0
-2.0684433 -3.7043855 0.68716419 0
2.0434685 -3.7408733 0.55422151 0
1.8822031 -3.7440708 0.95874971 0
-1.5425538 -3.7052653 1.5420005 0
-1.1710711 -3.7017839 1.8479865 0
-1.9250805 -3.6926703 1.0771757 0
-2.2015257 -3.6943245 -0.14361122 0
-1.8117294 -3.6966875 1.2537017 0
-1.692821 -3.6977384 1.408514 0
1.7387729 -3.7412479 1.2258568 0
2.1233923 -3.744627 -0.033544153 0
2.1235611 -3.7378938 -0.23238087 0
-1.9285402 -3.6908915 1.0937078 0
2.123337 -3.7468369 0.064932093 0
2.0437772 -3.7351253 0.65216303 0
-1.7976975 -3.7038057 1.2672186 0
2.0833457 -3.7447915 -0.43974131 0
1.7444679 -3.729368 1.2672393 0
2.020124 -3.7429745 0.68691832 0
2.0829511 -3.7548139 0.3586961 0
2.0034168 -3.7402616 0.75265658 0
1.941239 -3.7438037 0.88685685 0
2.1234698 -3.7415376 0.26095831 0
1.9631922 -3.7410145 0.85405976 0
-1.6666921 -3.7005267 1.4530748 0
1.8869212 -3.749706 0.98147309 0
1.8837191 -3.7304595 1.0593274 0
-2.2002258 -3.6935129 -0.32630426 0
1.4940268 -3.7389514 1.5444238 0
2.1236026 -3.736232 0.35834906 0
2.0759349 -3.7390764 0.55552083 0
2.1232221 -3.75142 0.16283797 0
2.083112 -3.7507246 0.4565933 0
1.8780141 -3.7320061 1.0781239 0
1.9224709 -3.7456875 0.95815802 0
1.4656963 -3.7423337 1.5820348 0
1.6171846 -3.7326748 1.4546202 0
-1.7907281 -3.6894464 1.3623903 0
-1.5858274 -3.7040546 1.5626973 0
2.1235962 -3.7364922 0.45577949 0
1.8734491 -3.7490847 1.055684 0
1.6717746 -3.7333972 1.3976315 0
-2.2051291 -3.6965744 0.40021533 0
2.1634598 -3.7394187 0.16350457 0
-1.8243132 -3.7050321 1.2836192 0
2.1635568 -3.7303784 -0.33223689 0
2.1231785 -3.7531705 -0.3376649 0
2.163461 -3.7393186 -0.23251903 0
2.163404 -3.744616 -0.13294849 0
-2.2034814 -3.6931765 0.48515975 0
2.1633663 -3.7481232 0.064882219 0
2.076169 -3.7297313 0.71925128 0
2.0033324 -3.7415032 0.85356873 0
-1.699785 -3.6934831 1.4875664 0
2.009038 -3.7318108 0.8849988 0
2.0829396 -3.7551024 0.55530453 0
2.2033436 -3.7280161 -0.031399131 0
-1.660943 -3.687762 1.5478425 0
1.8064063 -3.7418702 1.2248029 0
2.043247 -3.744993 0.75302106 0
2.1633115 -3.7532394 -0.034513831 0
-1.488833 -3.7063267 1.6802117 0
-1.9280449 -3.6983566 1.17535 0
-2.0683675 -3.7042499 0.88469458 0
2.1231961 -3.752461 -0.44145155 0
1.5354657 -3.7341969 1.5771452 0
2.1633699 -3.7477906 0.26086167 0
-2.2058721 -3.6970384 -0.51176012 0
2.1635375 -3.7321815 -0.43582505 0
1.9627043 -3.7469289 0.95761371 0
2.0268519 -3.7554405 0.78593183 0
1.9416544 -3.7360704 1.0529697 0
1.9226694 -3.7436397 1.0617591 0
-2.2037647 -3.6936512 0.58557284 0
2.0186229 -3.7401934 0.88487101 0
2.0830047 -3.7534478 0.65418637 0
-2.0730615 -3.6997521 0.93292993 0
2.2033627 -3.7333059 0.26111698 0
-2.206274 -3.6972895 0.58153754 0
2.0836267 -3.7376521 0.75156224 0
2.1232519 -3.7502379 0.55476558 0
-2.063761 -3.6960001 0.98312485 0
2.1633143 -3.7529643 0.35862869 0
2.1235893 -3.7367642 0.65197849 0
2.0433772 -3.7425723 0.85330302 0
2.2034204 -3.7494588 0.064777896 0
2.1430104 -3.7446291 0.55574888 0
1.7502166 -3.7416577 1.3665669 0
2.2430778 -3.726259 -0.13008595 0
2.2034225 -3.750073 -0.13379017 0
1.7391758 -3.7370899 1.3968678 0
-1.2840559 -3.7158864 1.86895 0
1.874418 -3.7348549 1.2224506 0
2.1633222 -3.7522309 0.45656693 0
2.2034225 -3.7500403 -0.23457533 0
1.8851312 -3.7461491 1.1774955 0
-1.8095169 -3.6951704 1.4302846 0
2.2034395 -3.7547402 0.16270909 0
2.00283 -3.7488813 0.95736778 0
2.2432456 -3.7356343 -0.032387108 0
-2.2050114 -3.6957409 0.68575042 0
-1.7928358 -3.693789 1.4608594 0
2.0838447 -3.7321167 0.85090703 0
2.1431897 -3.7279308 0.7189889 0
-1.928544 -3.6993139 1.2736275 0
1.962592 -3.748291 1.0620449 0
2.167794 -3.7547219 0.48271197 0
-2.3331738 -3.6872735 0.032471031 0
2.2433658 -3.7423439 0.065362841 0
2.1635246 -3.7333846 0.65147585 0
1.6211214 -3.7417617 1.5541171 0
-2.2091885 -3.6991096 -0.69921255 0
2.2034366 -3.7539544 -0.33764702 0
-1.6942186 -3.6987264 1.5854591 0
-1.9334788 -3.6954052 1.2938628 0
2.0207155 -3.7440708 0.98412341 0
-1.940589 -3.6989033 1.274701 0
2.2433324 -3.7404876 -0.2328018 0
2.0759156 -3.7398479 0.88572073 0
-1.5920806 -3.6985652 1.6937335 0
2.2034032 -3.7446604 0.45616269 0
2.1648962 -3.7497027 0.58423829 0
2.0088913 -3.7355325 1.0523895 0
2.2034471 -3.7568984 0.35869485 0
2.003634 -3.7370715 1.0582215 0
1.6019719 -3.7479112 1.5784355 0
-2.0649192 -3.6980743 1.0821559 0
-2.2064333 -3.6973889 0.76351744 0
-2.2040548 -3.6941378 0.78593278 0
2.2435036 -3.7500505 0.16293231 0
2.1232932 -3.7485878 0.75309116 0
1.7462728 -3.7332268 1.4634196 0
2.2034304 -3.7522099 -0.44115353 0
-2.0628872 -3.6931946 1.1117108 0
2.2829242 -3.7289138 -0.13066435 0
2.0430079 -3.7494473 0.95693433 0
2.1632001 -3.7636149 0.55587322 0
-1.379333 -3.7032206 1.8816457 0
2.2433474 -3.7413223 0.35843045 0
2.2434943 -3.7495306 0.26082629 0
2.2101779 -3.7372744 0.55535084 0
2.2828653 -3.7270846 0.26120076 0
2.2434256 -3.7456882 -0.33583778 0
-2.3462386 -3.695174 -0.15443718 0
2.1630802 -3.7465572 0.68522501 0
2.2833133 -3.7409899 -0.03316772 0
-2.3469114 -3.6955807 0.21708521 0
1.8853339 -3.746552 1.2762402 0
2.2832882 -3.7402177 0.16339527 0
1.9415895 -3.7372801 1.2221274 0
2.283181 -3.7368844 -0.23229563 0
-1.8186116 -3.6984265 1.5032647 0
-2.2022755 -3.6911557 0.88599098 0
2.2434454 -3.7468007 -0.43981928 0
2.1634028 -3.7447417 0.75236845 0
2.1232984 -3.7483759 0.85381901 0
2.2836354 -3.7509918 0.064518213 0
2.2831421 -3.7356758 0.35834932 0
-2.3499856 -3.6974397 -0.34222347 0
2.0229676 -3.7482438 1.0838203 0
-1.9300754 -3.7022514 1.3728061 0
1.6702104 -3.7474411 1.5761564 0
2.1431243 -3.7340119 0.88485658 0
2.0831213 -3.7504869 0.95674342 0
2.2833142 -3.741019 -0.3349908 0
-2.3466454 -3.69542 0.40230939 0
2.3228831 -3.7315652 0.06608142 0
-2.3460636 -3.687459 0.48027006 0
2.2034733 -3.7642062 0.55591238 0
2.2435837 -3.7545226 0.45670211 0
-2.335876 -3.6889076 -0.52862918 0
2.0430963 -3.7478011 1.0604484 0
-2.1970153 -3.6915081 0.94523948 0
-1.7957536 -3.6998003 1.5606602 0
2.2034254 -3.7508531 0.6536032 0
2.2101719 -3.7356379 0.71964228 0
-2.0672543 -3.7022562 1.1818464 0
2.2832375 -3.7386386 -0.43789989 0
2.2831898 -3.73716 0.45584443 0
2.0838315 -3.7324536 1.0558329 0
-2.1997898 -3.6869888 0.98593163 0
1.8043993 -3.7662036 1.4022173 0
1.8818102 -3.7395496 1.3743796 0
2.1686907 -3.7562747 0.78593379 0
2.2100847 -3.7112281 0.88202971 0
2.1233926 -3.744621 0.95509052 0
-2.057436 -3.6846726 1.2792797 0
2.2433293 -3.7403071 0.65236092 0
2.2436221 -3.7566707 0.55529082 0
-2.3475292 -3.6897621 0.58221525 0
2.3237467 -3.7501152 -0.034482688 0
2.1633518 -3.7494893 0.85389608 0
2.0757 -3.748451 1.0540938 0
-2.3429008 -3.6931555 0.58752471 0
2.3067927 -3.7432108 0.37539983 0
2.323674 -3.7485557 0.16287532 0
-1.7019477 -3.6960623 1.7094452 0
2.2034225 -3.7500727 0.75319016 0
-1.8073511 -3.6936848 1.6095641 0
2.1630411 -3.7464893 0.88664031 0
2.3235826 -3.7465956 0.26083246 0
2.2773745 -3.7429297 0.55568504 0
2.3443606 -3.735954 0.22786407 0
2.3237345 -3.749856 -0.23512536 0
1.7384279 -3.744808 1.5735613 0
2.3240433 -3.7564905 -0.13528508 0
2.3055041 -3.7411199 0.47859544 0
1.7518244 -3.745095 1.5648037 0
2.0230908 -3.7484717 1.183645 0
2.2432437 -3.7355244 0.75095367 0
1.8731434 -3.7535737 1.398118 0
2.3235857 -3.746659 0.35856867 0
-1.9405036 -3.6988468 1.4558215 0
2.2033861 -3.7398415 0.85199291 0
-1.9289095 -3.7000151 1.4718313 0
2.3633368 -3.7402189 0.065135524 0
2.2836137 -3.7503178 0.5548228 0
-2.3365483 -3.6893141 -0.71930802 0
2.3018482 -3.7351875 0.58155155 0
2.0083096 -3.7503102 1.2240546 0
-1.4911084 -3.709204 1.9013199 0
2.363301 -3.7396297 0.16323103 0
2.363513 -3.7431109 -0.033885837 0
-2.199343 -3.6862404 1.0861418 0
1.9420569 -3.7285783 1.3913909 0
2.3634818 -3.7425995 -0.13342318 0
2.3443882 -3.7368147 0.39155099 0
-2.0572019 -3.6989305 1.3073969 0
2.2833238 -3.7413213 0.65260845 0
-2.3502345 -3.6940143 0.68401301 0
2.1636405 -3.7225966 1.0526567 0
2.3236909 -3.7489207 -0.4410795 0
2.3635364 -3.7434933 -0.23430544 0
2.3242211 -3.7603083 -0.3398124 0
2.1431007 -3.7362068 1.0519638 0
-2.0728803 -3.6996353 1.2962937 0
2.1233115 -3.7478552 1.059617 0
-2.3379703 -3.6901741 0.77299184 0
2.1625993 -3.7457242 0.98741531 0
2.1633029 -3.754034 0.9570986 0
2.3238776 -3.7529271 0.45675403 0
1.8815672 -3.7390668 1.4739972 0
1.8067737 -3.7374165 1.5699527 0
2.3634405 -3.7419214 0.3585234 0
2.2432656 -3.7367556 0.85147631 0
2.2774186 -3.7453997 0.72055942 0
2.3029606 -3.7369924 0.68374944 0
-2.4816575 -3.6864614 0.025805116 0
2.4030764 -3.7351539 0.16332345 0
2.3632338 -3.7385271 -0.43886691 0
-2.3486395 -3.6915076 0.78593493 0
-1.9388981 -3.7015059 1.5191185 0
2.0221355 -3.7467017 1.2836514 0
2.3644083 -3.7578106 0.26059875 0
2.3640599 -3.75209 -0.33841115 0
2.4037056 -3.7435122 -0.034270257 0
2.0758886 -3.740926 1.2218084 0
-2.2049956 -3.6964912 1.1309965 0
2.324034 -3.7562883 0.55548394 0
-2.1985626 -3.6849322 1.1865776 0
2.3636835 -3.7459104 0.45649874 0
2.4039211 -3.746377 -0.13445523 0
-2.064254 -3.6968832 1.3811024 0
2.2034268 -3.7512419 0.95642084 0
2.2836018 -3.7499499 0.75339794 0
2.3235612 -3.7461317 0.65339303 0
-2.4914088 -3.6921694 -0.16521788 0
2.3026531 -3.7364936 0.78593528 0
-2.4913158 -3.6921151 0.21494992 0
2.4046693 -3.7563138 0.063484967 0
2.4040883 -3.7485962 0.26071218 0
2.4042566 -3.7508309 -0.23626614 0
2.4037852 -3.74457 -0.33730209 0
1.8778324 -3.7316449 1.5728915 0
-1.931303 -3.7046063 1.5729504 0
2.1647727 -3.7494888 1.088734 0
2.4031801 -3.7365339 0.4561491 0
2.3639262 -3.7498939 0.55511248 0
2.2834213 -3.7443426 0.85314614 0
2.277334 -3.7406666 0.88573283 0
2.345242 -3.7633173 0.55684233 0
2.3631909 -3.7378213 0.65263522 0
2.0189281 -3.7407591 1.3834431 0
2.4439497 -3.7433925 -0.034661829 0
2.2033985 -3.7433183 1.058171 0
-2.3520994 -3.6969459 0.88793808 0
2.4125478 -3.7577498 0.22743708 0
2.2101941 -3.7418082 1.0528131 0
2.4428558 -3.7311976 -0.33496666 0
2.3236349 -3.7477129 0.7532934 0
-1.8218217 -3.7021458 1.7284474 0
2.404593 -3.7553 0.35880521 0
-2.3390055 -3.6908 0.96004802 0
2.3445425 -3.741606 0.7203747 0
-2.0583284 -3.6862707 1.4799495 0
2.4440565 -3.7445836 0.16265437 0
2.2435386 -3.7520041 0.95669615 0
-1.6024637 -3.7113154 1.9204365 0
-2.4956737 -3.6946657 0.40453824 0
2.1430895 -3.737263 1.2208626 0
2.0082858 -3.7509124 1.3958306 0
1.8732903 -3.7514174 1.5723557 0
2.4445591 -3.7501879 -0.1355859 0
2.4044039 -3.7527897 -0.44342929 0
2.4448237 -3.7531381 0.063473076 0
2.4115078 -3.7354062 0.55551732 0
2.2432454 -3.73562 1.0562229 0
2.3059468 -3.7418385 0.88825399 0
2.4126277 -3.7594631 0.3919929 0
-2.2008672 -3.6887946 1.2880838 0
-2.4939022 -3.6821651 0.57877058 0
2.4439781 -3.7437088 0.35866007 0
-2.5011821 -3.6929135 0.47399887 0
2.4040046 -3.7474847 0.55514044 0
-2.5092492 -3.7026119 -0.35935408 0
2.4450488 -3.7556465 -0.2378509 0
-2.0696869 -3.697577 1.4806139 0
2.4436138 -3.7396481 -0.44078344 0
1.9418663 -3.7321279 1.5660795 0
2.4836745 -3.7373273 -0.13415608 0
-1.9423299 -3.7000608 1.6404939 0
-2.4932303 -3.6932356 -0.55039835 0
2.4508421 -3.732794 0.47363189 0
2.4436414 -3.7399552 0.45650211 0
2.1651006 -3.7500565 1.1902412 0
2.4453735 -3.7592669 0.26046729 0
2.4578483 -3.7434647 0.36781046 0
-2.1824431 -3.7004721 1.3210658 0
-2.3542445 -3.7003174 0.99023807 0
2.4847686 -3.7478316 0.063598067 0
2.323961 -3.754719 0.85547167 0
2.4038928 -3.7459989 0.65397644 0
2.0758762 -3.7414205 1.3931379 0
-2.498323 -3.6962166 0.594607 0
2.2838786 -3.7585399 0.95843792 0
2.4850738 -3.7507632 0.16212465 0
2.443795 -3.741668 0.55491942 0
-2.2068701 -3.6976619 1.3180813 0
2.3644116 -3.7578664 0.75524569 0
2.4798434 -3.7531559 0.22745413 0
2.4831316 -3.7321136 -0.43979543 0
-2.3459949 -3.687351 1.0915917 0
2.0198886 -3.7425387 1.4850174 0
2.4842408 -3.7427638 -0.33854622 0
2.4840746 -3.7411675 0.35868344 0
2.4859989 -3.7596464 -0.03714636 0
2.2833061 -3.7407713 1.0578717 0
2.3635306 -3.7434027 0.85368776 0
2.4854939 -3.7547967 -0.23844486 0
2.5240507 -3.7372165 -0.034926355 0
-2.1986506 -3.6850798 1.3891137 0
2.2774751 -3.7485592 1.0539967 0
2.3235798 -3.746531 0.95602822 0
2.1613307 -3.7435267 1.2912631 0
2.4119201 -3.7442601 0.72083867 0
-2.0646753 -3.707104 1.5362953 0
2.4039392 -3.7466166 0.75389332 0
-1.7083993 -3.7037575 1.9369566 0
-2.4912152 -3.6920559 -0.74541807 0
2.4861906 -3.7614858 0.26036003 0
2.4799805 -3.7554076 0.39198527 0
2.4439197 -3.7430589 0.65402073 0
-2.3389745 -3.6907811 1.1486027 0
-2.5046368 -3.6980145 0.68196476 0
2.4598451 -3.746506 0.57715815 0
2.5250802 -3.7458951 -0.13623074 0
2.3451993 -3.7619903 0.88855898 0
2.5256341 -3.7505634 0.062964737 0
2.3148215 -3.7562392 0.99147207 0
-1.9347577 -3.6968453 1.744704 0
2.3230422 -3.7349834 1.056741 0
-2.498477 -3.6889198 0.78593719 0
-2.493011 -3.6931071 0.78478032 0
2.2102358 -3.753454 1.2239633 0
-2.3428707 -3.6824403 1.1934512 0
2.5257189 -3.7512796 0.16186194 0
-2.6312737 -3.6820891 0.019124061 0
2.5251935 -3.74685 0.26053858 0
2.5253813 -3.7484341 -0.23807389 0
2.5461223 -3.7352479 0.2276874 0
2.4855213 -3.7550595 0.45750177 0
2.4794817 -3.7472169 0.55632651 0
2.5250123 -3.745322 -0.34017515 0
2.4041188 -3.7490008 0.85530943 0
2.564147 -3.7339969 -0.23623079 0
2.5459874 -3.7334559 0.39168125 0
-2.6363711 -3.6849756 0.21281782 0
2.4441857 -3.7460256 0.75432408 0
2.0082378 -3.7521274 1.5706059 0
2.3640671 -3.7522068 0.95783818 0
2.3445196 -3.740895 1.0530491 0
-2.073226 -3.7129509 1.5870354 0
2.5249078 -3.7444425 0.45717722 0
-2.4966784 -3.686264 0.88957959 0
2.5654879 -3.744067 -0.13674286 0
2.0206866 -3.7440171 1.5874023 0
2.5659547 -3.7475719 -0.036830604 0
2.4648597 -3.7541437 0.68139213 0
-2.0589619 -3.6906648 1.665262 0
2.5265386 -3.7581885 0.35906076 0
2.403079 -3.7351913 0.95453072 0
2.5240607 -3.7373023 0.55526698 0
2.1428876 -3.7560656 1.3962418 0
2.3144534 -3.7556417 1.0944701 0
2.5259016 -3.7528179 -0.44657773 0
2.4849517 -3.7495899 0.65530491 0
2.1647048 -3.7493711 1.3944933 0
2.566715 -3.7532806 0.16148953 0
2.3634288 -3.7417288 1.0591264 0
-2.1964488 -3.6911542 1.5045319 0
2.4872253 -3.7714219 0.557877 0
-1.8123989 -3.6912282 1.952456 0
2.4125099 -3.7569358 0.88826406 0
2.4839447 -3.7399209 0.75396907 0
-2.3031907 -3.6937959 1.3335062 0
2.6043239 -3.7309127 0.16237625 0
2.2774782 -3.7487323 1.2231859 0
-2.6551514 -3.6956105 -0.17778331 0
2.5656731 -3.7454581 0.35892561 0
2.4620318 -3.7498364 0.78593808 0
2.5668077 -3.7539775 0.26032439 0
-2.6451807 -3.6899645 -0.37304372 0
-2.1743684 -3.691891 1.5486275 0
2.4798694 -3.7535813 0.72197199 0
-2.3448086 -3.6854863 1.2965856 0
2.5662355 -3.7496805 -0.3423624 0
-2.2061148 -3.6975901 1.4937112 0
2.5464754 -3.7399375 0.55618441 0
2.5684021 -3.7659497 0.061161757 0
2.4446995 -3.7517531 0.85649109 0
2.5243392 -3.7396491 0.65462714 0
-2.4956138 -3.6846921 0.99324614 0
-2.4928832 -3.6930323 0.97642565 0
-2.3329005 -3.687108 1.3378794 0
2.31073 -3.7495999 1.1971743 0
2.5644014 -3.735908 0.55558676 0
2.0756209 -3.7516124 1.5698866 0
-2.6526985 -3.6942215 0.40690973 0
2.6066897 -3.7469234 -0.13809863 0
2.5664237 -3.7510934 -0.44747555 0
2.6048396 -3.7344027 0.35882962 0
2.6071575 -3.7500889 -0.037840366 0
2.6075032 -3.752429 0.061857358 0
2.4438615 -3.7424097 0.95696563 0
2.2102246 -3.7503769 1.3948728 0
-2.6571152 -3.690515 0.46789375 0
-2.6374345 -3.6855779 0.60064697 0
2.4035826 -3.7418795 1.0598977 0
2.4116623 -3.7387269 1.0531244 0
2.4789753 -3.7389019 0.8864907 0
2.6074803 -3.7522728 -0.24092042 0
-2.0506449 -3.6917584 1.7617438 0
2.5676255 -3.7601192 0.45827204 0
2.1629517 -3.7463346 1.4970306 0
2.5645275 -3.7368541 0.65490305 0
2.6153338 -3.7541621 0.22725904 0
2.6074071 -3.7517786 -0.34416419 0
2.3051577 -3.7405577 1.2995827 0
2.4852748 -3.7526937 0.85743386 0
-2.2010572 -3.6891136 1.5951891 0
2.4676104 -3.758333 0.89060122 0
2.606251 -3.7439537 -0.44706547 0
2.6459999 -3.7365541 -0.2390486 0
-2.6548176 -3.6954215 -0.57275087 0
2.6068926 -3.7482965 0.45794469 0
2.6478145 -3.747725 -0.038318604 0
2.6197586 -3.750932 0.35875753 0
2.6096151 -3.7667205 0.26000017 0
-2.3463612 -3.6879268 1.4003508 0
2.5240786 -3.737453 0.85532445 0
2.3449078 -3.752939 1.2243316 0
-2.6620347 -3.6973476 0.57370865 0
2.6157701 -3.7452214 0.46644604 0
2.5473797 -3.7519505 0.72223085 0
-2.500608 -3.6920657 1.0978054 0
2.6481271 -3.7496495 -0.13953114 0
2.6154072 -3.7549813 0.39215532 0
