# .PCD v0.7 - Point Cloud Data file format
VERSION 0.7
FIELDS x y z intensity
SIZE 4 4 4 4
TYPE F F F F
COUNT 1 1 1 1
WIDTH 1398
HEIGHT 1
VIEWPOINT 0 0 0 1 0 0 0
POINTS 1398
DATA ascii
-1.3460143 -3.30354 0.6815685 0
1.2613319 -3.3634939 0.53605199 0
1.0510151 -3.3758991 0.83091503 0
1.3839257 -3.3475575 -0.27451563 0
1.3390467 -3.3658361 -0.28188878 0
1.2213469 -3.3636594 0.6291905 0
1.0629625 -3.3505285 0.92228013 0
1.0169344 -3.3577886 0.94934326 0
1.30031 -3.3648493 0.44463438 0
-1.3767209 -3.3069293 0.61904848 0
1.3801992 -3.3585949 0.17647077 0
1.3053343 -3.351264 0.53368998 0
1.2687659 -3.3646543 0.54095513 0
1.1262187 -3.3672388 0.78591138 0
1.1203942 -3.3498244 0.8681376 0
-1.4451506 -3.2950609 0.53656155 0
1.3335516 -3.3627002 0.38645998 0
1.2941452 -3.3815184 0.3549518 0
1.1439129 -3.3549016 0.81973833 0
1.095577 -3.3705573 0.82633823 0
1.1800045 -3.3659444 0.72464722 0
-1.5546851 -3.2904177 0.078121439 0
1.3398186 -3.3636534 -0.37628675 0
1.3768398 -3.3685451 -0.094602764 0
1.3766232 -3.3691869 0.086311296 0
1.2040544 -3.364301 0.69694912 0
1.3345661 -3.3785057 0.26473767 0
1.3751197 -3.3736396 -0.0043883622 0
1.3373098 -3.3707476 0.35451871 0
-1.5590231 -3.2931263 -0.077340782 0
1.3812712 -3.3554196 0.35401517 0
1.3776598 -3.366116 0.2651878 0
1.2612352 -3.363744 0.62740302 0
1.2323356 -3.3607805 0.70258284 0
1.1029309 -3.3543429 0.91920805 0
1.2220395 -3.3619397 0.72152919 0
-1.3701669 -3.2911863 0.7859118 0
1.420539 -3.3520079 -0.27284479 0
-1.3771396 -3.307935 0.70250022 0
-1.5598199 -3.2936239 0.23246421 0
1.3380705 -3.3685963 0.44414592 0
1.3735416 -3.378314 -0.18849245 0
1.4174857 -3.3614972 0.17693815 0
1.4154439 -3.3678436 -0.0021622181 0
1.417034 -3.3629014 -0.18300009 0
-1.4362967 -3.2893546 -0.68724483 0
1.4153395 -3.3681679 -0.092636794 0
-1.2624115 -3.2957742 0.95031631 0
1.1466964 -3.3485231 0.91387284 0
1.1380588 -3.3674986 0.8554284 0
-1.2359643 -3.3018322 0.96831274 0
1.3413131 -3.3594272 0.53329086 0
-1.5657978 -3.2973566 -0.23446685 0
1.2697933 -3.3598602 0.69532448 0
1.333203 -3.3644497 0.54026067 0
1.4198103 -3.3542731 0.35378554 0
1.4132736 -3.3745885 0.086866438 0
1.3008761 -3.3633187 0.62563324 0
-1.487139 -3.3018682 0.532646 0
1.3455204 -3.3475306 0.62194562 0
1.2621615 -3.3613458 0.71910989 0
1.1219625 -3.3545136 0.95068407 0
-1.5581713 -3.2925944 0.38690189 0
-1.4828539 -3.2923539 0.61770678 0
1.4150722 -3.3689985 0.26534447 0
-1.2640462 -3.2957394 0.98199618 0
-1.5590279 -3.2931294 -0.39097726 0
1.455265 -3.3619432 -0.089802355 0
1.2322868 -3.3606474 0.78591216 0
1.4583304 -3.3519268 0.26585492 0
1.4629517 -3.3524778 0.23352547 0
-1.3486793 -3.3053122 0.83198583 0
-1.3686885 -3.2876351 0.86881196 0
1.2233723 -3.3586302 0.81443167 0
1.3937302 -3.3834136 0.23278299 0
-1.5420325 -3.282517 0.54049683 0
1.4534395 -3.367908 -0.00077262521 0
1.2050941 -3.3597662 0.85260743 0
1.3721139 -3.3825421 -0.37824363 0
-1.4516838 -3.2992716 0.68909883 0
1.1747977 -3.3783574 0.82156837 0
1.3957224 -3.3726175 0.38642541 0
1.3481194 -3.3738036 0.53181666 0
1.4533324 -3.368258 0.17716269 0
1.1846259 -3.3549268 0.91178715 0
1.4179249 -3.3601327 0.44238675 0
1.4528106 -3.3699632 -0.18222716 0
1.3731681 -3.37942 0.44408119 0
1.4509507 -3.3760405 0.08773239 0
1.3447837 -3.3654556 0.61708719 0
1.3009762 -3.3630483 0.71718848 0
1.4130496 -3.3752847 -0.37296242 0
1.4564743 -3.3579915 -0.36505663 0
1.4532218 -3.3686194 -0.27424425 0
1.4924152 -3.3634636 0.0011180043 0
1.2626925 -3.359971 0.81186962 0
-1.5567491 -3.2917066 -0.54969728 0
1.4927458 -3.3623259 0.17805095 0
1.3971086 -3.3651068 0.53966308 0
-1.4849306 -3.2969646 0.70173788 0
1.4186246 -3.3579578 0.53100514 0
1.37429 -3.376097 0.53372681 0
1.2253265 -3.3537776 0.90796912 0
1.2325783 -3.3614426 0.86925811 0
1.4910276 -3.3682411 -0.089139491 0
1.4535347 -3.3675971 0.35383114 0
1.3330036 -3.3654492 0.69468319 0
1.4932015 -3.3607566 0.26588118 0
1.4609299 -3.3643868 0.38608539 0
-1.6724682 -3.2877369 -0.085550189 0
1.3400507 -3.3629971 0.71507573 0
1.4890003 -3.375221 0.088752478 0
-1.3363535 -3.2971158 0.98107177 0
1.4547174 -3.3637328 0.4419893 0
1.3448179 -3.3655415 0.70154387 0
1.2696047 -3.3607399 0.85100895 0
-1.4821837 -3.2908659 0.78591305 0
1.4933858 -3.3601222 0.35350731 0
-1.6776235 -3.2908545 0.072620049 0
1.525478 -3.3568528 0.23362508 0
1.3755879 -3.3722529 0.62360865 0
-1.4453082 -3.2951622 0.84122992 0
1.5296197 -3.3638265 0.0023179054 0
1.4901035 -3.371423 -0.27243108 0
-1.5921748 -3.2803659 0.61605573 0
-1.6760726 -3.2899165 -0.2455247 0
-1.5994617 -3.2953792 0.52972955 0
1.2984231 -3.3699517 0.81122869 0
1.4861354 -3.3850853 -0.18319279 0
1.490536 -3.3699341 -0.36551487 0
-1.3753467 -3.3036284 0.95260978 0
1.5302138 -3.3616657 0.26604167 0
1.461694 -3.3598864 0.53880328 0
1.4161522 -3.3656416 0.62127823 0
1.5265663 -3.3749301 -0.088627696 0
1.4536872 -3.367099 0.53084958 0
1.5274429 -3.3717422 0.17807075 0
-1.6827943 -3.2939813 0.2306321 0
1.5261476 -3.3764527 0.089532927 0
1.5268462 -3.3739121 -0.17894998 0
1.3770702 -3.3678625 0.7138887 0
1.305027 -3.3520949 0.90097708 0
-1.5585411 -3.2928255 0.6966911 0
-1.673346 -3.2882676 0.3885752 0
1.4598211 -3.3694592 0.52909541 0
1.490911 -3.3686428 0.44169384 0
1.3394527 -3.3646879 0.80755365 0
1.530329 -3.3612473 -0.36037427 0
1.4548327 -3.3579452 0.61544073 0
1.5674211 -3.3608062 -0.17445201 0
1.3467089 -3.3702738 0.78591359 0
1.3960676 -3.3707469 0.69409835 0
1.524128 -3.3655579 0.38592872 0
-1.483315 -3.2933776 0.86999702 0
-1.5634539 -3.295893 -0.71284294 0
1.3409872 -3.3559549 0.87004256 0
1.5647128 -3.3712363 -0.086502194 0
-1.6792548 -3.2918408 -0.4070943 0
1.2553425 -3.379003 0.91084403 0
1.237219 -3.3740983 0.95332277 0
1.5672326 -3.361532 0.26621079 0
1.6056708 -3.3544543 0.0057789087 0
1.5269417 -3.3735652 0.35357377 0
1.5243931 -3.3828328 -0.27281231 0
1.5664147 -3.364682 -0.26625854 0
1.4527917 -3.3700254 0.62044454 0
1.562839 -3.3784533 0.0016361773 0
1.4538009 -3.3555639 0.70078409 0
1.5625596 -3.3795292 0.090095565 0
1.4141562 -3.3718455 0.71264875 0
1.3313928 -3.3735292 0.85101008 0
1.4894221 -3.373769 0.53051525 0
1.6033251 -3.3640509 -0.083903998 0
1.5269516 -3.373529 0.4414264 0
-1.592082 -3.280175 0.78591406 0
1.5656457 -3.3676436 0.35329947 0
1.3753073 -3.3730841 0.8068195 0
-1.6007197 -3.297971 0.70057589 0
-1.6760092 -3.2898781 0.54668111 0
1.5652173 -3.3692937 -0.36004305 0
1.5865536 -3.3704736 0.23354571 0
1.5608811 -3.3859935 0.17780174 0
1.3390739 -3.3657589 0.90126991 0
1.5242471 -3.3647897 0.53853136 0
-1.44542 -3.2952344 0.99536157 0
-1.6741505 -3.2887542 -0.56883997 0
1.4605449 -3.3666542 0.69276178 0
-1.4830338 -3.2927535 0.95414031 0
1.4906116 -3.369674 0.61907601 0
1.600566 -3.3753383 0.091263771 0
1.6028717 -3.3659058 0.26628879 0
1.5274662 -3.3716576 0.529432 0
1.5656557 -3.3676052 0.44060263 0
1.3800367 -3.359076 0.89672238 0
1.6402903 -3.3619797 -0.082235336 0
1.568632 -3.3561425 0.52719057 0
1.639829 -3.363991 0.0056061447 0
1.5997008 -3.3788781 0.17866056 0
1.3967146 -3.3672411 0.84873992 0
-1.7134197 -3.2866647 0.52669227 0
1.6032786 -3.3642406 -0.35623765 0
1.6059986 -3.3531129 0.43934941 0
-1.7869675 -3.2798371 -0.25659382 0
1.3000555 -3.3655376 0.99978572 0
-1.7960391 -3.2851472 -0.09472549 0
1.6025692 -3.3671429 0.35313347 0
1.5986432 -3.3832049 -0.17719072 0
1.4130404 -3.3753133 0.80493456 0
-1.5644705 -3.2965281 0.85367477 0
1.448665 -3.3835094 0.71277452 0
1.3463057 -3.3692651 0.95493138 0
1.6374278 -3.3744624 0.092081666 0
1.585407 -3.3786366 0.38599819 0
1.4542471 -3.3652692 0.80067301 0
1.4588896 -3.3673091 0.78591478 0
-1.6701026 -3.2863064 0.70470834 0
-1.8050015 -3.2903931 0.066895321 0
1.5271678 -3.3727424 0.61821747 0
1.5979679 -3.3859675 -0.26924348 0
1.4519603 -3.3513155 0.87093693 0
1.6373813 -3.3746653 0.17933057 0
1.6772227 -3.3586566 0.094185621 0
-1.7127916 -3.2854598 0.61331952 0
1.650044 -3.3660576 0.2337684 0
1.6381986 -3.3711011 -0.26376283 0
1.5711842 -3.3589177 0.6131748 0
1.5872426 -3.3655689 0.53808916 0
1.6374726 -3.3742671 0.26628596 0
1.6395206 -3.3653357 0.35295412 0
1.6766101 -3.3615155 -0.16969326 0
-1.7920966 -3.2828393 0.39030814 0
1.639212 -3.3666816 -0.35465485 0
1.5780798 -3.3736594 0.52543223 0
1.6355412 -3.382689 -0.17544004 0
-1.5983659 -3.2931213 0.8711279 0
1.4868115 -3.3827572 0.71093369 0
1.4928496 -3.3619685 0.79791367 0
-1.8093081 -3.2929137 0.22874379 0
1.6768932 -3.3601947 0.26667479 0
1.6740742 -3.3733494 0.0053948164 0
1.4135143 -3.3738406 0.89753979 0
-1.5910686 -3.2780869 0.95565486 0
-1.6803148 -3.2924819 -0.73541725 0
1.3780105 -3.3650773 0.99270445 0
1.5270984 -3.3729947 0.70770979 0
1.6013896 -3.3719687 0.52783275 0
1.5635917 -3.3755538 0.617396 0
1.6738502 -3.3743944 0.1797583 0
1.4548334 -3.3633535 0.89237291 0
1.5216446 -3.3815715 0.69319296 0
1.6385053 -3.3697634 0.4398059 0
-1.8024182 -3.2888811 -0.42361933 0
1.4588854 -3.3764293 0.84851927 0
1.6719341 -3.3833354 -0.084452271 0
1.6760658 -3.3640554 0.35279417 0
1.6487517 -3.376322 0.38581219 0
1.711587 -3.3666067 0.094113439 0
1.4180598 -3.3597128 0.98797929 0
1.7108746 -3.3701801 0.0066910982 0
1.674807 -3.3699298 -0.35343927 0
1.7131727 -3.3586531 0.2668294 0
1.7130787 -3.3625486 0.23395886 0
1.5744355 -3.3658683 0.69941366 0
1.7112837 -3.3681278 -0.16958678 0
1.6721318 -3.3824129 -0.26461607 0
1.6013658 -3.3720663 0.61584723 0
-1.7194967 -3.2983215 0.69932711 0
1.7105215 -3.3719509 0.18027297 0
1.5866381 -3.3698723 0.69134915 0
1.562604 -3.3793581 0.70723122 0
1.5241642 -3.3653247 0.84588838 0
1.5678328 -3.3592205 0.79353356 0
-1.714649 -3.2890227 0.78591591 0
1.6361248 -3.3801441 0.52782834 0
1.5254964 -3.3788207 0.79933953 0
1.6737564 -3.3748322 0.4396652 0
1.7115061 -3.3670125 -0.35068208 0
-1.6776564 -3.2908742 0.865152 0
1.7468641 -3.3697796 0.0075724125 0
1.4544493 -3.3646085 0.98631084 0
1.706997 -3.3896284 -0.084303528 0
1.7487321 -3.359657 0.26692921 0
1.6019239 -3.3697829 0.70423859 0
1.7466455 -3.3709643 0.094317228 0
1.7124959 -3.3677814 0.38553309 0
1.6381598 -3.3712699 0.61471081 0
1.7084676 -3.3822522 -0.26288062 0
-1.8106418 -3.2936945 0.55284721 0
1.6749966 -3.369045 0.52614391 0
-1.805171 -3.2904923 -0.5909 0
1.4874434 -3.3805816 0.89403296 0
1.7459745 -3.3746004 -0.080802202 0
1.7495196 -3.3553894 0.35239509 0
1.6478698 -3.3833277 0.53859234 0
1.4630265 -3.3768578 0.95734942 0
1.7847605 -3.3569634 -0.076979965 0
1.5764842 -3.3702481 0.78591621 0
1.746017 -3.3743701 -0.16950572 0
-1.9230995 -3.2810683 -0.10418129 0
-1.7119501 -3.2838454 0.87212491 0
1.7842021 -3.3602526 0.09581317 0
-1.8381289 -3.2919145 0.52222812 0
-1.9197688 -3.2791822 0.2271924 0
1.527499 -3.3715384 0.88950807 0
1.7079953 -3.3846214 0.35303283 0
1.5687661 -3.3556263 0.88349861 0
1.7122396 -3.3633335 0.52499461 0
-1.834687 -3.2857502 0.61061209 0
1.7086855 -3.3811595 0.43961915 0
-1.7988825 -3.2868114 0.71441376 0
1.6987351 -3.3757412 0.52161777 0
1.4902053 -3.3710723 0.98523253 0
1.5872033 -3.3658483 0.8448205 0
1.744138 -3.384552 -0.26184964 0
-1.9362516 -3.288516 0.060983211 0
1.7428229 -3.3916788 0.17957669 0
-1.9280381 -3.283865 -0.2718519 0
1.7745414 -3.3721564 0.23390317 0
1.7453752 -3.3778484 -0.35182279 0
1.6366708 -3.3777635 0.70420015 0
1.7471873 -3.3680286 0.43856293 0
-1.9193139 -3.2789245 0.3921985 0
1.7120421 -3.3718565 0.53759909 0
1.600376 -3.3761156 0.79517221 0
1.7817881 -3.3744714 0.1808209 0
1.7816367 -3.3753631 -0.16848803 0
-1.7968433 -3.2856178 -0.75772738 0
1.5761663 -3.3695686 0.87251383 0
1.6722705 -3.3817656 0.61506206 0
-1.8323538 -3.2815719 0.69842345 0
-1.9178853 -3.2781157 -0.43861783 0
1.7802722 -3.3834 0.0066411793 0
1.6970332 -3.372359 0.61005318 0
1.6480169 -3.3821595 0.69170594 0
1.7115529 -3.3667779 0.61228299 0
1.7812368 -3.3777187 0.26671773 0
1.7806664 -3.3810782 -0.2595889 0
1.8177472 -3.3722606 0.0087289512 0
1.63816 -3.3712697 0.79256272 0
1.6737956 -3.374649 0.70244527 0
1.7837269 -3.3630514 0.43797207 0
1.774295 -3.3746994 0.38554144 0
1.7496226 -3.3548317 0.60996127 0
1.7816607 -3.375222 -0.3494339 0
1.8174616 -3.3741021 -0.07882908 0
1.6943585 -3.367044 0.69817144 0
1.7815044 -3.3761423 0.3526544 0
1.7463772 -3.3724179 0.52521211 0
1.5671182 -3.3619728 0.9774164 0
1.8168216 -3.3782296 0.094718233 0
1.8173341 -3.3749247 0.18109611 0
1.5743287 -3.3656402 0.95900333 0
1.5248718 -3.3810918 0.98528904 0
-1.7181209 -3.2956824 0.95904988 0
1.8178387 -3.3716712 0.26692435 0
-1.9493626 -3.2672572 0.51983255 0
1.6411457 -3.3582489 0.88011867 0
1.8164771 -3.3804507 -0.16837844 0
1.8173817 -3.3746169 -0.2567575 0
1.6750025 -3.3690176 0.79058456 0
1.7746717 -3.3708117 0.53720468 0
1.817517 -3.373745 -0.34750289 0
-1.9194922 -3.2790256 -0.60904616 0
1.7824997 -3.3702798 0.52447665 0
1.5978308 -3.3865283 0.88877678 0
1.8531539 -3.3723986 0.095687568 0
-1.8370678 -3.290014 0.78591758 0
1.6488895 -3.3752282 0.84496236 0
1.711143 -3.3799284 0.69086146 0
1.8168944 -3.3777592 0.35258323 0
1.7088913 -3.3801272 0.70216912 0
1.8524246 -3.3775916 -0.078566343 0
1.8360069 -3.3829958 0.23381057 0
1.8176821 -3.3726802 0.43818486 0
1.8516676 -3.3829806 0.00803563 0
1.6016846 -3.3707619 0.97743648 0
-1.8085084 -3.2924457 0.87905848 0
1.8540789 -3.3658135 -0.34396833 0
1.8521148 -3.379797 0.18110995 0
-1.9381995 -3.2896192 0.55853415 0
1.8518765 -3.3814933 -0.16757309 0
-1.8338683 -3.2842839 0.87348366 0
1.6756103 -3.3661814 0.88018364 0
1.8523386 -3.3782041 0.26689956 0
1.8521779 -3.3793485 -0.25666386 0
-2.0495152 -3.2730942 -0.11350489 0
1.8185836 -3.3695519 0.5181278 0
1.7816668 -3.3751862 0.61173594 0
1.7098339 -3.3753994 0.7904281 0
1.7454485 -3.3774507 0.7006613 0
1.8527528 -3.3752549 0.35244846 0
1.8883851 -3.3728349 0.09605661 0
1.854153 -3.3652859 0.43752211 0
1.8880997 -3.375102 -0.077429593 0
1.8359358 -3.3838575 0.38560456 0
1.6391997 -3.3667355 0.97406971 0
1.8883005 -3.3735061 0.18168712 0
1.8880548 -3.3754578 -0.16548184 0
-1.9589821 -3.28338 0.60781407 0
1.6956646 -3.3696394 0.87373161 0
1.7046999 -3.3875945 0.78591824 0
-1.9252777 -3.2823017 0.7238003 0
1.8895712 -3.3634131 0.35215873 0
-1.9149623 -3.2764604 -0.78030562 0
1.8869669 -3.384099 0.0084716678 0
1.747208 -3.3679161 0.78763008 0
1.8881443 -3.3747482 -0.25451493 0
1.7825942 -3.3697231 0.69842982 0
1.8159782 -3.3836672 0.52516323 0
-2.0585108 -3.2780192 0.22508642 0
1.8194189 -3.3710997 0.60747105 0
1.853856 -3.3674009 0.52327091 0
1.7111394 -3.3688512 0.87912589 0
-2.0675902 -3.2829905 0.055110306 0
1.6761413 -3.363703 0.97113299 0
-2.05053 -3.2736497 0.39415479 0
1.649426 -3.3709662 0.9994747 0
1.8868841 -3.3847578 0.26686576 0
1.8984671 -3.3816497 0.23391584 0
-1.9585544 -3.2826631 0.69693422 0
1.8875831 -3.379205 -0.34634018 0
1.8890089 -3.3678794 0.43741572 0
1.9241211 -3.3677106 -0.25192297 0
1.9229982 -3.3777933 0.0097616911 0
1.7104034 -3.3865693 0.84545541 0
1.7728491 -3.3896186 0.69114554 0
-1.837919 -3.2915385 0.96153224 0
1.8183777 -3.3681951 0.69728231 0
1.9225689 -3.3816478 -0.07781598 0
1.8151407 -3.3890672 0.61275935 0
1.9233217 -3.3748884 0.26711178 0
-2.055306 -3.2762647 -0.4574914 0
-2.0719299 -3.2853665 -0.28737777 0
1.8201717 -3.3724945 0.69670665 0
1.8351524 -3.3933561 0.53809834 0
1.9220045 -3.3867152 0.095197186 0
1.7752328 -3.3650229 0.84199947 0
1.9217818 -3.3887143 -0.16726846 0
1.9218601 -3.3880119 0.18113936 0
1.7460115 -3.3743999 0.87886631 0
1.8549712 -3.3594613 0.69506669 0
1.888482 -3.3720653 0.52327555 0
1.8196452 -3.3600225 0.78376019 0
1.9586067 -3.3728056 -0.075831831 0
1.9230993 -3.3768864 -0.34460211 0
-1.9210324 -3.2798977 0.89026344 0
1.9581175 -3.3778541 0.010200918 0
1.7799432 -3.3853376 0.78985465 0
-2.05235 -3.2746463 0.56337917 0
1.8977567 -3.392082 0.3856667 0
1.9588894 -3.3698893 0.26726288 0
1.8511182 -3.3868926 0.61184943 0
1.9581881 -3.3771257 0.18190403 0
1.7027411 -3.383702 0.96237469 0
1.8361887 -3.3807919 0.68988132 0
1.9220335 -3.3864548 0.35249138 0
-1.962746 -3.2896886 0.78591937 0
1.9230603 -3.3772357 0.4376924 0
1.7087264 -3.3809545 0.97389138 0
1.9573318 -3.3859618 0.095582888 0
1.9580784 -3.3782578 -0.25353289 0
1.9573107 -3.3861792 -0.16606298 0
1.8984227 -3.3822997 0.53727156 0
1.9614263 -3.3680332 0.38518015 0
1.747036 -3.3688481 0.9687705 0
1.9584287 -3.3746431 -0.34302372 0
-2.0845315 -3.2763922 0.51433074 0
1.7810847 -3.3786149 0.87841207 0
1.923332 -3.3747962 0.5231536 0
1.9428608 -3.3651268 0.51416183 0
1.887386 -3.3807709 0.61051655 0
1.9932592 -3.3764856 -0.075922042 0
1.9578316 -3.3808043 0.35232857 0
-2.0597057 -3.2786734 -0.63282514 0
1.8535733 -3.3694127 0.78460181 0
1.8185138 -3.3673179 0.87445229 0
1.8176754 -3.3678689 0.87500978 0
-1.9610431 -3.2868345 0.87501734 0
1.992937 -3.3803921 -0.1643239 0
1.9926821 -3.3834825 0.096075222 0
1.9925483 -3.3851032 0.0096920431 0
1.8372183 -3.3683083 0.84172142 0
1.992937 -3.3803921 0.18189622 0
1.8281434 -3.3872645 0.7859199 0
1.9598689 -3.3970215 0.23371316 0
1.9932506 -3.3765898 -0.25242394 0
1.9927049 -3.3832049 0.26708409 0
2.0285017 -3.3718426 -0.074769676 0
1.9572592 -3.3867111 0.43800068 0
-2.0881972 -3.2821538 0.60470641 0
2.0283389 -3.3742356 0.011352569 0
-1.9559432 -3.2782867 0.96374822 0
1.8984197 -3.382344 0.68960798 0
1.7744486 -3.3731134 0.99762064 0
1.9222435 -3.3845699 0.61047554 0
1.9928226 -3.381778 -0.34410465 0
1.9928353 -3.3816242 0.35228825 0
1.8863281 -3.389174 0.699076 0
2.0282691 -3.3752587 0.1823035 0
1.9592371 -3.3663011 0.6077739 0
-2.1957231 -3.2721243 -0.12472847 0
2.0284672 -3.3723514 -0.2508378 0
1.9575901 -3.383296 0.52358282 0
2.0280194 -3.378926 -0.16352776 0
1.9235957 -3.3724294 0.6957469 0
1.7802122 -3.3837538 0.97115272 0
2.0229084 -3.3795736 0.23406857 0
1.9606074 -3.3832748 0.53712445 0
2.0275714 -3.3855073 0.096127704 0
2.0635996 -3.3661466 -0.07353124 0
2.0280821 -3.3780041 0.26722097 0
1.8875945 -3.3791149 0.78559834 0
-2.0685821 -3.2835336 0.73480666 0
1.9529363 -3.3825779 0.60397375 0
1.817009 -3.3770204 0.96779102 0
-2.0906694 -3.2860394 0.6952557 0
-2.2112913 -3.2803609 0.048544019 0
-2.2054939 -3.2772937 0.22283325 0
1.8893021 -3.36555 0.87177461 0
2.0286515 -3.3696444 0.43680161 0
1.8993709 -3.3683746 0.8411566 0
1.8230261 -3.3777831 0.96472216 0
1.9919461 -3.3924055 0.43813553 0
1.992836 -3.3816168 0.52316105 0
2.0629058 -3.3790591 0.096878752 0
-2.2041068 -3.2765598 -0.30115622 0
2.0633008 -3.3717065 -0.25020033 0
2.0275698 -3.3855305 0.35231072 0
1.9584903 -3.3740084 0.69542325 0
2.0274057 -3.3879411 -0.34505576 0
2.0626278 -3.3842354 0.01038295 0
2.0628157 -3.380739 -0.16346836 0
1.9936323 -3.3719618 0.60808897 0
2.0288589 -3.3665969 0.52161407 0
2.0297725 -3.3531778 0.60545588 0
2.0626457 -3.3839028 0.18196084 0
1.8495296 -3.3982022 0.88045931 0
2.0224206 -3.3919604 0.38554785 0
1.9225743 -3.3815999 0.78527701 0
-2.0517998 -3.2743449 0.90395993 0
1.9535899 -3.3837101 0.69496644 0
-2.1971183 -3.2728624 -0.47701424 0
1.8524883 -3.3771384 0.96643263 0
2.0626609 -3.3836188 0.26715985 0
2.0630317 -3.3767171 -0.34147346 0
-2.2108412 -3.2801228 0.39667237 0
1.9602817 -3.3893359 0.68988955 0
1.8360527 -3.3824399 0.99822026 0
1.9239668 -3.3690975 0.87164515 0
1.9493498 -3.3763659 0.78592128 0
1.9586672 -3.3721824 0.78272957 0
-2.0930634 -3.2898021 0.78592134 0
-2.1932859 -3.2708349 0.56978846 0
2.0977714 -3.3784525 -0.16270846 0
2.0976024 -3.3827498 -0.075907767 0
1.8888029 -3.3695157 0.9631235 0
-2.0861583 -3.2789488 0.87639093 0
2.0235827 -3.3624523 0.68728256 0
1.9946238 -3.3599408 0.77973509 0
2.0621746 -3.3926725 0.35239843 0
2.0977225 -3.3796945 0.26725674 0
2.0973408 -3.3893902 0.096115932 0
2.0972755 -3.391047 0.0097452998 0
1.9927031 -3.3832273 0.69639349 0
2.0976088 -3.382585 -0.25234091 0
2.0625308 -3.3860412 0.43755144 0
2.0973907 -3.3881249 0.18182446 0
2.0222518 -3.3962495 0.53765351 0
2.132684 -3.3737173 -0.074298918 0
1.9477113 -3.373528 0.87660271 0
2.1326175 -3.3763726 0.097353637 0
1.924245 -3.3665986 0.96122855 0
2.0980315 -3.371851 0.43672201 0
2.0852072 -3.3836462 0.41482294 0
2.0625436 -3.3858013 0.523112 0
1.9606411 -3.3826458 0.84244835 0
1.9581037 -3.3779969 0.87287241 0
-2.2254186 -3.285758 0.50837708 0
2.0831978 -3.3803854 0.50821835 0
2.0971951 -3.3930902 -0.34543031 0
2.1323998 -3.3850605 -0.16377556 0
-2.2209594 -3.2791741 0.60142982 0
2.097086 -3.3958604 0.35242569 0
2.167434 -3.3691602 -0.073478788 0
2.0786455 -3.3729985 0.60135788 0
2.1323586 -3.3867042 -0.2530331 0
-2.0891385 -3.2836332 0.96721792 0
2.1323793 -3.3858793 0.26716831 0
2.0848403 -3.3835886 0.53688467 0
1.897953 -3.389199 0.99855179 0
-2.2117515 -3.2806041 -0.65902787 0
2.1673698 -3.3751442 0.011913061 0
2.132082 -3.3977473 0.0090605915 0
2.0271957 -3.3910246 0.6972149 0
2.0624044 -3.3883944 0.60952842 0
2.1321375 -3.3955286 0.18149528 0
1.9484782 -3.3748565 0.9674542 0
2.1324019 -3.384975 -0.34295321 0
1.9586982 -3.3718622 0.96167511 0
2.0975091 -3.3851147 0.52290976 0
2.1673543 -3.3765836 0.18252102 0
-2.2189922 -3.2762694 0.6938079 0
1.9929755 -3.3799245 0.87259644 0
2.0628638 -3.3798428 0.69510365 0
2.1673617 -3.3758841 0.26735368 0
2.1672461 -3.3866744 0.09650667 0
-2.2076044 -3.2784102 0.74530447 0
2.1673129 -3.3804495 -0.25144494 0
2.0274036 -3.3879697 0.78468978 0
-2.2144661 -3.2695868 0.78592271 0
-2.3501143 -3.2711959 0.042310447 0
2.1322715 -3.3901818 0.43762445 0
2.131994 -3.4012568 0.35250023 0
1.9609696 -3.3765328 0.99594259 0
2.0974567 -3.3864443 0.60908914 0
-2.3406911 -3.2663817 -0.31545949 0
-2.3480806 -3.2701569 0.22068244 0
2.0750494 -3.3671632 0.78592288 0
2.1671348 -3.3970318 -0.16598144 0
2.1672196 -3.3891346 -0.3439008 0
2.0224013 -3.3924539 0.84329879 0
2.2021198 -3.3861213 -0.07614556 0
2.1671972 -3.3912258 0.35231417 0
2.0881505 -3.3884223 0.69326919 0
1.9929547 -3.3801758 0.96307385 0
2.2021098 -3.3832948 0.18217582 0
2.2020955 -3.3793252 -0.25115663 0
2.062535 -3.3859591 0.78388453 0
2.2021265 -3.3879895 0.096402526 0
2.1321805 -3.3938158 0.52357292 0
-2.3452873 -3.2687299 0.39866284 0
2.167263 -3.3850915 0.43732491 0
2.1673918 -3.3730822 0.52170414 0
2.2021248 -3.3875024 -0.16410479 0
2.0974479 -3.3866677 0.69592881 0
2.2021408 -3.3919828 0.009860754 0
-2.3646135 -3.2786031 -0.13810009 0
2.084497 -3.397289 0.69015729 0
2.0272963 -3.3895476 0.87421709 0
2.1323788 -3.3858986 0.6088841 0
2.1467941 -3.3921154 0.53727341 0
2.2021022 -3.3811493 0.35213608 0
2.2021077 -3.3827205 -0.3421486 0
-2.2177193 -3.2743902 0.87798524 0
2.2021382 -3.3912067 0.26708838 0
2.0281155 -3.3775158 0.96165586 0
2.2369146 -3.3818312 0.096908614 0
2.0975947 -3.3829405 0.78298151 0
-2.2066913 -3.2779272 0.92091525 0
2.236959 -3.3843105 -0.075918019 0
2.0626674 -3.3834984 0.87232667 0
2.1673579 -3.3762531 0.6076231 0
2.2368031 -3.3755896 0.26735449 0
2.2021015 -3.3809977 0.43710381 0
2.1324406 -3.3834321 0.69523811 0
2.2370241 -3.3879371 0.010311514 0
2.218215 -3.3784873 0.40856424 0
2.0848336 -3.3838542 0.84199655 0
-2.3559706 -3.2722499 0.50392485 0
-2.3550878 -3.2737367 -0.49927729 0
2.0821605 -3.3787022 0.87831205 0
2.237076 -3.3908498 -0.16482833 0
2.2370074 -3.3870053 -0.25301617 0
2.1468697 -3.3850715 0.68899095 0
2.2020962 -3.3795302 0.52225739 0
-2.3512478 -3.271775 0.57715631 0
2.1673715 -3.3749697 0.69379902 0
2.0225241 -3.389334 0.99751461 0
2.2372057 -3.3980927 0.18138057 0
2.2713542 -3.3697693 0.26744094 0
2.23701 -3.3871615 0.35224757 0
2.2717278 -3.3813701 0.096872672 0
2.0975547 -3.3839602 0.87205863 0
2.0628006 -3.3810163 0.96202713 0
2.0771949 -3.3706448 0.97035998 0
2.1323619 -3.3865712 0.78346932 0
2.2717996 -3.3835959 -0.16358778 0
2.2719345 -3.3877819 -0.076606393 0
2.2371759 -3.3964267 -0.34592193 0
2.2237215 -3.3868742 0.50256157 0
-2.3607945 -3.27895 0.59771037 0
2.2721786 -3.3953614 0.0092920959 0
-2.2261999 -3.2869112 0.97085238 0
2.2716992 -3.3804801 -0.34188199 0
2.1326094 -3.3766913 0.87012076 0
2.2719655 -3.3887491 -0.2536208 0
-2.3558216 -3.2741115 -0.68329293 0
2.2089748 -3.401222 0.53773904 0
2.0976985 -3.3803067 0.96140242 0
2.1672869 -3.3828738 0.78262931 0
2.1469052 -3.3817565 0.84160268 0
2.2372358 -3.3997784 0.43810782 0
2.202158 -3.3967736 0.61012745 0
-2.3587005 -3.2760415 0.69195211 0
2.2245793 -3.3881807 0.59711415 0
2.2370992 -3.3921421 0.52339363 0
2.2724679 -3.4043391 0.18100701 0
2.236902 -3.3811176 0.60825104 0
2.0847523 -3.3871005 0.9968437 0
2.3069878 -3.3900995 0.0097694993 0
-2.3540158 -3.2731891 0.756459 0
2.2722526 -3.3976605 0.3524462 0
2.2021415 -3.392127 0.69649684 0
2.3071401 -3.3933752 0.095701218 0
2.270824 -3.376858 0.536497 0
2.2716417 -3.3786983 0.52229351 0
2.3069983 -3.3903275 0.18166958 0
2.3071923 -3.3944967 -0.077888876 0
2.2720354 -3.3909159 0.43768919 0
2.2218864 -3.3840795 0.69168508 0
2.1326201 -3.3762689 0.96001971 0
2.3072417 -3.3955534 -0.16618145 0
-2.3570123 -3.2736967 0.78592515 0
2.2089574 -3.3963196 0.68995559 0
2.3070703 -3.3918755 -0.25466096 0
2.2021077 -3.3826985 0.78257096 0
2.1672754 -3.3839362 0.87164992 0
2.3072383 -3.3954852 0.26696774 0
2.3068931 -3.3880661 0.35230264 0
2.236937 -3.38308 0.69512308 0
-2.3496072 -3.2634118 0.87953573 0
2.3070617 -3.3916905 -0.34525639 0
2.3418972 -3.3881977 -0.077187538 0
2.3417342 -3.3855212 -0.16459385 0
2.3419936 -3.3897789 0.095851809 0
-2.5100861 -3.2686443 0.034877241 0
2.3418641 -3.3876569 0.1817113 0
2.3069127 -3.3884854 0.43763381 0
-2.5068808 -3.2670641 0.21822923 0
2.2020907 -3.3779609 0.8702417 0
2.270793 -3.3751209 0.68815911 0
2.2233732 -3.3863437 0.78592563 0
2.2715237 -3.3750322 0.69398606 0
2.3066549 -3.3829496 0.52278566 0
2.2089131 -3.3839738 0.84184772 0
-2.5146708 -3.2709043 -0.14953169 0
2.2721007 -3.3929455 0.60981119 0
2.3420477 -3.3906696 -0.25481617 0
2.3426423 -3.4004314 0.0082678199 0
2.3335087 -3.3991063 0.2337468 0
-2.5069799 -3.267113 -0.33374852 0
2.3420124 -3.3900902 -0.34533066 0
2.1468122 -3.3904231 0.99719405 0
2.3419852 -3.3896458 0.35236302 0
2.2181387 -3.3783712 0.88000703 0
2.3425682 -3.399214 0.26686966 0
2.3333788 -3.3950679 0.38558269 0
2.3761835 -3.3779349 -0.25241828 0
2.3416517 -3.3841681 0.43750554 0
-2.3539214 -3.2731407 0.93668365 0
2.2713926 -3.3709643 0.78053117 0
2.376924 -3.3877709 0.095819473 0
2.3769405 -3.3879879 -0.16553712 0
2.306067 -3.3703184 0.69345534 0
2.3771904 -3.3913088 -0.078058898 0
-2.4976437 -3.2671189 0.49831057 0
2.2020845 -3.3762655 0.95981908 0
2.3946655 -3.3735998 0.23414968 0
2.3770683 -3.3896859 0.18147987 0
2.2368598 -3.3787646 0.87051338 0
2.3775258 -3.3957639 0.0085486174 0
2.1670983 -3.4004285 0.96632719 0
2.3415422 -3.3823695 0.52289879 0
-2.5170116 -3.272058 0.40136793 0
2.3767509 -3.3854702 -0.34472787 0
2.3332429 -3.3908541 0.53731221 0
2.2373734 -3.4074678 0.78745914 0
2.4115047 -3.3816624 0.0099312663 0
2.3074098 -3.399169 0.61074531 0
-2.3594737 -3.2771156 0.97403544 0
-2.510098 -3.2686501 -0.52085906 0
2.377018 -3.3890193 0.35239366 0
-2.4972849 -3.2666495 0.5943836 0
2.4120758 -3.3880298 -0.077995539 0
-2.5074592 -3.2673492 0.5843693 0
2.3780549 -3.4027908 0.2667653 0
2.3767898 -3.3859868 0.43772575 0
2.3657897 -3.3873029 0.4969666 0
2.4125733 -3.3935759 0.095056936 0
2.2368779 -3.379776 0.96085972 0
2.4124155 -3.3918161 -0.16684565 0
2.3608811 -3.3802752 0.59386015 0
2.374495 -3.3997674 0.39873844 0
2.3421001 -3.3915288 0.61003709 0
2.2238579 -3.3870821 0.97467649 0
2.2718196 -3.384218 0.87197417 0
2.4122393 -3.3898532 -0.25584489 0
2.3954229 -3.3898718 0.38553467 0
2.3767037 -3.3848455 0.52332389 0
-2.4984784 -3.2682106 0.69016159 0
2.2711861 -3.3970954 0.84354085 0
2.4463961 -3.3793654 -0.077153951 0
2.4126179 -3.3940744 0.26686734 0
2.2089589 -3.3967102 0.9981547 0
2.3333404 -3.3938811 0.689937 0
2.4124799 -3.3925331 -0.34740108 0
2.413671 -3.4058132 0.18047981 0
2.3420138 -3.3901126 0.69689143 0
2.4463732 -3.3791451 -0.25414437 0
-2.5086851 -3.2679534 -0.70931315 0
2.3073215 -3.3972723 0.78591597 0
2.2706845 -3.3690603 0.99388045 0
-2.500649 -3.2639921 0.76756394 0
2.3770666 -3.3896644 0.61010039 0
2.447933 -3.3941216 0.0079770982 0
2.4475121 -3.3900828 0.18112931 0
2.4476051 -3.3909748 -0.16734269 0
2.4479551 -3.394336 0.094692141 0
2.4133892 -3.4026713 0.35268337 0
2.2717726 -3.3827579 0.96189272 0
2.4126012 -3.3938882 0.43829274 0
2.3067834 -3.3857129 0.87263668 0
2.4118958 -3.3860209 0.52367949 0
2.4478686 -3.3935041 0.2668179 0
2.4576621 -3.3889573 0.233823 0
2.3958907 -3.3999207 0.53791624 0
-2.5028048 -3.27387 0.78592765 0
2.3769205 -3.3877227 0.69688934 0
2.3421683 -3.3926487 0.78538191 0
2.4479418 -3.3942068 0.35259447 0
2.3724296 -3.3968101 0.68947697 0
-2.4947388 -3.2633193 0.88154989 0
2.4827604 -3.3891618 0.0081090033 0
2.4828274 -3.3897254 0.094755307 0
2.457623 -3.3883188 0.38556585 0
2.4487479 -3.4019468 -0.35084915 0
2.4835458 -3.3957818 -0.08038947 0
2.3954499 -3.3904502 0.68985087 0
2.4126627 -3.3945739 0.61106044 0
2.3069201 -3.3886473 0.96384013 0
2.4835844 -3.3961072 0.18060625 0
2.4116118 -3.3828559 0.69657278 0
2.3590057 -3.3775899 0.88183331 0
2.4485965 -3.4004941 0.43881929 0
-2.6701312 -3.2616158 0.027488053 0
2.3337746 -3.407357 0.84499294 0
2.4842777 -3.4019499 -0.17025208 0
2.3719459 -3.3961174 0.78592825 0
2.3773088 -3.3928816 0.78589106 0
2.5174413 -3.3832769 0.0082940161 0
2.4838049 -3.397965 0.26667106 0
2.342483 -3.3978179 0.87586957 0
2.4832335 -3.3931475 -0.34952873 0
2.4842005 -3.4013009 -0.26019484 0
-2.5010543 -3.2641919 0.95233732 0
2.517009 -3.3800316 -0.25626886 0
2.3327494 -3.3755314 0.99515128 0
2.5184546 -3.3908856 -0.080310673 0
2.4815762 -3.3791783 0.5237155 0
2.4840121 -3.3997128 0.35275969 0
2.5197375 -3.3847749 0.23382223 0
2.4476342 -3.3912549 0.61106902 0
2.4831355 -3.3923225 0.43859404 0
2.4490533 -3.4048812 0.52563548 0
-2.6802173 -3.2664096 -0.16239691 0
2.3951142 -3.38324 0.84233034 0
2.4583869 -3.4008601 0.53814113 0
2.3770535 -3.3894911 0.87449378 0
2.5191772 -3.396313 -0.17001227 0
-2.6820989 -3.2673039 0.21547452 0
2.4469476 -3.3846595 0.69739699 0
2.5199537 -3.4021437 0.093271583 0
2.3423619 -3.3958304 0.96627158 0
2.5201235 -3.4034181 0.17998689 0
-2.5049198 -3.2766364 0.97805768 0
-2.6750708 -3.2639635 0.4037897 0
2.4128003 -3.3961065 0.78708291 0
2.5531335 -3.3844841 0.094397843 0
2.5532792 -3.3854687 -0.080228299 0
2.5534952 -3.3869305 0.0072340071 0
2.516974 -3.3921516 0.39154398 0
-2.683074 -3.2677674 -0.35324514 0
2.4824214 -3.3863022 0.61093748 0
-2.6470985 -3.2641172 0.59016085 0
2.5527511 -3.3818958 -0.25784296 0
-2.6559112 -3.2749841 0.49103263 0
2.4578395 -3.3918722 0.69026792 0
2.5536761 -3.3881559 0.18053439 0
2.4117846 -3.3847821 0.87406939 0
2.5207036 -3.3976085 0.38580245 0
2.5201488 -3.4036088 -0.35354549 0
2.554328 -3.3925672 -0.17024165 0
2.5211866 -3.4114008 0.26635689 0
2.5203629 -3.4052167 0.35293424 0
2.3771846 -3.3912311 0.96567589 0
2.447345 -3.3884776 0.78625464 0
2.5194645 -3.3984702 0.43915153 0
2.5182011 -3.3938055 0.49037129 0
2.5550499 -3.3974521 0.26651576 0
2.4111352 -3.3775423 0.9627682 0
2.3746264 -3.3999555 0.97911471 0
-2.6810923 -3.2668254 -0.54511046 0
2.5191908 -3.396415 0.52562284 0
2.4834716 -3.3951557 0.69968963 0
2.5548763 -3.3962784 -0.35289478 0
2.5900388 -3.3920143 0.0059294701 0
2.5185516 -3.3916154 0.61213887 0
2.5900581 -3.392133 -0.082164109 0
2.5827379 -3.3907492 0.23362789 0
-2.6824379 -3.2674649 0.59262609 0
2.5557044 -3.4018819 0.35296243 0
2.5903676 -3.394038 0.093072608 0
2.5212755 -3.397949 0.58882886 0
2.5902038 -3.3930302 0.17998856 0
2.554898 -3.3964252 0.4393037 0
2.5214643 -3.407716 0.53872418 0
2.5904458 -3.3945189 -0.17169249 0
-2.6568263 -3.2761126 0.68773931 0
2.589608 -3.3893614 0.26656288 0
2.5535154 -3.3870687 0.52523077 0
2.5137994 -3.3878734 0.68772489 0
2.5900226 -3.3919139 -0.26144725 0
2.4829898 -3.3910944 0.7875272 0
2.5824776 -3.3878477 0.38572127 0
-2.6489239 -3.2663682 0.78593004 0
2.5893309 -3.3876555 0.35280699 0
2.3959374 -3.4009249 0.99956399 0
2.5201604 -3.3903954 0.69050944 0
2.5897667 -3.3903389 -0.35275477 0
2.51841 -3.3905518 0.69965732 0
-2.6726012 -3.26279 -0.73755491 0
2.5163553 -3.3751228 0.78525698 0
2.4489796 -3.4041734 0.87935382 0
2.6249704 -3.3862119 -0.082165092 0
-2.6421919 -3.2580671 0.88358015 0
2.6256347 -3.3899615 0.0054464042 0
2.4472761 -3.3878155 0.96644229 0
2.4591038 -3.4126298 0.84635538 0
2.5543551 -3.3927517 0.61288857 0
2.6256456 -3.3900244 0.17983298 0
2.58234 -3.3863146 0.53786862 0
-2.6817846 -3.2671547 0.78194875 0
2.6270852 -3.3981502 -0.17358053 0
2.591598 -3.401613 0.43986714 0
2.5535398 -3.3872337 0.69991088 0
2.6279166 -3.4028435 0.091763169 0
2.6268241 -3.3966768 0.26632825 0
2.6271126 -3.3983045 -0.26433516 0
2.484334 -3.4024251 0.87985623 0
2.4577579 -3.3905342 0.99844593 0
2.522547 -3.3996625 0.78593087 0
2.6266651 -3.3957791 0.35305586 0
2.5893524 -3.3877881 0.61294484 0
2.6455903 -3.3921025 0.23349856 0
2.5915749 -3.4014711 0.52698624 0
2.6268432 -3.3967838 -0.35612035 0
2.5128827 -3.3866377 0.88410026 0
2.6612678 -3.3874671 0.092556596 0
2.6617503 -3.3899817 0.0046391785 0
2.5210197 -3.401808 0.84554607 0
2.4836471 -3.3966351 0.96986979 0
2.5059581 -3.3773055 0.98183507 0
2.6628523 -3.3957226 -0.17437822 0
2.6634758 -3.3989706 -0.08525914 0
2.6255822 -3.3896651 0.52646595 0
2.5196755 -3.4000549 0.88033247 0
-2.8003953 -3.2575052 0.48549587 0
2.646163 -3.3976018 0.38599798 0
2.5834105 -3.3982484 0.69164908 0
-2.845119 -3.2569733 0.019280016 0
-2.6532669 -3.2717235 0.9821561 0
-2.8448353 -3.2568436 -0.17509496 0
-2.7954576 -3.2517614 0.58617496 0
2.6627021 -3.3949399 0.35315561 0
2.5179601 -3.3871722 0.96850246 0
2.6643045 -3.4032888 0.26609603 0
2.5910892 -3.3984807 0.70258266 0
2.5562711 -3.4057174 0.79222554 0
2.6298935 -3.4140034 0.44084328 0
2.6451778 -3.3881414 0.53828156 0
2.663533 -3.3992684 -0.35855913 0
2.6659145 -3.4116766 0.17833404 0
2.697897 -3.3891864 -0.17446417 0
2.6970994 -3.3853304 0.2662915 0
2.6608276 -3.3851745 0.52663916 0
-2.8533969 -3.2607636 0.21281308 0
2.6975381 -3.3874516 -0.26493955 0
2.6633825 -3.3984852 0.44036204 0
-2.6848078 -3.2685916 0.9728809 0
2.6752024 -3.3972299 0.38219661 0
2.6999121 -3.3989286 -0.086381048 0
2.5551322 -3.3980098 0.88100356 0
2.6994748 -3.3968155 0.17875396 0
2.6668406 -3.4165006 -0.27013093 0
2.7003701 -3.4011438 0.090714186 0
2.6284676 -3.4059532 0.61594772 0
2.5830355 -3.3940685 0.84522498 0
2.6740522 -3.3957694 0.48364431 0
2.6268837 -3.3970134 0.7033025 0
-2.8531609 -3.2606556 0.40658242 0
-2.8565321 -3.2621992 -0.37225729 0
2.6995156 -3.397012 0.35331672 0
2.5923729 -3.4063845 0.7934292 0
2.6453102 -3.3894122 0.69140196 0
2.554153 -3.3913825 0.97096866 0
2.7032044 -3.4148469 0.00064972043 0
2.710063 -3.4052041 0.2331467 0
2.6991575 -3.3952806 0.44056392 0
2.672925 -3.3943379 0.58467418 0
2.7354486 -3.3938608 -0.086775601 0
2.700927 -3.4038365 -0.36171877 0
2.6632318 -3.3977001 0.61572582 0
2.7360008 -3.3963509 0.0020265579 0
2.735198 -3.3927317 -0.17665741 0
2.7364941 -3.3985751 0.090271682 0
2.5913949 -3.4003634 0.88282359 0
-2.81253 -3.2716208 0.68549883 0
-2.801425 -3.2587028 0.78593266 0
-2.8534412 -3.2607839 -0.569444 0
2.7347212 -3.3905814 0.35333574 0
2.7102749 -3.4069912 0.38628474 0
-2.850141 -3.2592728 0.60040951 0
2.6630504 -3.3967547 0.70430183 0
2.5822716 -3.3855522 0.99913961 0
2.7371526 -3.4015434 -0.27003717 0
2.7005274 -3.4019048 0.52875382 0
2.7375939 -3.4035335 0.26583269 0
2.7706296 -3.3869503 -0.086954266 0
2.7700982 -3.3847065 0.17857204 0
2.5901401 -3.3926375 0.9727788 0
2.6261945 -3.3931217 0.88252002 0
2.7357657 -3.3952904 0.44096646 0
2.6454084 -3.3903563 0.84551001 0
-2.8361769 -3.2528791 -0.76555526 0
2.7098432 -3.4033515 0.53944898 0
2.7713196 -3.3896892 0.23328184 0
-2.7998366 -3.2568552 0.88591379 0
2.6305339 -3.4176178 0.79682362 0
2.7385731 -3.407948 -0.36490983 0
2.7733192 -3.3983052 0.089574546 0
2.6815495 -3.4052904 0.6850341 0
2.7418842 -3.4228759 0.17695273 0
2.7351956 -3.3927207 0.52860373 0
2.772311 -3.3940487 0.26585862 0
2.6638975 -3.4011674 0.79485589 0
2.7728305 -3.3962419 -0.27068537 0
2.7749736 -3.4052906 -0.0001129508 0
2.7019119 -3.4085989 0.61796689 0
-2.8437891 -3.2563646 0.79439431 0
2.6781163 -3.4009304 0.78593355 0
2.7729545 -3.3967655 -0.36404836 0
2.7096615 -3.4018195 0.69310403 0
2.7017827 -3.4079738 0.70724398 0
2.6275682 -3.4008765 0.97663403 0
2.7707617 -3.3855002 0.53891951 0
2.7779155 -3.4177096 -0.18324587 0
2.8090594 -3.3927679 -0.17997372 0
2.7733307 -3.3983538 0.44156301 0
2.7338636 -3.3867152 0.70501637 0
2.6637721 -3.4005148 0.885773 0
2.7736888 -3.40748 0.38643149 0
2.8097587 -3.3955426 0.17752683 0
2.8108897 -3.4000306 -0.00053271651 0
2.8109465 -3.4002562 -0.09051773 0
2.8110015 -3.4004743 0.088607371 0
2.6747777 -3.3966908 0.88657838 0
2.7385013 -3.4076242 0.61879128 0
2.7725663 -3.3951266 0.5295397 0
2.8099742 -3.3963974 -0.2727564 0
2.7778339 -3.4173665 0.35395968 0
2.8106508 -3.3990819 0.26561436 0
2.809118 -3.3930008 -0.36536932 0
-2.9594193 -3.2490933 0.47856805 0
2.7017643 -3.4078851 0.79757577 0
-2.8119054 -3.2708941 0.98686641 0
2.8109367 -3.4002168 0.35380608 0
2.7092774 -3.3985827 0.84738207 0
2.7733707 -3.3985226 0.61865902 0
2.8457549 -3.3904314 -0.18132681 0
2.7355664 -3.3943923 0.79638803 0
2.8359346 -3.3983295 0.2329756 0
2.8474934 -3.3969355 0.088104635 0
2.6743593 -3.3961594 0.98730111 0
2.7008188 -3.4033132 0.88807899 0
2.8112302 -3.401382 0.4421888 0
2.8458405 -3.3907516 -0.2735759 0
2.6654627 -3.4093227 0.98070234 0
2.844631 -3.3862274 -0.36600417 0
2.8093901 -3.3940806 0.5302158 0
-2.8467016 -3.2576981 0.99032974 0
-2.9629366 -3.252955 0.58096576 0
2.8490264 -3.4026701 -0.09240365 0
2.8453553 -3.3889365 0.3537665 0
2.7726269 -3.3953822 0.70772672 0
2.7725344 -3.3988101 0.6935299 0
2.8500736 -3.4065881 -0.0025212467 0
2.8362885 -3.4007237 0.38646668 0
2.7700193 -3.3843741 0.79598689 0
2.8489428 -3.4023573 0.26539105 0
2.6991992 -3.3954825 0.97883296 0
2.8509018 -3.4096861 0.17626745 0
-3.0300465 -3.2517948 0.21006453 0
2.810154 -3.3971114 0.6195631 0
-3.0375247 -3.2550905 0.01012218 0
2.7363839 -3.398078 0.88861775 0
2.8838933 -3.3924394 -0.092305511 0
2.8447659 -3.4067633 0.37153521 0
2.8388577 -3.399688 0.47617364 0
2.8353941 -3.3946712 0.53986669 0
-3.0398831 -3.2561295 -0.19063562 0
-3.0271616 -3.2505238 -0.39078104 0
2.8849387 -3.3961377 0.17647912 0
2.8489609 -3.4024255 0.44273871 0
2.8348114 -3.3948421 0.57990837 0
2.8861566 -3.4004447 0.086911693 0
2.8865309 -3.4017696 -0.0031377375 0
2.771822 -3.3934615 0.84771746 0
2.884692 -3.3952646 -0.27695888 0
-2.9718552 -3.2627466 0.68319821 0
2.848599 -3.4010711 0.53166991 0
2.8882451 -3.4078326 -0.18677831 0
2.8879828 -3.4069054 0.2651338 0
2.7374103 -3.4027054 0.98287094 0
2.8353255 -3.3942068 0.69389522 0
2.9003792 -3.4027083 0.23272766 0
-3.044982 -3.2583764 0.40962037 0
2.922075 -3.3933601 0.086630389 0
2.8854594 -3.3979797 0.44302124 0
-3.0260434 -3.250031 -0.59368348 0
2.8493292 -3.4038033 0.62156737 0
2.8407836 -3.4019942 0.68276143 0
2.8112142 -3.4013181 0.80108774 0
-3.0288467 -3.2512662 0.60878086 0
2.8309155 -3.3901768 0.78593606 0
2.9246061 -3.4018471 -0.0955351 0
2.8895459 -3.4124341 -0.37596625 0
2.922529 -3.3948822 0.26516715 0
2.8160458 -3.4204881 0.71322238 0
2.9252529 -3.4040155 -0.0047287047 0
2.8906457 -3.4163249 0.35443708 0
2.7769921 -3.4138119 0.89425391 0
2.9251602 -3.4037049 -0.18800923 0
-2.9654503 -3.2557147 0.88845217 0
-2.9800875 -3.2717845 0.78593636 0
2.9263611 -3.4077318 0.17529008 0
2.8844795 -3.3945134 0.62161183 0
2.8879337 -3.4067318 0.53305995 0
2.9236574 -3.3986657 -0.37497282 0
2.9260206 -3.4065902 -0.28213131 0
2.8105297 -3.398602 0.8926813 0
2.851125 -3.4105213 0.71309078 0
2.9256895 -3.4054799 0.35442591 0
2.7753963 -3.4070754 0.98628736 0
2.9039252 -3.4245398 0.38705844 0
2.8081388 -3.3891153 0.98369569 0
2.9016473 -3.4105151 0.54121935 0
2.8491535 -3.4031453 0.803285 0
2.9254587 -3.4047058 0.44394445 0
-2.9664423 -3.256804 0.99114871 0
2.8376222 -3.4097497 0.85082179 0
2.9243541 -3.4010017 0.53346729 0
2.9604135 -3.393652 0.35440585 0
2.9646697 -3.4072127 -0.098204702 0
2.8395274 -3.4004898 0.8890661 0
2.9643064 -3.4060545 0.17479217 0
2.9655249 -3.4099369 -0.0068710148 0
2.96545 -3.4096987 0.084152967 0
2.8470573 -3.3953035 0.89406371 0
2.8874617 -3.4050615 0.71378303 0
2.9637973 -3.4044333 0.26479691 0
2.9659407 -3.4109867 0.23239365 0
2.9006855 -3.4045937 0.69566965 0
2.96561 -3.4102077 -0.28560472 0
2.9674966 -3.416219 -0.1927436 0
2.8854086 -3.3977997 0.80415171 0
2.9990411 -3.3937469 -0.097841829 0
-3.0437984 -3.2578549 0.81040996 0
2.9649224 -3.4080181 -0.38060486 0
2.9603193 -3.393352 0.53374815 0
2.9635839 -3.4037535 0.44448149 0
2.9222078 -3.3938053 0.71360594 0
2.9264419 -3.4080026 0.62463963 0
2.9665473 -3.4144104 0.38706708 0
3.0023978 -3.4039288 0.17428675 0
2.9591963 -3.3897746 0.62367636 0
2.8426468 -3.4042256 0.99253452 0
2.884788 -3.3956048 0.89644057 0
2.8484793 -3.4006231 0.98939699 0
3.0022981 -3.4036262 0.26460451 0
2.9647026 -3.4039972 0.54143572 0
3.0047781 -3.4111488 0.082978278 0
3.0037794 -3.4081194 -0.19340509 0
3.0052016 -3.4124331 -0.0086550117 0
3.0119057 -3.4035151 0.25464058 0
3.0022855 -3.4035881 0.35479483 0
2.9009438 -3.4061825 0.85158056 0
3.0097811 -3.4011145 0.36189312 0
3.0053797 -3.4129732 -0.28902483 0
2.9609869 -3.3954792 0.71565694 0
3.0394962 -3.3980608 0.17395617 0
3.0077295 -3.3987961 0.46852398 0
3.041317 -3.4033294 0.082603827 0
-3.1457779 -3.26068 0.5748812 0
2.9276652 -3.4121051 0.8091132 0
3.0019083 -3.4024441 0.53561985 0
2.8862085 -3.400629 0.99207914 0
3.0382569 -3.3944755 0.35484499 0
3.0054817 -3.4132836 0.44562948 0
3.0075824 -3.4196548 -0.38707441 0
3.0309463 -3.4133942 0.23214641 0
3.0407429 -3.4016683 -0.28916365 0
3.0427277 -3.4074111 -0.19569647 0
-3.1396809 -3.2543602 0.68067157 0
3.0445867 -3.4127896 -0.010243446 0
3.0420687 -3.4055047 0.26435137 0
3.0001354 -3.3970664 0.62606835 0
3.0386577 -3.3956351 0.44530934 0
3.0461237 -3.4172368 -0.10375237 0
3.0129955 -3.4047468 0.57415038 0
2.9677744 -3.4213383 0.69809645 0
2.9268973 -3.4095297 0.9022395 0
3.0315547 -3.4165637 0.38730997 0
2.9627633 -3.39305 0.85126126 0
3.043222 -3.4088407 -0.38738382 0
2.9640813 -3.4053376 0.80992675 0
-3.23387 -3.2494266 -0.20598257 0
3.0805273 -3.4025126 0.081527442 0
3.0355556 -3.3866596 0.62624896 0
3.0806248 -3.4027822 0.17300421 0
3.0302093 -3.4095552 0.54234517 0
3.0819473 -3.4064388 -0.011037797 0
-3.1425505 -3.2573347 0.78593922 0
-3.2391019 -3.2516432 0.20671582 0
3.0794272 -3.3994713 0.26423323 0
-3.226089 -3.24613 0.41243753 0
3.0826311 -3.4083288 -0.10435009 0
3.026557 -3.3905275 0.69637883 0
2.9255397 -3.4049778 0.99613774 0
2.9629941 -3.4018741 0.9029882 0
3.0438614 -3.4106913 0.53747761 0
3.0825646 -3.4081452 -0.29379272 0
3.0184581 -3.4109197 0.67991078 0
-3.2545485 -3.2581878 -0.00038301945 0
3.0059528 -3.414712 0.72073817 0
-3.1377015 -3.2523086 0.89114034 0
3.0815427 -3.4053199 -0.38991797 0
3.0950496 -3.409375 0.23199642 0
3.0835116 -3.4107628 0.35537639 0
3.01159 -3.4031584 0.78593975 0
3.087079 -3.4206254 -0.20099264 0
-3.2457104 -3.2544429 -0.41560525 0
3.0038476 -3.4083266 0.8128475 0
3.1190486 -3.3988554 -0.19917923 0
-3.2263389 -3.2462356 0.61817741 0
3.0951374 -3.4097989 0.38741118 0
3.1222901 -3.4074316 0.079856351 0
3.0418639 -3.4049118 0.72108698 0
3.1228123 -3.4088125 -0.10662952 0
3.001677 -3.401742 0.90569466 0
3.008749 -3.3999481 0.89162797 0
3.0789237 -3.3980794 0.62934637 0
3.087085 -3.4206419 0.44739115 0
3.0835073 -3.4107511 0.53863907 0
3.1225641 -3.4081559 0.26382986 0
3.124722 -3.4138646 0.1716578 0
-3.2385864 -3.2514248 -0.62467325 0
3.1264405 -3.4184117 -0.014311671 0
3.0944979 -3.406707 0.54285759 0
3.1200724 -3.4015639 0.44705307 0
3.1249914 -3.4145775 -0.29858327 0
3.0297866 -3.4073532 0.85448188 0
3.0426278 -3.4071219 0.81503707 0
3.1230893 -3.4095457 -0.39484161 0
-3.1475844 -3.2625525 0.99711937 0
3.1180453 -3.3962016 0.53849334 0
3.1635458 -3.4095533 -0.014938384 0
3.1633048 -3.4089425 0.078440279 0
3.1633365 -3.4090226 -0.10897294 0
3.1628332 -3.4077466 0.17123733 0
3.0116622 -3.4032402 0.99763596 0
3.0828195 -3.4088497 0.72383785 0
3.0940235 -3.4044135 0.69872439 0
3.1309378 -3.4303091 0.35598356 0
3.1635637 -3.4095988 0.26354852 0
3.1590993 -3.4039166 0.38754472 0
3.1619515 -3.4167759 0.23162538 0
-3.2395334 -3.251826 0.8259207 0
3.0451088 -3.4143009 0.91164941 0
3.167439 -3.4194236 -0.20629764 0
3.0820961 -3.4068494 0.81754512 0
3.1991048 -3.3965285 0.078277647 0
3.1622925 -3.4063761 0.44808549 0
3.1659701 -3.4156992 0.35596597 0
3.1646385 -3.4123235 -0.3995468 0
3.1676488 -3.419955 -0.30328947 0
3.1269958 -3.4198802 0.63390446 0
-3.3178041 -3.2471826 0.56968397 0
3.2038512 -3.4080753 -0.016618848 0
3.1950595 -3.408262 0.23981452 0
3.1600864 -3.4083674 0.54366297 0
3.204453 -3.4095395 -0.11148176 0
3.0810969 -3.4040873 0.91219652 0
3.20471 -3.4101641 0.1702999 0
3.163857 -3.4103425 0.54109144 0
3.1941159 -3.4072554 0.34988195 0
3.20503 -3.410943 -0.20749825 0
3.1191487 -3.3991206 0.81863433 0
3.0957084 -3.4125597 0.85669154 0
3.2051277 -3.4111807 0.26325187 0
3.1260617 -3.4174089 0.72748518 0
3.1573734 -3.3961351 0.69917762 0
-3.3186018 -3.2479634 0.67784584 0
3.2064817 -3.4144745 -0.30546504 0
3.1637454 -3.4100592 0.63440514 0
3.1980968 -3.4115019 0.45890459 0
3.2066274 -3.4148283 -0.40437257 0
3.1615534 -3.4045022 0.72760332 0
3.2087405 -3.4199691 0.356314 0
-3.3142865 -3.2437398 0.78594238 0
3.1197271 -3.4006507 0.91454601 0
3.2441654 -3.4056027 -0.11333978 0
3.2274694 -3.4156377 0.23138914 0
3.2413647 -3.3990574 -0.30529791 0
3.1955104 -3.4087431 0.56829053 0
3.2460113 -3.4099159 -0.018829703 0
3.2444875 -3.4063551 -0.20964271 0
3.2078955 -3.4179137 0.44953924 0
3.2047977 -3.4103782 0.54243243 0
3.2467775 -3.4117069 0.16937253 0
3.1919065 -3.4048984 0.67729837 0
3.2500367 -3.4193237 0.074714869 0
3.228272 -3.4190261 0.38807169 0
3.2032599 -3.4066367 0.6358279 0
-3.3129506 -3.2424324 0.89385515 0
3.162828 -3.4077332 0.82325494 0
3.250071 -3.4194036 0.26281607 0
3.2476273 -3.4136922 0.35647553 0
3.1605179 -3.4103124 0.85808921 0
3.2474091 -3.4131827 -0.40819293 0
3.2841082 -3.4013383 -0.11525115 0
3.2854023 -3.4042466 -0.020126224 0
3.2471876 -3.4126651 0.45008212 0
3.2279627 -3.4177215 0.54493594 0
-3.4412551 -3.2427361 -0.22251493 0
-3.4427161 -3.2433307 0.20348904 0
3.1947937 -3.4079785 0.78594333 0
3.2883434 -3.4108565 0.074053347 0
3.2060118 -3.4133308 0.73153102 0
3.2856107 -3.4047148 -0.31058085 0
3.29181 -3.408191 0.23124872 0
-3.459456 -3.2501419 -0.010139138 0
3.2901652 -3.4149508 -0.21472549 0
3.2492919 -3.4175832 0.54451954 0
3.1670794 -3.4185121 0.92233139 0
3.2047725 -3.4103167 0.82676667 0
3.2915039 -3.406975 0.38812941 0
3.2814794 -3.3954298 0.5438695 0
3.2937362 -3.4229767 0.16784684 0
3.2896256 -3.4137385 0.3567695 0
3.1941907 -3.4073353 0.89466608 0
-3.4499331 -3.2462671 0.41604698 0
3.2931907 -3.4217508 0.26247746 0
3.2487636 -3.416348 0.63908875 0
3.2880955 -3.4102991 0.45082599 0
-3.4517751 -3.2470167 -0.43862301 0
3.290385 -3.4154451 -0.41335446 0
3.2445865 -3.4065869 0.73290932 0
3.2021961 -3.4040492 0.92226279 0
3.2400248 -3.3959258 0.82683766 0
3.3282545 -3.4053264 -0.21607983 0
3.3260875 -3.4006381 -0.31358367 0
3.2319374 -3.4345014 0.70390761 0
3.3303931 -3.4099531 0.16767491 0
3.3324962 -3.4145038 -0.023661703 0
-3.4445772 -3.2440879 0.62869734 0
3.2265236 -3.4116457 0.86006033 0
3.2934484 -3.4146917 0.5455966 0
3.3350353 -3.4199972 0.07163766 0
3.3290367 -3.4070191 0.4515557 0
3.3306756 -3.4105642 -0.4166227 0
3.3380728 -3.426569 -0.12242103 0
3.3331304 -3.4158754 0.35711712 0
3.3359098 -3.4218891 0.26216727 0
3.2917714 -3.4185612 0.64144999 0
-3.4573689 -3.2492929 -0.65654665 0
3.2881882 -3.4105077 0.73624074 0
3.3729045 -3.4088995 0.071104527 0
-3.4370818 -3.2410381 0.84152079 0
3.3720417 -3.4071002 -0.22001809 0
3.3738694 -3.4109111 -0.12259287 0
3.3748014 -3.4128537 0.16654582 0
3.295661 -3.4234703 0.70429385 0
3.3624811 -3.4234812 0.23068035 0
3.3721776 -3.4073837 -0.31952608 0
3.329042 -3.4070301 0.6420508 0
3.360323 -3.4154079 0.3885738 0
3.3349695 -3.4198546 0.54774863 0
3.3797264 -3.423121 -0.027089685 0
3.2522349 -3.4244602 0.931077 0
3.3754048 -3.4141116 0.35740364 0
3.4112439 -3.3983371 -0.12340185 0
3.3729894 -3.4090762 0.45263463 0
3.3797965 -3.4232669 0.26181912 0
3.3590517 -3.4106529 0.54625583 0
-3.5162458 -3.2492285 0.56292319 0
-3.5056791 -3.239464 0.67482984 0
3.4121513 -3.4001613 -0.22222847 0
3.293304 -3.4220054 0.83562636 0
