# .PCD v0.7 - Point Cloud Data file format
VERSION 0.7
FIELDS x y z intensity
SIZE 4 4 4 4
TYPE F F F F
COUNT 1 1 1 1
WIDTH 1443
HEIGHT 1
VIEWPOINT 0 0 0 1 0 0 0
POINTS 1443
DATA ascii
-4.3642597 9.3945704 2.8317623 0
-4.2564187 9.7662802 1.3586931 0
10.096676 -3.5461862 0.92286348 0
-9.7750502 3.8092589 2.305408 0
9.8128662 -3.543546 2.5580521 0
3.2147617 10.008834 2.2096317 0
10.307591 3.0109408 -0.3449586 0
10.661806 0.88617665 -0.98687088 0
-10.235698 -3.2049727 -0.64074075 0
9.9052715 -3.5462284 2.1836987 0
10.663005 -0.88616806 -0.98706079 0
10.31642 3.0093658 0.12228608 0
-9.3129549 3.922159 3.6631255 0
10.315568 3.0128603 0.27180088 0
10.300576 3.0092528 -0.65498245 0
-10.242404 -3.2062352 0.63858712 0
10.305184 3.0103614 0.57941258 0
10.315626 3.0091441 0.38340974 0
-4.2329378 9.8761044 0.41145623 0
-10.262998 -3.2040324 0.18214715 0
-4.3682222 9.4117002 2.8246007 0
10.276739 3.0312228 0.91919017 0
3.2057803 10.031242 2.1803098 0
10.323529 3.011353 -0.14033926 0
-10.017425 3.7436545 1.1432669 0
-4.2303882 9.8694487 0.65808308 0
-10.261792 -3.203639 0.42329347 0
-4.237402 9.8877592 0.16358769 0
-4.2718172 9.7617502 1.5005078 0
10.668073 1.0138682 -0.98786354 0
10.656031 -1.1413722 -0.98624539 0
10.324669 3.0116715 -0.40372837 0
-4.4002771 9.2923546 3.1831026 0
10.314314 3.0087769 -0.66693246 0
10.673786 -1.0139091 -0.98876846 0
10.074512 3.0830538 2.2248755 0
10.319568 3.0102458 0.64381516 0
10.664358 1.141551 -0.98756456 0
10.30508 3.0103366 0.88720727 0
3.2159896 9.9977531 2.4009397 0
10.264831 3.025667 1.2483747 0
9.8989334 3.1431525 2.8707473 0
-10.114568 3.713989 0.21317029 0
9.8945198 -3.5405369 2.4002833 0
10.662089 1.2692578 -0.98778439 0
10.315166 3.0090153 0.90412915 0
-10.018188 3.743953 1.3827283 0
10.314636 3.0088673 -0.93318439 0
10.106211 -3.5513184 1.2566037 0
-10.276635 -3.2084851 0.66346622 0
-9.4243441 3.8925059 3.5202103 0
10.652525 1.3966646 -0.98713708 0
10.669119 -1.2695093 -0.9888984 0
-4.2356081 9.8830767 0.9041121 0
10.316839 3.0131664 -0.97096241 0
-10.249601 -3.2075901 1.0652647 0
10.656549 -1.3968663 -0.98777521 0
-10.115441 3.7141926 -0.63962471 0
9.9017763 -3.5450315 2.4421721 0
-10.272687 -3.207196 0.90410507 0
-4.2307653 9.8704338 1.1501653 0
10.647261 1.5242579 -0.98746097 0
-4.3166451 9.5863934 2.4764915 0
10.64771 -1.5242869 -0.98753226 0
-10.139231 3.7197378 -0.21373492 0
3.1308103 10.339247 -0.071712017 0
-4.2623496 9.7749949 1.7363882 0
10.074088 3.0813315 2.4109344 0
-10.128131 3.7171504 0.6384728 0
10.636322 1.6514885 -0.9871738 0
10.311693 3.0119281 1.1967278 0
10.317345 3.0096242 1.1643898 0
-4.2030587 9.9625435 -0.14017296 0
-4.3316483 9.5146074 2.7777321 0
-10.267815 -3.2056053 1.1445282 0
10.645087 -1.6521798 -0.98856628 0
3.2112365 9.9847898 2.6522908 0
-4.199419 9.9570265 -0.51838052 0
-4.2666721 9.7525873 1.9328318 0
3.132092 10.347921 -0.4054383 0
-10.021626 3.7452989 1.6229494 0
3.131104 10.341235 0.59140432 0
3.2155654 10.013782 2.5456576 0
10.628888 1.7790201 -0.98773313 0
3.1334958 10.357421 0.25971007 0
10.271099 3.0285916 1.5811188 0
3.1282568 10.321965 0.92219639 0
3.13047 10.336944 -0.73938513 0
10.061763 3.0768816 2.5593352 0
10.636689 -1.779748 -0.98897409 0
-4.2111373 9.9747868 0.23697293 0
10.592347 2.0318711 -0.98626935 0
10.617361 -1.9062388 -0.98793197 0
10.108623 -3.5526168 1.592155 0
-10.120379 3.7153437 1.0641203 0
-10.24074 -3.2059219 1.4925895 0
-9.7688961 3.8077312 2.7313745 0
10.623551 1.9069058 -0.98891795 0
3.2053075 10.027693 2.578382 0
10.576069 2.1584215 -0.98628724 0
-4.2080641 9.970129 0.61432958 0
-9.592555 3.8528187 3.2680097 0
9.8244991 -3.5500243 2.9041085 0
10.604504 -2.0333574 -0.98820913 0
-4.1990123 9.9564095 -0.89916384 0
10.308421 3.0111406 1.5073731 0
-4.2367907 9.8861637 1.3972712 0
-10.269011 -3.2059958 1.3852711 0
10.325961 3.0120325 1.4253502 0
10.56561 2.2858832 -0.98752725 0
10.540483 -2.4111619 -0.98670769 0
-4.3704014 9.4030628 3.2210217 0
-4.2033834 9.9630346 0.99160373 0
9.9025621 -3.5453005 2.7029142 0
-4.2573285 9.7676172 2.1149929 0
10.574039 -2.2871594 -0.98887753 0
10.25779 3.022382 1.9137921 0
10.517999 2.5367947 -0.98659968 0
-4.2007504 9.9993658 0.64316869 0
10.547707 2.4123619 -0.98786759 0
10.604113 -2.1622584 -0.99077034 0
10.490511 2.6614552 -0.98597372 0
-10.029117 3.7482295 1.8645325 0
10.457307 2.9645991 -0.074941099 0
3.1299715 10.33357 1.255569 0
-4.2338166 9.8783998 1.6439385 0
9.9115982 -3.5459647 2.7222338 0
10.529599 -2.5388925 -0.98846674 0
10.101591 -3.5488322 1.9290895 0
10.318364 3.0099089 1.6861165 0
10.464787 2.9679594 0.25881207 0
10.471581 -2.7878287 -0.98701918 0
10.4533 2.9627995 0.59236801 0
-10.271309 -3.2067463 1.626677 0
10.505773 -2.6644413 -0.98843682 0
10.078906 3.0825641 2.7311263 0
10.373301 -3.1578822 -0.98516405 0
10.445455 -2.9127998 -0.98719323 0
10.479424 2.7894802 -0.98828876 0
-9.880209 -3.2075584 3.275712 0
3.2140644 9.9925032 2.9090767 0
-10.129301 3.7174232 1.4922695 0
10.45343 2.9145987 -0.98848808 0
10.476231 2.9731004 -0.4118768 0
-4.3183532 9.5888271 2.8621399 0
-10.018847 3.7442112 2.1053138 0
10.422535 -3.0386016 -0.98818088 0
-4.2047706 9.9651375 1.3706305 0
3.2150607 10.010674 2.8853123 0
-4.4012408 9.2939606 3.6264863 0
10.319818 3.0138834 1.8228478 0
-4.2662559 9.7518463 2.3696716 0
10.468647 2.9696934 -0.74876285 0
-10.249259 -3.2075255 1.9240732 0
-4.2063546 10.00969 1.0792522 0
-4.2336855 9.8780575 1.8917656 0
10.462533 2.9669468 0.92664123 0
10.062097 3.0770433 2.9021294 0
10.282985 -3.5300286 -0.98721731 0
10.323766 -3.4089015 -0.98799658 0
3.1309829 10.340415 1.5912161 0
3.0986149 10.473767 0.22489941 0
9.8995457 -3.5442677 2.9649417 0
-10.276133 -3.2083213 1.8692312 0
10.322635 3.0111027 1.9485168 0
10.375865 -3.2906704 -0.99091554 0
10.342226 -3.5479271 -0.045063138 0
3.0982094 10.470349 0.62644041 0
10.266601 3.0264928 2.2538793 0
10.344637 -3.5486555 0.26886249 0
10.45505 2.9635854 1.2612453 0
3.2051351 10.026398 2.9821687 0
10.099972 -3.5479605 2.2704058 0
-10.015737 3.7429941 2.3479757 0
-4.2303762 9.8694181 2.1396165 0
-4.2006598 9.9991999 1.5156851 0
10.31406 3.0124977 2.1392248 0
-10.125933 3.7166381 1.9221354 0
10.552177 2.9368718 0.26807964 0
-4.2642775 9.7778282 2.5013175 0
-9.7736626 3.8089142 3.1653156 0
-10.263824 -3.2043021 2.1109719 0
-4.3416734 9.5318766 3.2238512 0
10.560058 2.9386492 -0.047968864 0
10.354095 -3.551513 0.58270991 0
-4.2095709 9.9724131 1.7529178 0
10.366804 -3.5553527 -0.36243027 0
3.098058 10.469073 1.0283437 0
10.564391 2.9396267 -0.36542338 0
10.558174 2.9382243 0.58342755 0
10.362371 -3.5540135 -0.67982018 0
3.1311991 10.341878 1.9293773 0
10.3217 3.0108416 2.2116356 0
-9.5841923 3.8492758 3.722095 0
10.38647 -3.5438349 -0.42657137 0
-4.1501679 10.166682 0.2347436 0
-4.1527076 10.170654 -0.14788204 0
10.399471 -3.550595 -0.085598707 0
10.461872 2.96665 1.5992508 0
10.56886 2.9406347 -0.68515182 0
-4.1493573 10.165414 -0.53128403 0
10.364272 -3.5545878 0.89767003 0
10.55727 2.9380202 0.89921892 0
10.403184 -3.5525253 0.25533247 0
3.0787535 10.550487 0.38589108 0
3.0813193 10.558159 0.12550449 0
-4.1521811 10.16983 0.61672151 0
3.0764532 10.54361 0.64531827 0
-10.256851 -3.2089546 2.3597317 0
-4.2638493 9.7475615 2.8105206 0
-10.262537 -3.2038822 2.355058 0
10.260173 3.0234942 2.5954165 0
-10.022547 3.7456586 2.5938263 0
3.0979223 10.467928 1.4316425 0
-4.1965299 9.9915924 1.9543591 0
-4.320569 9.5919847 3.2545033 0
10.407331 -3.5546815 0.59614897 0
-4.1460395 10.160226 0.99863327 0
-4.2370138 9.8867455 2.3922977 0
10.403512 -3.5526965 -0.77276504 0
10.313407 3.0123405 2.4607222 0
3.077399 10.546437 0.90412748 0
-4.1529312 10.171003 -0.91817844 0
10.365069 -3.5548286 1.2136717 0
10.108441 -3.5525191 2.6189029 0
10.400975 -3.5513771 0.93708742 0
-4.2531857 9.7615299 2.8863883 0
10.564135 2.9395688 1.2168002 0
3.0731404 10.533705 1.1626935 0
-4.2103853 9.9736471 2.1379628 0
3.1306615 10.338239 2.2704015 0
10.32688 3.0122895 2.4770379 0
-10.124006 3.7161891 2.3556952 0
10.467188 2.969038 1.9404306 0
-9.8935118 -3.2123168 3.7372541 0
-4.2297831 9.8678684 2.6411312 0
-10.262815 -3.2039728 2.6009543 0
10.673098 2.9089119 -0.084113359 0
10.365801 -3.5550497 1.5316601 0
3.2059555 10.032557 3.3944426 0
10.402909 -3.5523827 1.2795923 0
10.670199 2.9076595 -0.42509753 0
-10.023247 3.7459326 2.840672 0
-4.1523218 10.170051 1.3831654 0
-9.8701668 3.7755497 3.3203607 0
-4.1344051 10.256765 0.64658737 0
10.685059 2.9140809 0.25567281 0
10.67544 2.909924 0.5955441 0
10.574059 2.941807 1.5372062 0
10.25082 3.0191305 2.9411411 0
3.0792031 10.551831 1.4224317 0
10.668071 2.9067397 -0.76805341 0
-10.236363 -3.2050982 2.7952249 0
-4.3351827 9.5206957 3.6698132 0
10.312837 3.0083642 2.7411528 0
3.1004212 10.488994 1.8400784 0
-9.7754574 3.80936 3.6058354 0
11.019487 -0.82407182 -0.98607504 0
10.952659 -1.480391 -0.98596025 0
11.043585 -0.49493754 -0.98692679 0
-4.1283631 10.245245 1.0882194 0
10.995451 1.1531864 -0.98678923 0
-4.1969728 9.9924078 2.3977222 0
10.70252 2.7749693 -0.98500931 0
10.78129 2.4547226 -0.98564112 0
10.996956 -1.1533381 -0.98703778 0
11.046512 0.49506354 -0.98740828 0
10.909201 -1.807472 -0.98657632 0
11.05687 0.16507922 -0.98755419 0
10.852655 2.1325786 -0.98657286 0
3.0748255 10.538742 1.6813219 0
10.319228 3.0137413 2.7891824 0
10.677244 2.9107037 0.93575001 0
10.916051 1.8085619 -0.98771632 0
10.788972 -2.4564016 -0.98693347 0
10.711185 -2.7771254 -0.98647678 0
11.064544 -0.1651893 -0.98881555 0
-10.50181 3.6200721 0.20693707 0
10.967654 1.482338 -0.98844552 0
10.859973 -2.1339591 -0.98779666 0
10.102257 -3.5491903 2.9692833 0
11.036854 0.82531953 -0.98893654 0
10.365739 -3.5550311 1.8523092 0
-4.208796 9.9712391 2.526546 0
3.1308708 10.339657 2.6170084 0
10.466738 2.9688356 2.2845857 0
-10.509804 3.6218152 -0.23155111 0
-4.1489286 10.164744 1.7686663 0
10.563768 2.939486 1.8578029 0
10.539203 -3.4143956 -0.98744965 0
10.413753 -3.5580204 1.6255822 0
-10.265565 -3.2048707 2.8492436 0
3.0419221 10.700804 0.25399673 0
3.042587 10.705798 -0.090092719 0
10.643599 -3.1008167 -0.98932195 0
-4.0810819 10.352477 0.23264122 0
-10.506369 3.6210661 0.64454424 0
-4.2340937 9.8791227 2.8970113 0
-4.1213398 10.231853 1.5303757 0
-4.2501307 9.75704 3.280158 0
-4.2692623 9.7572002 3.2607365 0
10.29926 3.0045693 3.0067067 0
3.0421081 10.702202 0.59742785 0
-10.532517 3.6152589 0.40515935 0
-4.0893693 10.365855 -0.15477186 0
3.0434151 10.712017 -0.4359045 0
-10.539816 3.6178758 0.15446246 0
10.681143 2.9123883 1.2775404 0
-10.128325 3.7171957 2.7951853 0
3.0980961 10.469396 2.2470341 0
-10.523595 3.6248226 -0.67273879 0
3.0401745 10.687682 0.94053483 0
10.347595 -3.5495493 2.1728492 0
3.0420775 10.701973 -0.78226089 0
-10.532547 3.6152697 0.6547718 0
3.0779004 10.547936 1.9426079 0
-10.499453 3.6195581 1.0823958 0
-4.0888081 10.382105 0.13471413 0
-4.0914807 10.369264 0.61910331 0
10.401874 -3.5518444 1.9713526 0
-4.0897532 10.384801 0.39151442 0
10.553512 2.9371727 2.1812315 0
-4.0969844 10.378148 -0.54459512 0
-4.0875793 10.378598 0.64811087 0
-10.543053 3.6190364 0.90411615 0
-4.0910826 10.368621 -0.93466902 0
3.0405841 10.690758 1.285428 0
3.0732529 10.53404 2.2026377 0
-4.0924926 10.370897 1.0064826 0
-4.1520815 10.169675 2.1589696 0
-4.0889482 10.382504 0.90412414 0
10.687144 2.9149821 1.6220045 0
-10.533492 3.6156082 1.1534834 0
-10.232311 -3.2043352 3.2390656 0
10.474686 2.9724064 2.6355362 0
10.825131 2.8622735 -0.38627023 0
-4.1966133 9.9917459 2.8457549 0
3.1311779 10.341734 2.9695289 0
-4.207489 9.9692574 2.9203558 0
10.839808 2.8653638 -0.061475456 0
10.837664 2.8649123 0.2634784 0
-4.0884275 10.38102 1.1601973 0
-4.1278019 10.244175 1.9777477 0
-10.513836 3.6226945 1.5232649 0
10.840637 2.8655384 0.58797455 0
3.0399175 10.685753 1.6316514 0
-4.0906501 10.367923 1.3949428 0
10.838182 2.8650215 -0.71548414 0
10.672523 2.908664 1.9663358 0
-9.879981 3.7795432 3.7881269 0
10.361027 -3.5536072 2.5040524 0
10.555041 2.9375176 2.5111313 0
-10.54895 3.6211512 1.4038873 0
3.0986814 10.474328 2.6619325 0
10.877378 2.8429906 -0.092623472 0
10.409721 -3.5559247 2.3243508 0
-4.0886846 10.381752 1.4165847 0
10.84347 2.8661346 0.91307139 0
10.880249 2.8441825 -0.43985236 0
-10.120275 3.7153192 3.2380619 0
10.818409 2.8608577 1.2370691 0
-10.533237 3.6155171 1.6532836 0
3.0776279 10.547122 2.4674025 0
-4.1433382 10.156001 2.5497332 0
10.893333 2.8496158 0.25276434 0
10.891789 2.8489745 0.59860635 0
-4.0550103 10.500882 0.64974022 0
10.462585 2.9669704 2.9869153 0
-4.0876179 10.378709 1.6732855 0
-4.2695894 9.7577829 3.7162666 0
-4.0880342 10.3637 1.785358 0
10.879698 2.8439536 0.94415498 0
10.892593 2.8493085 -0.79068673 0
-10.508653 3.6215644 1.9654083 0
10.925811 2.8305285 0.35806525 0
10.710578 -3.5505059 -0.45208883 0
10.931094 2.8318431 -0.19089603 0
10.935736 2.832998 0.083570004 0
10.929155 2.8313608 -0.46665978 0
3.0421257 10.702333 1.9839516 0
-4.1262002 10.241121 2.4271986 0
-4.0233722 10.564002 -0.16183853 0
10.727954 -3.5592268 0.25023091 0
10.396342 -3.5489681 2.6772726 0
-10.54169 3.6185479 1.905113 0
10.681396 2.912498 2.3183532 0
10.735603 -3.5630658 -0.10158372 0
10.358676 -3.552897 2.8372099 0
10.936554 2.8332016 0.63099539 0
10.834463 2.8642383 1.5664172 0
10.727394 -3.5589454 0.60115802 0
10.879698 2.8439536 1.2912002 0
-4.0593066 10.509367 1.0988655 0
-4.0876508 10.378802 1.9309835 0
10.928353 2.8311613 0.90414476 0
-4.2110677 9.9746809 3.3227773 0
3.0790572 10.551395 2.7330232 0
-4.1962738 9.9911203 3.2998686 0
-4.0271411 10.570285 0.6215148 0
10.563941 2.9395249 2.8485281 0
2.9806728 10.930762 0.21719933 0
10.730886 -3.5606978 -0.80900848 0
10.950948 2.8367832 -0.74727166 0
-4.0400887 10.59187 0.2294457 0
-10.531485 3.6148887 2.156141 0
-4.0363903 10.585705 -0.55734104 0
10.728455 -3.559478 0.95256448 0
-10.176129 3.7023399 3.3797207 0
3.0987616 10.475004 3.0818615 0
10.821338 2.8614745 1.8950298 0
2.9811988 10.935812 0.63428926 0
-4.0289292 10.573266 -0.95215225 0
-10.24831 -3.2073469 3.6952977 0
-4.0854149 10.372423 2.1890078 0
10.940263 2.8341246 1.1773841 0
10.657915 2.9023507 2.6677248 0
-4.0943217 10.37385 2.1814654 0
-4.0570126 10.504837 1.549027 0
-4.1484404 10.16398 2.9506302 0
3.0421209 10.702298 2.3380871 0
-4.0339279 10.5816 1.0143139 0
2.9808722 10.932673 1.0518115 0
10.895248 2.8504112 1.6424398 0
-10.517969 3.6235957 2.4133382 0
10.931362 2.8319099 1.4504924 0
10.74133 -3.5659401 1.306499 0
3.0807948 10.55659 3.0010786 0
-10.126066 3.7166693 3.6913643 0
10.407933 -3.5549948 3.0424104 0
-4.126873 10.242404 2.8823588 0
-10.552288 3.6223481 2.4126649 0
10.846515 -3.5587075 -0.070576549 0
-10.418614 -3.2047851 3.3928394 0
-4.0372553 10.587147 1.4088881 0
10.725897 -3.5581944 1.6597233 0
10.884999 2.8461552 1.9934607 0
10.83428 2.8641999 2.231534 0
10.936748 2.8332498 1.7247963 0
10.860301 -3.5626583 0.26015854 0
11.091165 2.7758231 -0.10167485 0
11.090691 2.7788861 -0.073458791 0
2.9818225 10.941799 1.4717226 0
10.861157 -3.5629034 -0.40410823 0
10.854705 -3.5610545 0.59113979 0
-4.0578671 10.506524 2.0024476 0
-4.0942249 10.397559 2.4528196 0
3.0416398 10.698687 2.6962276 0
-4.0935068 10.372534 2.5801957 0
10.853701 -3.5607667 -0.73792863 0
-4.0234795 10.564181 1.8022513 0
10.8415 -3.5572705 0.9217031 0
-10.534738 3.616055 2.6652064 0
11.107225 2.7821214 -0.40906131 0
10.923389 2.8299263 1.99845 0
11.101534 2.7799561 0.60154355 0
11.10554 2.7817914 0.59221506 0
2.9449835 11.078733 -0.10884589 0
11.112093 2.7841647 -0.45666176 0
-10.908764 3.5196924 -0.25090879 0
2.9443283 11.073212 -0.46617538 0
11.122054 2.7850225 0.25889111 0
-4.084538 10.369921 2.7104142 0
10.718 -3.5542309 2.0161135 0
-4.1961961 9.9909773 3.7614608 0
3.0988703 10.475921 3.508729 0
11.107499 2.7821748 -0.74586654 0
2.9460402 11.087642 0.24750614 0
11.131403 2.7918611 0.24929512 0
-10.512457 3.6223938 2.86397 0
2.9453311 11.081665 0.60378861 0
10.685103 2.9141002 3.0357647 0
10.846344 -3.5586584 1.2541599 0
-3.9819012 10.769732 0.1980263 0
-3.9748192 10.755235 0.65309203 0
-10.929479 3.5238996 0.19997799 0
10.823523 2.8619347 2.567976 0
2.9806256 10.930307 1.8923049 0
-10.915315 3.5210228 0.65116954 0
11.11547 2.7855108 -0.8130827 0
11.105973 2.7817252 0.95391011 0
-4.1535673 10.171998 3.3587232 0
-3.9659648 10.784698 -0.17027062 0
-10.917166 3.5213985 -0.70456922 0
2.9454648 11.08279 -0.82717252 0
11.117868 2.7842038 0.92631006 0
10.89647 2.8509183 2.3521781 0
-10.528239 3.6137249 2.9210296 0
2.945694 11.084723 0.96056187 0
-3.9750476 10.800343 0.22688878 0
-10.192435 3.7087047 3.8588724 0
-3.9686928 10.789396 0.62429023 0
-3.9713278 10.793935 -0.57013774 0
-4.0525928 10.496108 2.457757 0
10.934942 2.8328006 2.2756557 0
11.108554 2.7827539 1.3077283 0
2.9252789 11.144743 0.36169744 0
11.115477 2.7837358 1.2611969 0
-4.0854864 10.359587 2.981108 0
-10.921618 3.5223031 1.1029961 0
3.0410106 10.693961 3.0596323 0
-4.0309944 10.57671 2.2036793 0
-3.9668756 10.786266 -0.97080374 0
2.9295716 11.158917 0.088704109 0
10.858213 -3.5620601 1.589905 0
-3.9837656 10.773547 1.109499 0
-4.1286831 10.245855 3.3444076 0
-3.9691157 10.790125 1.0219994 0
10.722588 -3.5565336 2.3785629 0
-4.0883541 10.380809 2.976311 0
2.9280181 11.153788 0.63284707 0
11.102141 2.7811265 1.5965962 0
2.9472675 11.097985 1.3197579 0
2.9260719 11.147362 0.9041425 0
-10.414694 -3.2034457 3.8682981 0
2.9807138 10.931156 2.3176641 0
10.825518 2.8623548 2.9126048 0
11.111392 2.7838855 1.6639438 0
2.9232926 11.138185 1.1750588 0
10.847619 -3.5590239 1.9257064 0
10.889487 2.8480184 2.7120593 0
2.9440932 11.07123 1.6771431 0
11.017438 -3.5629854 0.064323187 0
-10.923101 3.5226045 1.556499 0
11.017435 -3.5629845 0.34477234 0
-3.9713287 10.793937 1.4215379 0
11.018667 -3.5633674 -0.49977899 0
11.028135 -3.5663092 -0.21808553 0
-3.984036 10.774101 1.5672765 0
10.948002 2.83605 2.5551488 0
-10.507293 3.6212678 3.320447 0
11.020663 -3.5639877 0.62453532 0
11.013304 -3.5617011 -0.78315079 0
-4.0271907 10.570368 2.6063216 0
2.9241145 11.140899 1.4464016 0
11.104477 2.7815835 1.93646 0
-10.485933 3.6226699 3.43997 0
-11.171185 -3.1901827 0.19690907 0
11.023426 -3.564846 0.90415299 0
10.720189 -3.5553296 2.7445228 0
-3.9326601 10.931623 0.36968935 0
-11.173971 -3.190666 -0.26137894 0
-3.9344335 10.937189 0.10133207 0
-3.9303083 10.924241 0.63723826 0
11.065289 -3.5626848 0.24492276 0
-11.089879 3.4740167 0.38273931 0
-4.0547671 10.500402 2.9205163 0
11.009407 -3.5604904 1.1834962 0
-11.167969 -3.1896248 0.65443385 0
11.073159 -3.5664942 -0.11753088 0
10.925959 2.8305655 2.8311589 0
11.067792 -3.5638959 -0.48063886 0
-11.106725 3.479517 0.12009811 0
11.118612 2.786763 2.024188 0
-10.911489 3.5202458 2.0112469 0
11.065942 -3.5630004 0.60648978 0
-11.093237 3.4751132 0.64349341 0
-3.9747844 10.755162 2.025239 0
-3.9301095 10.923616 0.90413737 0
-11.176195 -3.1910517 -0.72149539 0
10.853713 -3.5607703 2.2678435 0
11.058027 -3.5591686 -0.84495449 0
-11.0825 3.4716072 0.90412939 0
-3.9732547 10.797255 1.8237636 0
2.9261291 11.147551 1.7187541 0
-4.0928879 10.371535 3.3953123 0
2.946501 11.091525 2.0432205 0
11.097818 2.7802806 2.2784901 0
-11.168743 -3.189759 1.1125007 0
-3.8790131 10.962254 -0.98421955 0
11.349285 2.7202718 -0.11321825 0
11.347921 2.7197506 0.24623203 0
2.9821525 10.944969 2.7503483 0
11.018991 -3.563468 1.4636106 0
-3.9009581 11.001333 -0.17844081 0
-3.9013481 11.002028 0.22446942 0
11.345695 2.7189 -0.47362471 0
10.896588 2.8509676 3.0813446 0
11.342666 2.7177427 0.60506964 0
-3.9340782 10.936074 1.1713262 0
11.080309 -3.5699551 0.96934712 0
-11.092261 3.4747946 1.1647425 0
-4.1293688 10.247162 3.8135924 0
11.34085 2.7170489 -0.83580601 0
-11.252992 -3.1873817 0.11639261 0
-11.248742 -3.1861279 0.37965298 0
-3.9308114 10.92582 1.4383032 0
11.111443 2.7839053 2.3859746 0
11.011781 -3.5612278 1.7435713 0
-3.9085512 11.014854 0.62718725 0
11.344185 2.718323 0.96433198 0
-3.9008002 11.035683 0.19445288 0
-4.0271053 10.570226 3.0156164 0
-11.090729 3.4742942 1.4255629 0
-3.7418966 11.054138 -0.98595786 0
-11.159595 -3.1881721 1.5714211 0
11.076887 -3.5682991 1.3329229 0
11.399222 2.6961548 -0.088547468 0
2.9314418 11.165092 1.993382 0
-3.9154649 11.027166 -0.58543456 0
10.85218 -3.5603309 2.613271 0
-3.8978968 11.029516 0.65682805 0
11.404121 2.6970408 0.2543366 0
-11.261218 -3.1898088 0.64173174 0
10.939767 2.8340013 3.1151886 0
-3.9751134 10.800456 2.2297015 0
10.725601 -3.5580461 3.1185842 0
2.9461477 11.088547 2.4102497 0
-3.9043922 11.007448 1.0302081 0
-3.5912781 11.121225 -0.98451817 0
11.410141 2.6981292 -0.4337467 0
-10.917178 3.5214012 2.4718764 0
11.394306 2.6952658 -0.77850091 0
-3.9316554 10.92847 1.7063062 0
-10.505743 3.6209297 3.7849627 0
-3.9781928 10.76214 2.4902358 0
-11.263572 -3.1905034 0.90413189 0
11.008805 -3.5603034 2.0245075 0
11.351643 2.7211726 1.3255816 0
-4.0525856 10.496095 3.387713 0
-11.250336 -3.1865983 1.1662679 0
11.068118 -3.5640538 1.697731 0
2.9284308 11.15515 2.2667038 0
-3.8998671 11.033701 1.1198905 0
11.429975 2.7017159 0.5975219 0
11.408274 2.6977916 0.94042945 0
-11.107885 3.4798961 1.6882505 0
-10.486454 3.622865 3.9242573 0
-3.4512253 11.208509 -0.98616636 0
11.102787 2.7804556 2.7517943 0
11.129977 2.7865729 2.6338496 0
-3.9073386 11.012694 1.4353824 0
2.9815965 10.939631 3.1854782 0
-11.086793 3.4730093 1.948879 0
11.340519 2.7169225 1.6871624 0
2.8538561 11.430535 0.20872974 0
-11.254301 -3.187768 1.4288816 0
11.405948 2.697371 1.2847738 0
2.9447784 11.077004 2.7800939 0
-3.936873 10.944846 1.9766588 0
-3.3048081 11.283717 -0.98642778 0
-3.9716487 10.794488 2.6383536 0
-11.179466 -3.1916192 2.0361204 0
11.063192 -3.5616691 2.0656741 0
2.9297292 11.159438 2.5431232 0
2.8554201 11.44797 0.64297581 0
11.026275 -3.565731 2.3090258 0
10.868647 -3.5650496 2.9692187 0
-3.1528993 11.347485 -0.98542023 0
-3.9025664 11.004197 1.841526 0
-3.9055009 11.045665 1.5857267 0
2.8534975 11.426537 1.0769296 0
-3.9308748 10.926019 2.2446716 0
-11.265492 -3.1910701 1.6927857 0
-11.09059 3.4742491 2.2126694 0
-10.909572 3.5198562 2.9354 0
11.405704 2.6973271 1.6313231 0
2.8407845 11.487499 -0.12953275 0
-4.0344577 10.582482 3.4354267 0
11.337634 2.7158201 2.0524187 0
-11.335792 3.4120569 -0.27178919 0
11.116864 2.7840071 2.9849322 0
-3.0021987 11.41343 -0.98500693 0
-3.9757433 10.757126 2.9583559 0
2.84196 11.498789 0.2405746 0
-11.355406 3.4157491 0.19304407 0
11.55224 2.6377981 -0.48806596 0
-11.255713 -3.1881843 1.9560528 0
-11.338264 3.4125226 -0.73889685 0
11.56702 2.6432042 0.24311769 0
2.8432598 11.511269 -0.50328696 0
2.842885 11.507671 0.61098111 0
-3.8374715 11.230191 0.22152185 0
-11.350724 3.4148679 0.65827262 0
2.9281499 11.154223 2.8199348 0
11.11001 2.7833345 3.1274843 0
11.024425 -3.5651562 2.5931067 0
2.8410885 11.49042 0.98108649 0
2.8420067 11.499237 -0.87658644 0
11.580822 2.6482525 -0.12326241 0
-2.8568091 11.491389 -0.98649561 0
11.403111 2.6968579 1.9804611 0
-11.171308 -3.1902039 2.5017307 0
-3.8455796 11.245127 -0.188223 0
-3.9009781 11.001369 2.2515135 0
-3.9034829 11.04138 2.0531394 0
-3.8412657 11.23718 -0.59838152 0
11.078177 -3.5689237 2.4416256 0
-11.102477 3.4781301 2.4792829 0
2.8554511 11.448318 1.514765 0
2.9457726 11.085385 3.1605072 0
-3.9710922 10.79353 3.0534434 0
-3.8447099 11.243525 0.63014281 0
-3.9365716 10.9439 2.5186412 0
-2.7022095 11.548375 -0.98546064 0
-11.346661 3.4141028 1.1237688 0
11.573481 2.6455672 -0.85948706 0
2.9814115 10.937853 3.628262 0
11.606463 2.6350737 -0.24810934 0
11.589578 2.6514549 0.60870147 0
-4.0587535 10.508275 3.867116 0
11.572356 2.6451561 0.97419 0
-11.260875 -3.1897075 2.221813 0
-10.822375 3.5445549 3.5067239 0
11.620691 2.6381834 0.040035009 0
2.8420205 11.499368 1.3536401 0
11.352599 2.7215381 2.4252355 0
-3.8427181 11.239856 1.0393085 0
-2.5489368 11.608101 -0.98508811 0
11.617867 2.6375661 -0.53989542 0
2.9253695 11.145042 3.0978384 0
11.63201 2.6406572 0.32805848 0
11.020919 -3.5640669 2.8786783 0
11.623906 2.638886 0.61645961 0
11.614241 2.6367733 -0.83165646 0
2.8536155 11.427852 1.9516079 0
11.395634 2.6955059 2.3323333 0
11.392789 -3.5664065 0.25118768 0
-3.818892 11.314134 0.19064069 0
11.613983 2.6367171 0.90416253 0
11.406805 -3.5702069 -0.099023581 0
11.580248 2.6480424 1.3420749 0
-11.103168 3.4783559 2.746295 0
-3.9357123 10.941203 2.7917359 0
-11.349538 3.4146445 1.5913002 0
-10.911576 3.5202634 3.4069777 0
-11.256433 -3.1883969 2.4878674 0
-3.9715171 10.748475 3.4315476 0
-2.3993235 11.677155 -0.98623502 0
11.406307 -3.5700719 0.60045671 0
-3.8433471 11.241014 1.4501631 0
-3.8226299 11.322375 0.66091716 0
2.8421187 11.500313 1.7281194 0
11.42639 -3.5675914 0.23919308 0
11.418436 -3.5733607 -0.45131904 0
11.618507 2.637706 1.1917377 0
11.40223 -3.5689666 -0.80307662 0
-10.993731 -3.1986578 3.5183458 0
-3.9038334 11.006454 2.6675978 0
-2.2420654 11.726405 -0.98506439 0
11.081552 -3.5705569 2.8209081 0
-3.9036069 11.041643 2.5250418 0
11.43929 -3.5736101 -0.13502169 0
11.335423 2.7149754 2.7963309 0
11.43241 -3.5704005 -0.50969505 0
-11.167097 -3.1894736 2.9727173 0
11.406644 -3.5701635 0.95041478 0
11.573 2.6453915 1.710824 0
11.609257 2.6356843 1.4791837 0
-2.0841231 11.773004 -0.98384833 0
11.437341 -3.5727007 0.6124177 0
-3.9292374 10.920878 3.0633111 0
-3.8229942 11.323179 1.1319716 0
11.427834 -3.5682652 -0.88644505 0
11.720014 2.6070776 -0.10431463 0
11.718123 2.6067634 0.24920547 0
11.020868 -3.5640514 3.166954 0
-11.094592 3.4755557 3.013556 0
-3.9709196 10.793232 3.4754076 0
-3.8402572 11.235323 1.8626711 0
2.84078 11.487456 2.1036925 0
11.723866 2.6077173 -0.45943904 0
11.434509 -3.5713799 0.98614502 0
11.404119 -3.5694785 1.3014212 0
11.719732 2.6070306 0.60222292 0
-11.341016 3.4130404 2.0604782 0
11.405267 2.6972477 2.6924946 0
-11.265833 -3.1911705 2.7578256 0
-1.9311311 11.833484 -0.98473084 0
2.8550622 11.443982 2.3965912 0
11.723143 2.6075971 -0.81644416 0
11.563924 2.6420717 2.0818996 0
-3.8170285 11.310025 1.6034741 0
11.72272 2.607527 0.95585823 0
-1.772053 11.87583 -0.98355329 0
11.057574 -3.5589497 3.1984777 0
11.389717 -3.5655737 1.6528845 0
11.624017 2.6389101 1.768532 0
11.434089 -3.5711839 1.3612571 0
-10.816096 3.5423086 3.9997969 0
11.716725 2.6065311 1.3102057 0
11.603455 2.6344161 2.0561526 0
-1.6162972 11.928208 -0.98396218 0
-3.898416 11.03062 2.9997885 0
-3.7754159 11.472307 0.21830332 0
-3.9037433 11.006292 3.0883904 0
-3.7761908 11.473784 -0.19708329 0
11.336467 2.7153742 3.1773901 0
-3.7702332 11.462425 0.63290179 0
-11.256498 -3.1884165 3.0266361 0
-3.7728682 11.467449 -0.61333811 0
-3.840836 11.236389 2.2794957 0
2.8408976 11.488586 2.4852688 0
11.426203 -3.5675042 1.7376239 0
-1.4568925 11.968487 -0.98310792 0
11.826293 2.5752614 0.23925579 0
11.82792 2.5758302 -0.13417774 0
-10.912643 3.5204802 3.8861084 0
-11.341796 3.413187 2.5345879 0
11.406033 2.6973863 3.0567856 0
11.712144 2.6057703 1.6664751 0
11.403547 -3.5693238 2.0109613 0
2.8538523 11.43049 2.8418803 0
-3.7738481 11.469317 1.0482187 0
11.832393 2.577394 -0.50936496 0
-3.7587786 11.518361 0.34589052 0
-10.9849 -3.195781 4.0125833 0
11.832788 2.5775321 0.61226416 0
-3.9789577 10.763706 3.9188752 0
-11.177642 -3.1913028 3.4532986 0
-3.7620592 11.52978 0.065171957 0
11.58189 2.6486433 2.4620209 0
2.7618921 11.817209 0.047704458 0
-3.7603083 11.523685 0.62504363 0
-3.8272157 11.332486 2.0816567 0
2.7595885 11.808733 0.61929107 0
11.832862 2.5775583 -0.88666296 0
11.618032 2.6376019 2.3482499 0
-1.3042147 12.032603 -0.98558378 0
2.7627063 11.820205 0.33356071 0
11.831097 2.576941 0.98575401 0
-3.7715087 11.464857 1.4644818 0
-1.1439264 12.069839 -0.98491836 0
-3.7627954 11.532345 0.90415251 0
11.433775 -3.5710375 2.1193237 0
2.7614162 11.815458 0.90415955 0
11.716977 2.6065731 2.0269985 0
-3.8400617 11.234962 2.7004902 0
-0.98159528 12.098207 -0.98342478 0
-3.7605481 11.52452 1.1832817 0
-11.713488 3.3232493 0.35709476 0
11.403461 -3.5693002 2.3712246 0
-11.720963 3.325455 0.082282782 0
-3.9002862 11.000136 3.5141678 0
2.8420205 11.499369 2.8743813 0
11.837993 2.5793521 1.361284 0
11.610846 2.6360314 2.6395068 0
-3.7376189 11.609767 0.1865027 0
-11.719265 3.3249538 0.63062799 0
2.7636015 11.823498 1.1893847 0
-3.8970389 11.027696 3.4822345 0
-3.8167768 11.309469 2.5577781 0
-3.7347164 11.603116 0.6647706 0
-11.716928 3.3242645 0.90414536 0
-0.82495737 12.149996 -0.98517942 0
-3.7630854 11.533353 1.4631424 0
-11.7036 3.3203318 1.1772826 0
2.7612679 11.814913 1.4745045 0
-11.167448 3.4606016 3.575531 0
11.590549 2.6518106 2.8463953 0
11.830523 2.5767403 1.7377586 0
2.853734 11.429173 3.295126 0
-3.7812285 11.483389 1.8861313 0
-11.356137 3.4158869 3.0167093 0
-0.66299248 12.179039 -0.98435473 0
11.439631 -3.5737698 2.5054882 0
11.722265 2.6074514 2.3919659 0
-11.795187 3.2984231 0.18585443 0
-3.7372923 11.609019 1.1438327 0
-3.761374 11.527395 1.7429628 0
2.7293921 11.942876 0.23304856 0
-0.50063086 12.205282 -0.98347235 0
2.7284288 11.932139 0.61816311 0
-11.710607 3.3223991 1.4510572 0
-11.803801 3.2999172 -0.29487973 0
2.7303195 11.953216 -0.15326822 0
2.7618985 11.817232 1.7606199 0
11.410526 -3.5712161 2.7381167 0
-11.795528 3.2984822 0.66555142 0
2.7297256 11.946596 -0.54023832 0
-3.8362288 11.227902 3.1256452 0
-11.795147 3.2984159 -0.77645516 0
-11.182794 -3.1921964 3.940979 0
2.7289028 11.937424 -0.92879987 0
2.7165155 11.975997 0.19943774 0
-3.7048621 11.709398 0.21518886 0
11.63128 2.6404977 2.9369812 0
2.8416829 11.496128 3.2668047 0
-3.7081285 11.715849 -0.2067259 0
-3.7019062 11.703561 -0.62885606 0
-3.7734971 11.468648 2.3069291 0
11.833426 2.5777552 2.1186609 0
-11.711226 3.3225818 1.7253013 0
-3.7622318 11.530382 2.0242763 0
-3.705204 11.710074 0.63622427 0
-0.34285784 12.255442 -0.98586917 0
-11.794479 3.2983003 1.1457839 0
-3.7361369 11.606371 1.6242857 0
2.7301979 11.95186 1.0045967 0
12.052632 2.5110521 -0.12074214 0
2.7631714 11.821916 2.0480096 0
2.7177887 11.992908 0.65225816 0
-3.7002087 11.70021 1.0572071 0
11.587585 2.6507263 3.2343502 0
11.719607 2.6070099 2.7604394 0
-0.17994308 12.278853 -0.98521054 0
11.430877 -3.5696852 2.8936627 0
2.7285395 11.933372 1.3904765 0
12.061975 2.5124667 0.24353564 0
-3.8190866 11.314563 3.0434208 0
-11.698892 3.3189428 1.9992087 0
2.716835 11.980238 1.1052616 0
-3.759964 11.522486 2.3056364 0
12.064445 2.5128407 0.60790789 0
-0.016711473 12.299441 -0.98449242 0
12.084594 2.5002859 -0.14562756 0
12.045878 2.5100293 0.97178411 0
12.054896 2.511395 -0.85482359 0
11.618354 2.6376724 3.2312851 0
11.815153 -3.5745924 0.23297215 0
2.7593162 11.807732 2.3345921 0
12.08033 2.5152462 -0.48897219 0
-11.346656 3.4141021 3.5008507 0
12.089097 2.5017881 -0.52847987 0
11.41325 -3.5719545 3.1102829 0
12.087816 2.5013611 0.61604702 0
11.83087 -3.5816524 -0.15385652 0
11.817611 -3.5756962 0.61847472 0
12.103271 2.5065172 0.23506856 0
11.822474 -3.5778811 -0.54099667 0
11.831465 2.5770695 2.5030146 0
2.8539491 11.431571 3.7566452 0
-11.809225 3.300858 1.6291051 0
-3.9046702 11.0439 3.9779606 0
0.14478815 12.3314 -0.98547566 0
-3.7706332 11.463188 2.7332757 0
11.809754 -3.5721672 -0.92928278 0
-3.7060771 11.711798 1.4810638 0
-11.159783 3.4579828 4.0792723 0
2.7292664 11.941476 1.7806993 0
0.30987477 12.336969 -0.98347783 0
-11.707005 3.3213365 2.2762027 0
12.08448 2.500248 0.9970212 0
-3.7393808 11.613805 2.1088319 0
12.093938 2.5034034 -0.91405511 0
12.054103 2.5112748 1.3380513 0
11.821704 -3.5775354 1.0047297 0
-3.8410697 11.236819 3.5620165 0
2.7181635 11.997884 1.561697 0
0.47317171 12.354705 -0.98327827 0
-3.7627077 11.532039 2.5907018 0
11.718129 2.6067643 3.1350331 0
2.7611229 11.814379 2.6250877 0
11.428117 -3.5683973 3.2892394 0
12.084749 2.5003376 1.3794789 0
-11.703102 3.3201852 2.5533423 0
-3.7069597 11.713541 1.907073 0
11.825487 -3.5792344 1.3926854 0
12.063118 2.5126398 1.7072444 0
0.63516891 12.385719 -0.98500574 0
2.7293494 11.942401 2.1737118 0
-3.7571363 11.512644 2.8731518 0
-3.8167305 11.309367 3.5334859 0
-11.815906 3.3020167 2.1154323 0
11.831615 2.5771224 2.8929923 0
2.7169058 11.98118 2.0179398 0
0.79993331 12.388493 -0.98353755 0
-3.7346239 11.602904 2.5949516 0
-3.6534276 11.916089 0.18216491 0
-3.6471238 11.90106 0.66895044 0
11.81086 -3.5726635 1.7808313 0
12.099203 2.5051603 1.7661366 0
2.7632227 11.822104 2.9179966 0
-3.7756619 11.472775 3.1689386 0
0.96299136 12.411783 -0.98488629 0
-3.6442366 11.894177 1.155654 0
-3.7031631 11.706044 2.3352482 0
-3.6354222 11.960486 0.21180451 0
-11.717317 3.3243792 2.8352175 0
12.07223 2.5140197 2.0802722 0
-11.35105 3.4149294 3.995965 0
-3.6334605 11.95647 -0.64600074 0
2.7289901 11.938396 2.570199 0
-3.6430893 11.976181 -0.2174238 0
-3.6376038 11.964952 0.63968217 0
-11.797479 3.2988205 2.6023872 0
-3.6273432 11.943949 1.0669436 0
1.2915261 12.42519 -0.98436618 0
1.1259137 12.444088 -0.98762965 0
-11.511664 3.3673561 3.6441026 0
-3.7625332 11.53143 3.1643133 0
12.097681 2.5046523 2.1545255 0
2.75915 11.80712 3.209096 0
11.824723 -3.5788915 2.1761425 0
12.010015 -3.5766208 0.61067605 0
11.831347 2.5770285 3.2892013 0
2.7180572 11.996474 2.4820194 0
12.030764 -3.5819294 -0.13080204 0
12.055195 2.51144 2.452956 0
12.034778 -3.5829563 0.24027777 0
12.028666 -3.5813928 -0.50312567 0
-11.70638 3.3211522 3.1150107 0
1.4556023 12.438584 -0.98536134 0
-11.59257 -3.183553 3.6490512 0
-3.6531463 11.915419 1.6462879 0
1.6201961 12.428509 -0.98376274 0
12.023829 -3.5801549 -0.87723219 0
-3.7383413 11.611423 3.0897617 0
-3.6335344 11.956622 1.4974155 0
-3.7034245 11.70656 2.7693417 0
1.7844844 12.427801 -0.98360372 0
12.358282 2.4235539 -0.15802068 0
12.037161 -3.583566 0.982548 0
-3.7727284 11.467183 3.6078529 0
12.086743 2.5010033 2.5451927 0
12.368885 2.4186599 -0.0081629753 0
11.81263 -3.5734589 2.5713866 0
-3.8199801 11.316533 4.0347524 0
12.36935 2.4270716 0.23108172 0
12.356879 2.4231083 0.62008977 0
12.372112 2.4192688 0.29634857 0
12.365004 2.4256902 -0.54937047 0
2.7299609 11.949218 2.9752598 0
12.365052 2.4179366 -0.62035394 0
12.377767 2.4203355 -0.31466448 0
12.023164 -3.5799849 1.3540287 0
12.373933 2.4196124 0.60038698 0
12.043739 2.5097053 2.8308251 0
1.9489105 12.434987 -0.98470283 0
12.366428 2.4261429 -0.94293046 0
-3.6514983 11.911489 2.1381915 0
-11.80337 3.2998426 3.0982428 0
2.1132405 12.430183 -0.98461854 0
-3.6346121 11.958828 1.9300833 0
12.372738 2.4281483 1.0102155 0
-12.245891 -3.1708534 0.17845845 0
2.7182012 11.998384 2.9497294 0
12.384806 2.4216638 0.90418291 0
-12.251359 -3.1717217 -0.31691796 0
12.391145 2.4228597 -0.93265724 0
12.021447 -3.5795457 1.7283304 0
12.374639 2.4197454 1.2079954 0
-12.246666 -3.1709766 0.67295516 0
12.440947 2.4135606 -0.14015651 0
-12.249928 -3.1714945 -0.81388712 0
12.448131 2.4145436 0.23710787 0
12.436642 2.4129717 0.61408961 0
2.2782435 12.439539 -0.98656368 0
-3.5718699 12.173456 0.025231481 0
12.373983 2.428544 1.4015946 0
12.447166 2.4144115 -0.51948041 0
-12.285939 3.1772113 -0.31875288 0
2.4418919 12.418636 -0.98507881 0
-12.292429 3.1782417 0.17763591 0
12.374192 2.4196613 1.5121167 0
-3.7072411 11.714097 3.211226 0
12.097346 2.5045407 2.9456313 0
2.6075125 12.428094 0.22478247 0
12.438347 2.4132049 -0.89970541 0
2.6068666 12.419517 -0.58059084 0
-12.250294 -3.1715527 1.1682613 0
11.825216 -3.5791132 2.9773471 0
2.6071665 12.4235 0.62653708 0
-3.5766916 12.192259 0.31783617 0
2.6057158 12.40423 -0.98468041 0
2.6085548 12.441944 -0.1782707 0
-11.529177 3.37306 4.1659632 0
-3.7387662 11.612396 3.5900879 0
2.7300382 11.950079 3.3849902 0
-12.294888 3.178632 0.67380738 0
-3.576478 12.191424 0.6111815 0
12.023904 -3.5801742 2.1064138 0
-11.59167 -3.183274 4.1665187 0
-3.6470356 11.90085 2.63288 0
12.452375 2.4151242 0.99216092 0
-3.6363292 11.962343 2.3668804 0
-3.5620022 12.216231 0.20833373 0
-12.296185 3.1788378 -0.8179847 0
12.056082 2.5115743 3.2204704 0
-3.5749922 12.185631 0.9041692 0
-3.5551629 12.206614 0.67327321 0
-12.277632 3.1758926 1.1697121 0
-3.559607 12.211145 0.64296806 0
-3.56598 12.224678 -0.22741836 0
12.373464 2.4283791 1.7952368 0
-3.5635366 12.227407 0.17773533 0
-3.562119 12.216479 -0.66381192 0
2.6077032 12.430631 1.0290761 0
12.378387 2.4204528 1.8172083 0
-3.5720196 12.174039 1.1967392 0
12.441649 2.4136567 1.3703933 0
-12.236727 -3.1693988 1.6641176 0
12.234029 -3.5834582 0.22621894 0
12.243032 -3.5873492 -0.1737439 0
12.230693 -3.5820167 0.62511754 0
-11.79247 3.2979517 3.5973625 0
12.236787 -3.5846503 -0.57440627 0
-3.5598826 12.21173 1.0780683 0
2.7181225 11.997338 3.4232826 0
2.6071951 12.423881 1.4323735 0
-12.384463 3.1520314 0.040869594 0
12.225261 -3.5796692 1.0241292 0
-3.5734706 12.179699 1.4898996 0
-3.5601549 12.21901 1.1697242 0
12.231093 -3.5821898 -0.97712147 0
12.432062 2.4123452 1.7503262 0
12.360828 2.4243634 2.1902175 0
12.019697 -3.579098 2.4875436 0
-12.383383 3.151746 0.61683965 0
2.5736928 12.535097 0.0023541451 0
12.095503 2.5039256 3.3498507 0
-12.288036 3.1775444 1.6686628 0
12.390167 2.4226754 2.1242151 0
-12.404364 3.1572874 0.32819557 0
11.823061 -3.5781448 3.386548 0
-3.6351852 11.960001 2.8075438 0
-3.5730686 12.178131 1.7834473 0
12.225427 -3.5797412 1.4247234 0
-3.5636992 12.219834 1.5155363 0
2.5785344 12.555169 0.30254388 0
-12.39763 3.155509 0.90416276 0
-3.7112603 11.722034 3.6610088 0
2.5783784 12.554523 0.60353959 0
-12.434772 -3.1653185 0.32673132 0
12.426609 2.4115989 2.1335137 0
-12.250626 -3.1716053 2.1654654 0
-12.447752 -3.1687467 0.036293387 0
-3.5642695 12.229227 1.668725 0
2.5785711 12.555321 0.90417874 0
12.383353 2.4213898 2.4309065 0
-12.401573 3.1565502 1.1919241 0
-3.5722713 12.175022 2.0777287 0
-12.377556 3.150207 1.4788396 0
12.361512 2.4245808 2.591377 0
2.6098073 12.458578 1.8427722 0
-3.6571555 11.924976 3.1395888 0
-12.436843 -3.1658654 0.90416396 0
-12.277332 3.1758449 2.1687856 0
-3.5584216 12.208628 1.9536924 0
-3.737813 11.610212 4.0976992 0
-12.45751 -3.1713238 0.61505711 0
2.5783143 12.554255 1.2048118 0
12.368935 -3.5830724 0.28415465 0
2.5701277 12.624161 0.18832338 0
12.239522 -3.5858319 1.8296487 0
12.372181 -3.5839798 -0.33889043 0
12.377789 -3.5855477 -0.027346671 0
12.040337 -3.5843785 2.8794987 0
-11.896414 3.2777312 3.7224913 0
2.6070521 12.42198 2.2478223 0
12.3802 -3.4670546 -0.98846436 0
-12.444547 -3.1679001 1.19296 0
2.5771992 12.549633 1.5055497 0
-12.383929 3.1518903 1.7674201 0
12.378284 -3.5856857 0.59411442 0
2.7179356 11.99486 3.9040747 0
2.5703611 12.627993 0.66314352 0
-3.6299343 11.949252 3.2518873 0
-3.5716209 12.172485 2.3732119 0
12.380363 -3.5862665 -0.65319288 0
12.435447 -3.3116257 -0.98755467 0
12.382012 2.4211366 2.7397318 0
12.371471 -3.5837815 -0.96711552 0
-3.5634704 12.227242 2.1699409 0
12.384399 -3.5873952 0.90419042 0
-11.803507 3.2998662 4.1097817 0
12.447426 2.4144471 2.5257311 0
-12.448106 -3.1688399 1.4822409 0
2.5699611 12.621423 1.1382649 0
12.505823 -3.1621683 -0.98893213 0
-12.256432 -3.1725268 2.6708198 0
12.234582 -3.5836971 2.2358541 0
12.358109 2.4234989 2.9970798 0
2.5792415 12.558101 1.8076615 0
12.38622 -3.587904 1.2144587 0
-12.397966 3.1555977 2.0579896 0
12.565792 -3.0085268 -0.98922205 0
-3.5665722 12.225936 2.399745 0
-3.4859118 12.479955 -0.23780215 0
-3.4877152 12.483932 0.2046361 0
-12.446491 -3.1684136 1.7719474 0
12.612528 -2.8501511 -0.98807609 0
-12.288006 3.1775393 2.6758833 0
-3.5738645 12.181234 2.6718235 0
-3.4861012 12.480372 0.64669561 0
12.034412 -3.5828629 3.2719784 0
-3.4860358 12.480228 -0.68196559 0
12.381318 2.4210057 3.0506296 0
12.658988 -2.6919296 -0.98719418 0
2.6078954 12.433183 2.6641176 0
12.384162 -3.5873287 1.5249639 0
-3.6537814 11.916933 3.6470098 0
2.5784829 12.554955 2.1100492 0
2.5710287 12.638957 1.6167808 0
-3.4618201 12.52838 0.1734997 0
-3.5581384 12.214003 2.6734016 0
-12.441821 -3.1671803 2.0622263 0
-3.4870648 12.482497 1.0893483 0
-12.400562 3.1562831 2.3491194 0
12.725337 -2.5402091 -0.98917091 0
12.377731 -3.5855312 1.8357267 0
12.45349 2.4152768 2.9213488 0
12.790976 2.2159374 -0.98537028 0
12.761871 -2.3789642 -0.98759425 0
12.762101 2.3790336 -0.98762369 0
12.240036 -3.5860546 2.648401 0
-3.4659386 12.539044 0.67809975 0
2.5752814 12.541683 2.4123859 0
-3.6326218 11.954754 3.7074571 0
-3.5599704 12.211916 2.845372 0
12.962435 -0.96367067 -0.98596096 0
12.999297 -0.19294554 -0.9864769 0
12.885793 -1.7313671 -0.9860599 0
12.811181 -2.2217276 -0.98795116 0
12.887556 1.7315961 -0.98630977 0
-3.5748086 12.184916 2.9719584 0
12.993617 0.57890993 -0.98723507 0
12.993674 -0.57891238 -0.98724318 0
13.007161 0.19305837 -0.98758221 0
-3.4860935 12.480355 1.5333776 0
12.941184 1.3492287 -0.98764372 0
-12.252795 -3.1719496 3.1803503 0
12.977785 0.96477365 -0.98812377 0
12.943973 -1.3495097 -0.98803759 0
12.693502 -2.872658 -0.98691046 0
12.377994 2.4203784 3.3633785 0
12.604999 -3.2483442 -0.9868108 0
-12.391858 3.1539843 2.6403205 0
12.846489 -2.1157324 -0.98831558 0
12.85641 -2.0632634 -0.9880743 0
-11.902553 3.2796338 4.2537289 0
12.847907 2.115958 -0.98851728 0
12.85691 2.0633991 -0.98813796 0
-3.4646773 12.535779 1.1833317 0
-12.448927 -3.1690571 2.3549688 0
12.784153 -2.4970124 -0.98886299 0
2.5709186 12.637144 2.0970802 0
12.375589 2.4290545 3.4149981 0
12.844913 2.4040534 -0.18207866 0
2.6077278 12.430956 3.0837841 0
12.846005 2.4043832 0.22325182 0
12.388997 -3.5886803 2.1489081 0
12.90069 -1.9044919 -0.98836482 0
12.841885 2.4031382 0.62807298 0
12.903226 1.9051409 -0.98868632 0
12.927451 -1.7414002 -0.98672938 0
12.427236 2.4116848 3.3150883 0
12.853786 2.4067342 -0.58972633 0
-12.297112 3.1789849 3.1890726 0
12.94175 1.7448411 -0.98853528 0
2.5773571 12.550287 2.7188997 0
12.967265 -1.581609 -0.98703659 0
-3.4851418 12.478257 1.9799695 0
12.995571 1.4192867 -0.98618627 0
12.977824 1.5839906 -0.98836565 0
12.236127 -3.5843651 3.0646496 0
-3.5579343 12.213496 3.1841278 0
-3.5757318 12.188515 3.2745609 0
-12.391483 3.1538854 2.9344299 0
12.855888 2.4073691 1.0340793 0
12.382691 -3.5869174 2.4618669 0
-12.466242 -3.1736302 2.6511371 0
13.037404 1.259779 -0.98732185 0
2.5699635 12.621463 2.5791883 0
-3.4727402 12.556656 1.6924357 0
-3.6521821 11.913119 4.1632938 0
13.022871 -1.4250352 -0.98961174 0
13.057757 -1.0960834 -0.98605955 0
13.060258 1.0965357 -0.98637164 0
13.047566 -1.2617671 -0.98859322 0
-3.5620446 12.216321 3.3007021 0
12.847123 2.4047208 1.4405172 0
13.091629 0.93489748 -0.9867748 0
-12.805563 3.0466933 0.16912365 0
-12.803236 3.0463579 -0.3445316 0
2.5789843 12.557034 3.0275254 0
12.673958 -3.589041 0.21911013 0
13.110054 -0.93795794 -0.98906827 0
-12.80795 3.0470374 0.68231833 0
12.670543 -3.5876229 0.63222528 0
-12.251074 -3.1716764 3.6970339 0
13.124647 -0.7733795 -0.98766947 0
13.126637 0.77368075 -0.98791647 0
-3.4878588 12.484248 2.4316528 0
-12.392942 3.1542706 3.2311382 0
13.139224 -0.60909396 -0.9865638 0
2.608706 12.44395 3.514205 0
-12.460837 -3.1722026 2.9462235 0
12.680196 -3.5916312 -0.61036491 0
12.694861 -3.5977213 -0.19575965 0
-12.810936 3.0474677 -0.86079228 0
12.39331 -3.5898855 2.7786987 0
13.149483 0.61049753 -0.98783517 0
-3.4696012 12.548529 2.2024102 0
12.71097 -3.5893052 -0.16549408 0
12.856052 2.4074187 1.8510742 0
13.174032 0.28174013 -0.9859283 0
13.171037 0.44714123 -0.98788309 0
13.171925 -0.44724983 -0.98799288 0
12.718424 -3.5910985 0.22866154 0
-12.284496 3.1769822 3.7048464 0
12.678819 -3.591059 1.0462492 0
12.710263 -3.5891349 -0.56116581 0
-12.810599 3.0474191 1.1963215 0
13.182846 -0.28268987 -0.98701656 0
12.239754 -3.5859325 3.4895639 0
-12.265814 -3.1734145 3.7971659 0
13.192673 -0.11822242 -0.98619735 0
12.719995 -3.5914769 0.62276649 0
13.197555 0.11867791 -0.98679936 0
-12.274293 3.1759102 3.7992067 0
2.576519 12.546813 3.3355589 0
-3.4217854 12.786033 0.20028591 0
12.710296 -3.5891428 -0.95930505 0
-3.4247336 12.792789 -0.25147831 0
13.211726 -0.045359373 -0.98680556 0
-3.4205532 12.783211 0.65106022 0
12.713587 -3.5899346 1.017035 0
13.21465 0.045128763 -0.98716557 0
-12.454114 -3.1704271 3.2430592 0
-3.5612855 12.221818 3.7039948 0
-3.4238982 12.790875 -0.70458722 0
12.388524 -3.5885479 3.0954971 0
13.228662 -0.20925367 -0.98744082 0
13.227539 -0.37423539 -0.98614407 0
-3.5621901 12.216631 3.7625637 0
12.691308 -3.5962455 1.4628177 0
-3.4845786 12.477015 2.8860002 0
2.5719731 12.654461 3.0750351 0
12.857142 2.407748 2.2645245 0
13.229078 -0.53885305 -0.98546517 0
13.239369 0.20856309 -0.98875821 0
13.238858 0.3736679 -0.98753548 0
-12.818837 3.0486062 1.7128906 0
13.241913 0.53839362 -0.98704207 0
-3.427454 12.799024 1.1032348 0
12.723965 -3.592432 1.4137986 0
-3.4692388 12.54759 2.717386 0
13.250925 -0.70291013 -0.98757005 0
12.677346 -3.5904477 1.8793697 0
13.255848 0.70280445 -0.98817468 0
13.234741 1.0322362 -0.98529339 0
13.253942 -0.86762637 -0.98765111 0
13.248651 -1.0323358 -0.9870013 0
13.260446 0.86757982 -0.98844957 0
13.239594 1.1968465 -0.9861784 0
12.386979 -3.5881162 3.4151306 0
-3.4273119 12.798697 1.5567338 0
12.726947 -3.5931497 1.8128078 0
13.243254 -1.3616543 -0.98720682 0
13.227942 1.5257847 -0.98619366 0
13.26189 -1.1973252 -0.98891675 0
12.85962 2.4084966 2.6829352 0
-12.266252 -3.1740859 4.2265787 0
13.251343 1.361944 -0.98820078 0
-12.818327 3.0485327 2.2321236 0
13.221873 -1.6903085 -0.98660553 0
-12.278656 3.1760552 4.2299438 0
2.5702629 12.626384 3.5658579 0
13.225802 1.6905619 -0.98708904 0
13.252141 -1.526998 -0.98916852 0
13.212134 1.8546728 -0.98685575 0
13.193936 2.0183403 -0.98635328 0
-12.25829 -3.1712 4.3365736 0
13.220579 -1.8553388 -0.98789585 0
12.708035 -3.5885987 2.2119019 0
12.691895 -3.5964897 2.3033388 0
-3.4893236 12.487477 3.3504848 0
13.17862 -2.1822345 -0.98649478 0
13.17963 2.1823432 -0.98661947 0
13.159402 2.3457189 -0.98644388 0
13.215762 -2.0203767 -0.98904467 0
-12.279884 3.1775558 4.3426051 0
13.163452 -2.3462141 -0.98694491 0
-3.430932 12.806993 2.0141425 0
-3.5601912 12.2191 4.2297544 0
-3.4690275 12.547043 3.238101 0
13.112043 -2.6714709 -0.98610425 0
13.158429 -2.5117214 -0.98894382 0
12.846503 2.4045336 3.1034861 0
13.104462 -2.837029 -0.98837209 0
-12.804649 3.0465615 2.7536852 0
12.957797 -3.4794736 -0.98584497 0
-3.4196167 13.010417 0.1658895 0
13.07886 -2.9998999 -0.98869264 0
13.008209 -3.3219481 -0.98777211 0
12.683949 -3.59319 2.7283952 0
13.050298 -3.1623018 -0.98893499 0
-13.131644 2.9629724 0.29752016 0
-13.141134 2.9651897 -0.0073146224 0
-3.4247074 12.792729 2.4722273 0
12.722684 -3.592124 2.6207788 0
-3.4233165 13.020421 0.6856966 0
-3.477406 12.461201 3.8125191 0
-13.14396 2.9658499 0.60072112 0
-13.144643 2.9660094 0.9041822 0
2.5705914 12.631772 4.0716624 0
-13.138293 2.9645259 1.2075081 0
-3.4286699 13.034897 1.2071331 0
-3.4656467 12.538289 3.7638612 0
12.849559 2.405457 3.5344353 0
-13.129128 2.9623845 1.5107245 0
12.68176 -3.5922806 3.1600957 0
12.733521 -3.594732 3.035399 0
-3.4240613 13.022435 1.7290487 0
-3.4291954 12.803014 2.9395204 0
-12.820841 3.0488949 3.285944 0
-3.4213085 13.142334 0.27653098 0
-3.4196372 13.134942 0.59070897 0
-3.424593 13.156862 -0.039193332 0
-13.151557 2.9676247 1.8164313 0
-3.4238229 13.153455 0.90419507 0
13.408507 2.3929052 -0.21024919 0
13.14176 -3.593147 0.2115196 0
13.413217 2.3942547 0.21380365 0
13.146876 -3.5951865 -0.21765232 0
-12.699346 3.0773256 3.8872724 0
-3.4177527 13.005377 2.2526309 0
-3.4213943 13.142715 1.2178662 0
-13.145901 2.9663033 2.1215158 0
13.153583 -3.5978596 -0.64893317 0
12.713977 -3.5900285 3.4491706 0
13.428053 2.3985064 0.63786566 0
13.430171 2.3991137 -0.63791454 0
12.681152 -3.5920284 3.5991058 0
-3.421093 13.14138 1.5318146 0
13.177459 -3.6073759 0.64055109 0
13.425533 2.3977845 1.0625772 0
-13.367579 2.9073589 0.15973365 0
-3.4153285 13.248458 0.19290924 0
-13.361636 2.9065893 0.6915617 0
-13.145664 2.966248 2.4283099 0
-12.795539 3.0452485 3.8169498 0
-3.4336529 12.813228 3.4139719 0
13.1714 -3.6049612 1.0704358 0
-3.4209232 13.261796 -0.27399796 0
-3.4177666 13.254271 0.65860057 0
-13.389077 2.9101436 -0.37398386 0
-3.4221659 13.146125 1.846817 0
-3.4690204 12.547025 4.3025308 0
-13.369063 2.9075513 -0.90751314 0
-3.4197989 13.259115 -0.74210966 0
13.42625 2.3979897 1.4889574 0
-3.4142647 13.245921 1.1244957 0
13.159266 -3.6001246 1.5008683 0
-13.135164 2.9637949 2.7352853 0
-13.379894 2.9089544 1.2248986 0
-3.4232273 13.020181 2.784827 0
13.54644 2.393038 0.21814334 0
-3.4237475 13.153122 2.16329 0
13.420951 2.3964713 1.9172349 0
13.561928 2.3949316 -0.19829386 0
13.5551 2.3940969 -0.61538303 0
-3.4176345 13.253956 1.59302 0
