# .PCD v0.7 - Point Cloud Data file format
VERSION 0.7
FIELDS x y z intensity
SIZE 4 4 4 4
TYPE F F F F
COUNT 1 1 1 1
WIDTH 1401
HEIGHT 1
VIEWPOINT 0 0 0 1 0 0 0
POINTS 1401
DATA ascii
1.0963018 -3.6570489 0.34449434 0
-0.73696184 -3.6296191 0.98867166 0
1.120824 -3.6649063 0.083699346 0
-0.0023019314 -3.653393 1.1613383 0
0.82649004 -3.6489027 0.83597016 0
0.65384722 -3.6447637 0.99257112 0
-1.1713355 -3.6342282 -0.34451509 0
-0.58044744 -3.6392071 1.057307 0
1.0398483 -3.6595592 0.47456372 0
0.3780936 -3.64625 1.1234338 0
0.54563451 -3.6631436 0.99228644 0
-3.5145631 -1.1759163 -0.98446476 0
-1.2468865 -3.6257329 -0.066990793 0
-1.0183895 -3.6434782 0.62787628 0
-1.0543408 -3.6300893 0.64653969 0
-3.5152879 1.1759474 -0.98465919 0
1.0795125 -3.6660256 -0.32348126 0
-0.039094687 -3.651576 1.1729345 0
-1.0518203 -3.6149485 0.73320115 0
-1.2434809 -3.6226857 -0.20911664 0
1.1210591 -3.6638808 0.18210363 0
1.0783691 -3.6707029 0.27891636 0
0.5463165 -3.6602776 1.0105412 0
0.066883087 -3.6564057 1.160692 0
0.65679717 -3.6480927 0.99108887 0
0.013588071 -3.655174 1.1670055 0
0.9980669 -3.6603923 0.57301819 0
-0.25836825 -3.6358786 1.1990561 0
0.69357264 -3.6684194 0.88724637 0
-0.52846193 -3.6460385 1.0737982 0
0.1187793 -3.6439044 1.1974611 0
-1.0842154 -3.6297948 -0.61815608 0
1.1644769 -3.6514506 -0.21213853 0
0.91180575 -3.6673326 0.67431903 0
0.96148956 -3.6555998 0.67052269 0
-0.71339607 -3.6370251 1.0023565 0
0.9571439 -3.6570499 0.67232323 0
-1.2383339 -3.6180801 -0.35204822 0
-0.31603432 -3.6322613 1.2064223 0
0.87172472 -3.6591177 0.7751317 0
-0.8355577 -3.642544 0.88651204 0
0.27290797 -3.6587059 1.1372612 0
1.1628344 -3.6591148 -0.112854 0
-0.51339507 -3.641727 1.1084836 0
-0.031892061 -3.6469357 1.2061899 0
1.1201233 -3.6679616 -0.21807736 0
-0.11028433 -3.6326997 1.2445769 0
0.32347333 -3.6572664 1.1314716 0
1.0273073 -3.6674645 0.5072614 0
-0.91264629 -3.6251867 0.88853765 0
0.42364371 -3.6515501 1.1198459 0
-0.10740662 -3.6456511 1.2103894 0
1.0009507 -3.6499054 0.67067909 0
-0.098381519 -3.6563592 1.1814718 0
-1.1662824 -3.629575 0.49474418 0
0.78543198 -3.6588256 0.88077378 0
1.1200128 -3.6684434 0.27953458 0
0.70062351 -3.650162 0.98833716 0
-0.42386651 -3.6427953 1.1586914 0
-0.94872451 -3.6369359 0.81845832 0
-1.2526822 -3.630919 0.2149986 0
1.1609391 -3.6679587 -0.014555693 0
-0.33494425 -3.6324799 1.2226517 0
-1.0902865 -3.6355484 0.63030457 0
0.18948472 -3.6524947 1.1950889 0
-1.0890415 -3.6224182 0.707582 0
1.1214885 -3.6620083 0.37713301 0
0.040243387 -3.6552098 1.2033761 0
0.26332223 -3.6499979 1.1910515 0
-0.31882954 -3.6558502 1.1597629 0
1.0123942 -3.6597879 0.6282866 0
-0.1851635 -3.6477139 1.215374 0
0.82997406 -3.6554489 0.87796378 0
1.1197239 -3.6697032 -0.32195669 0
1.0964751 -3.6558149 0.50688374 0
0.32153857 -3.6555607 1.1652126 0
-1.1720316 -3.6348696 -0.48931366 0
-0.63306379 -3.6431367 1.0738378 0
-0.2123363 -3.6540396 1.1961462 0
0.4692893 -3.6556244 1.1161361 0
1.1601864 -3.6714716 0.083958864 0
-0.78201509 -3.6339111 1.0093861 0
1.0790489 -3.6679223 0.47453809 0
-0.57959676 -3.6414878 1.1167865 0
1.203318 -3.6588643 -0.11121249 0
-1.1621864 -3.6314514 0.55839217 0
-0.43761086 -3.6282787 1.2231131 0
0.91306555 -3.6632164 0.77409172 0
0.51712286 -3.6537824 1.1111166 0
1.037874 -3.6671631 0.57282233 0
0.744434 -3.6511307 0.98550224 0
-0.66657066 -3.6449082 1.0627739 0
1.0088171 -3.650836 0.72078001 0
1.163317 -3.6568635 0.37737882 0
0.61401224 -3.6704299 1.0097187 0
0.89326704 -3.6568739 0.83555377 0
-0.38302326 -3.6389451 1.2171459 0
-0.94745779 -3.6276989 0.90391457 0
-0.84221625 -3.6314838 0.98894334 0
-1.2393951 -3.6190298 0.49556541 0
0.68616307 -3.6603587 1.0064733 0
0.77721596 -3.6692069 0.90392053 0
1.1593825 -3.6752226 0.1818608 0
1.1627104 -3.6626117 0.34455109 0
-1.253449 -3.6316051 0.35550523 0
0.21055281 -3.6441727 1.2497144 0
0.89360368 -3.664227 0.81306827 0
1.1607069 -3.6690428 0.27996576 0
1.201955 -3.6657007 0.085691571 0
-0.9336977 -3.6367047 0.89139497 0
0.54591072 -3.6641595 1.0807996 0
-0.26460099 -3.6513393 1.2208517 0
-0.84743643 -3.625653 1.0155945 0
-0.42396188 -3.6294882 1.2428055 0
1.1610146 -3.6676068 -0.31901252 0
-0.5284276 -3.6444466 1.1588593 0
-0.31937075 -3.6407657 1.2440689 0
-0.9984746 -3.6210821 0.89204478 0
-0.41645432 -3.6365364 1.2286515 0
-1.1610012 -3.6254089 0.64553165 0
-3.5174217 -1.2515252 -0.9862442 0
1.0802662 -3.6629415 0.57206476 0
1.1208513 -3.6647871 0.4743166 0
1.2023858 -3.6635399 -0.21309912 0
1.0402408 -3.6580479 0.67047954 0
-0.64435983 -3.637773 1.1245365 0
1.201002 -3.6704803 -0.013661623 0
-0.21408343 -3.6494532 1.2453728 0
0.33267272 -3.6597183 1.1892309 0
0.87162125 -3.6594391 0.8764987 0
-0.73753285 -3.6368389 1.073859 0
0.657637 -3.6460075 1.0967011 0
1.0278614 -3.663892 0.67039394 0
0.91685879 -3.6508212 0.87305069 0
0.072791815 -3.6468673 1.2757366 0
-1.1660399 -3.6293516 -0.63409638 0
1.2014199 -3.6683843 0.18319166 0
0.95511425 -3.6640382 0.77271295 0
-1.3308625 -3.6226416 0.21221268 0
0.56065381 -3.6602654 1.1083987 0
-1.0848136 -3.6303616 0.76660371 0
-0.0016109943 -3.6590314 1.2481124 0
-1.336129 -3.6272199 -0.075329602 0
-1.331476 -3.6231747 -0.21962047 0
0.12383389 -3.6500394 1.2693434 0
0.32889473 -3.6469297 1.2417021 0
0.22702587 -3.6503215 1.2555251 0
1.2026929 -3.6619997 -0.31527925 0
0.17511976 -3.6514497 1.2626843 0
1.2429619 -3.6618769 0.087101817 0
0.10538745 -3.6592798 1.2494931 0
0.4044224 -3.6600492 1.1860335 0
-0.63278913 -3.6376677 1.1586471 0
-0.52804494 -3.6266654 1.2426114 0
-0.090150356 -3.6442637 1.2989402 0
0.37728667 -3.6478436 1.2359791 0
-1.3395145 -3.6301632 0.068304896 0
0.4338975 -3.6643078 1.1675434 0
0.75535822 -3.6605361 1.0046549 0
1.2425798 -3.6639469 -0.11074412 0
0.32006502 -3.6485789 1.2520871 0
-1.1715684 -3.6344428 0.63337779 0
0.60659695 -3.6601493 1.1042013 0
1.2011187 -3.6698949 0.28035104 0
-3.5020394 -1.3260324 -0.98341608 0
-3.5282607 1.2521464 -0.98915339 0
0.9978205 -3.6612883 0.77096152 0
-0.21529508 -3.6307106 1.3292394 0
-1.327311 -3.6195538 -0.36520898 0
0.54947555 -3.6481116 1.178118 0
0.27487993 -3.6550734 1.2504416 0
0.47646046 -3.6572053 1.1824961 0
1.2417104 -3.668658 -0.012162745 0
0.6587497 -3.6609511 1.082108 0
0.54308987 -3.6537809 1.1687279 0
1.16293 -3.660867 0.50681806 0
0.52278352 -3.6413012 1.2175331 0
0.013379574 -3.6555002 1.2861745 0
-0.8290379 -3.6309335 1.0707841 0
1.0414978 -3.6532063 0.76861787 0
-0.20231009 -3.6401772 1.3153076 0
0.87540531 -3.6476784 0.97654986 0
-0.51070213 -3.6385148 1.2356839 0
1.1608422 -3.6684115 0.47422731 0
-0.75422025 -3.650718 1.0684702 0
-1.0561404 -3.6408987 0.81799245 0
-0.04210043 -3.6561315 1.2944145 0
0.47201467 -3.649837 1.2253168 0
1.2416924 -3.6687558 -0.21257102 0
0.77686846 -3.6681678 0.99396145 0
-0.15013885 -3.6485519 1.3090239 0
0.62032068 -3.6446216 1.1748397 0
1.1342775 -3.6567211 0.62520933 0
1.2012041 -3.669467 0.37729728 0
0.78159976 -3.6696618 0.98643219 0
-0.94772768 -3.6296663 0.98920047 0
-3.5108957 1.3266673 -0.98579526 0
1.1193502 -3.6713328 0.57202065 0
0.65316176 -3.6425006 1.1700957 0
0.82474279 -3.657666 1.0025842 0
-0.10923147 -3.6439581 1.3317614 0
-0.31586552 -3.6320415 1.3317442 0
1.1665263 -3.6418874 0.66655636 0
1.2029731 -3.660594 0.47394466 0
0.69739997 -3.6585088 1.0960178 0
1.2292351 -3.666414 0.34462202 0
0.42089319 -3.6571805 1.2330155 0
-0.73711061 -3.6314981 1.1586871 0
0.79108047 -3.6428535 1.0851245 0
1.2827063 -3.6635728 -0.10931194 0
-1.1623583 -3.6323278 0.73148704 0
0.10327506 -3.6453621 1.3349481 0
1.1623777 -3.6612458 0.57101619 0
1.2404199 -3.6756516 0.18321037 0
1.0785055 -3.670145 0.67068779 0
-1.0145142 -3.639699 0.89870787 0
-1.2428694 -3.6221383 -0.64804029 0
-1.185127 -3.6297901 0.71059132 0
-0.92715025 -3.6301336 1.0249484 0
-1.2617996 -3.6390774 -0.50531197 0
1.2419063 -3.6675966 -0.31477141 0
-0.57415009 -3.6351771 1.2445884 0
-1.3392515 -3.6299343 0.35440135 0
-0.31950927 -3.636904 1.3293512 0
1.2411764 -3.6715524 0.28066146 0
-1.3262675 -3.6186466 0.49669826 0
-0.84293675 -3.6381545 1.0743775 0
0.95870221 -3.6720178 0.83585978 0
-0.57945013 -3.6372373 1.2400842 0
1.2828536 -3.6627057 -0.20953804 0
-0.72182298 -3.6462417 1.1358402 0
0.82548928 -3.6687322 0.98347449 0
-1.0543919 -3.6303952 0.90391505 0
0.74255323 -3.6562161 1.0918367 0
1.2425339 -3.6641958 0.37752366 0
-1.164676 -3.6280956 0.77157414 0
1.014531 -3.6651356 0.81204271 0
0.95415175 -3.6673522 0.87387168 0
0.43179345 -3.6555848 1.2550268 0
0.564726 -3.6509342 1.2153225 0
1.2812145 -3.6723602 -0.011648715 0
-0.50571346 -3.6539509 1.237253 0
0.61208296 -3.6470706 1.2093787 0
1.0814861 -3.6579511 0.76798284 0
-1.4159999 -3.6182323 0.20897484 0
-0.028381109 -3.6378443 1.3816767 0
1.0939299 -3.6739361 0.67040849 0
1.281634 -3.6698892 0.18433583 0
-0.78495407 -3.6370344 1.1428733 0
-0.0019197464 -3.6565106 1.3345685 0
1.2436223 -3.6582975 0.47377157 0
-0.37943673 -3.6344097 1.3427148 0
0.89889801 -3.6786654 0.90392184 0
-1.3306832 -3.6224856 -0.51470524 0
1.1198667 -3.6690803 0.66976309 0
0.65809393 -3.6448727 1.2041466 0
1.2837043 -3.6576948 0.37776077 0
1.3225541 -3.663672 -0.0092406869 0
1.2825083 -3.6647394 -0.31211978 0
1.2820303 -3.6675546 0.28124118 0
0.89177155 -3.6592305 0.99465072 0
-0.65973377 -3.6318729 1.2451544 0
-0.84660769 -3.6247971 1.1494277 0
1.0277724 -3.6644657 0.83423877 0
-0.27123809 -3.6531465 1.3290398 0
0.21231866 -3.653914 1.3380289 0
0.89285767 -3.6590927 1.0011797 0
1.3222861 -3.6654007 0.088305593 0
-0.42389059 -3.6394453 1.3293855 0
1.2797877 -3.6807642 0.085606933 0
-1.0951173 -3.6322262 0.89727843 0
1.1356608 -3.659914 0.71811998 0
-1.2575245 -3.635252 0.63674188 0
-1.4270203 -3.6275394 -0.08382982 0
-0.63293791 -3.6406307 1.2442665 0
-1.4275527 -3.6279891 0.062579632 0
1.2964906 -3.6616113 0.34482694 0
-0.70071769 -3.6231587 1.2619226 0
-0.91809344 -3.6345704 1.0765941 0
-1.2635355 -3.5983315 0.8180356 0
-0.52809834 -3.6291435 1.3282683 0
0.91277421 -3.6641679 0.97743273 0
0.99564111 -3.6692133 0.87236762 0
0.19109118 -3.6477368 1.3689709 0
-0.181566 -3.6391375 1.3930345 0
1.162614 -3.6633775 0.66938484 0
-1.0901184 -3.6353891 0.90503335 0
-0.10705042 -3.644767 1.3885396 0
-0.11013842 -3.6342614 1.4169908 0
-1.1627469 -3.6343093 0.8177011 0
-1.2388289 -3.6185229 0.77581489 0
-1.4251649 -3.6259725 -0.23117709 0
-1.2715249 -3.6336691 0.64337087 0
0.82967103 -3.6563466 1.0851586 0
-3.5066648 -1.4019743 -0.98625183 0
1.2440336 -3.6560688 0.56991327 0
0.2639544 -3.6480334 1.3645911 0
-1.418345 -3.6202128 0.35346341 0
0.68632162 -3.6596673 1.1747491 0
1.1218984 -3.6602206 0.76711035 0
1.3211956 -3.6724329 -0.1098125 0
1.2008954 -3.671015 0.5711087 0
-0.94805884 -3.6320825 1.0746925 0
0.54382622 -3.6564903 1.2577083 0
-0.64673328 -3.6404448 1.2565429 0
1.0389248 -3.663116 0.86966431 0
1.0965426 -3.6553352 0.832569 0
0.88705492 -3.6463675 1.0848401 0
0.32152033 -3.6554739 1.3406656 0
0.7780956 -3.6718369 1.0842805 0
0.11469901 -3.655442 1.3752372 0
-3.5108743 1.4023367 -0.98738396 0
-1.2690306 -3.622637 0.73090279 0
-0.0038647652 -3.6406384 1.4194868 0
1.0141065 -3.6640732 0.90392268 0
-0.84289193 -3.6377401 1.1598113 0
-0.73722339 -3.6329246 1.2441764 0
0.87307322 -3.6549265 1.0817099 0
1.3622034 -3.6639493 -0.10701591 0
0.96130097 -3.6567104 0.99942577 0
0.20918119 -3.6366053 1.4234223 0
1.3205158 -3.6768162 0.18428302 0
-1.009254 -3.6345687 1.034687 0
-0.26105809 -3.6432202 1.399843 0
1.3206309 -3.6760738 -0.21118617 0
0.95441842 -3.6664338 0.97554135 0
-1.3275623 -3.6197724 -0.66464067 0
1.2025199 -3.6628673 0.66771603 0
-0.33671904 -3.6363928 1.4046092 0
-0.44935536 -3.6427011 1.3561735 0
-1.5019703 -3.6122036 -0.089698434 0
0.038068533 -3.6610906 1.3813365 0
0.69739079 -3.6585329 1.2036879 0
-1.1624827 -3.6260757 0.91074538 0
1.361342 -3.6700819 0.088438034 0
-0.50754523 -3.6347497 1.3644631 0
1.3207589 -3.6752479 0.2811687 0
0.99810743 -3.6602449 0.97207332 0
-0.94630003 -3.6192558 1.1594076 0
0.33356512 -3.6568024 1.3621652 0
1.3219408 -3.6676273 0.37769663 0
0.7553755 -3.6604559 1.1725028 0
0.10372996 -3.6483593 1.4226177 0
1.0798753 -3.664541 0.86829805 0
1.361655 -3.6678538 -0.20792437 0
1.3626595 -3.6607018 -0.30775899 0
-1.4285953 -3.6288695 -0.38133758 0
0.77354872 -3.6582422 1.1737025 0
-1.3369889 -3.6279676 0.63961267 0
1.3621989 -3.6639807 0.28207028 0
1.3612782 -3.6705363 0.1853478 0
1.2298455 -3.6609333 0.66884255 0
1.1367594 -3.6624498 0.81100798 0
1.3603933 -3.676836 -0.010427237 0
1.2267193 -3.6890023 0.50717461 0
1.1615136 -3.6652787 0.76666331 0
1.4026111 -3.6570001 0.18699908 0
0.43267417 -3.6592364 1.3439612 0
-0.31926966 -3.643585 1.4164019 0
1.2959123 -3.6675785 0.50667751 0
0.78759491 -3.6527092 1.1938396 0
1.0113399 -3.6571493 0.99560237 0
-0.63273454 -3.6365843 1.3295765 0
-1.1631522 -3.6363759 0.90391576 0
0.31862462 -3.6417546 1.4270945 0
1.2800233 -3.6793759 0.47402298 0
1.3223786 -3.664804 0.47365344 0
1.4427818 -3.649091 0.092244506 0
-1.0534925 -3.6249936 1.0751033 0
-0.82616806 -3.6258228 1.2568903 0
-1.5133679 -3.6215532 0.057169318 0
-1.4196441 -3.6213098 -0.53012478 0
-0.41769433 -3.6391695 1.4117031 0
1.3623835 -3.662667 0.37788546 0
1.2424661 -3.6645632 0.66720295 0
1.0291568 -3.6555388 0.99794805 0
-1.0084305 -3.6376798 1.0825605 0
-1.0576994 -3.6502628 0.99005973 0
0.4037087 -3.6625063 1.3593311 0
1.1212749 -3.6629393 0.86653984 0
-0.75186229 -3.6463745 1.2540507 0
1.400931 -3.6703458 -0.0085607171 0
1.2816546 -3.6697674 0.57027626 0
-0.21356654 -3.6574497 1.4190948 0
1.4010284 -3.6695724 0.089143276 0
0.83129501 -3.6515365 1.1897175 0
-0.49495006 -3.6319182 1.4169273 0
0.82429743 -3.6599 1.1702056 0
-0.57477736 -3.6359041 1.3763719 0
1.3186713 -3.6887095 -0.31690609 0
-3.5054498 1.4776492 -0.98781145 0
-1.0851943 -3.6307223 1.0429356 0
-1.5133591 -3.6215458 0.20494199 0
-0.42387152 -3.6420922 1.4158754 0
0.65963888 -3.6638873 1.2613592 0
1.4007392 -3.671869 -0.10755306 0
1.3621681 -3.6720169 0.3447485 0
0.95675027 -3.6584053 1.0768242 0
0.54311156 -3.6538608 1.3465605 0
1.2021875 -3.6645341 0.7655623 0
0.73732078 -3.6703641 1.2028704 0
-0.84254313 -3.6345108 1.24524 0
1.4016981 -3.6642525 0.28232944 0
1.2605003 -3.6567514 0.71586728 0
-0.93636632 -3.6393828 1.1636767 0
-1.4306626 -3.6306155 0.49821794 0
-1.3275797 -3.6197875 0.78171146 0
-1.3802876 -3.6275742 0.64200199 0
-0.84405923 -3.6221652 1.2844357 0
1.362614 -3.6610255 0.47348547 0
1.3634355 -3.6566498 0.50638223 0
-1.1613932 -3.6274061 0.98996663 0
-0.52820754 -3.6342194 1.4148736 0
1.2684063 -3.6736531 0.62027884 0
1.162779 -3.6593738 0.86456501 0
0.47439635 -3.6647117 1.3560054 0
1.4005636 -3.6732643 -0.20797676 0
0.54699171 -3.6576769 1.3510404 0
-3.5129738 -1.4784055 -0.98983765 0
1.1359097 -3.6604884 0.90392387 0
0.90931904 -3.6754584 1.0837264 0
0.99941742 -3.6554811 1.0734944 0
-1.5191085 -3.6262622 -0.24264276 0
-1.0912173 -3.6259305 1.0866199 0
1.4414345 -3.6611879 -0.20409644 0
0.89346004 -3.6558287 1.1675072 0
1.2559011 -3.646919 0.81019962 0
0.42974496 -3.6470933 1.431272 0
1.0091581 -3.6516895 1.0871079 0
-1.5106533 -3.6193264 -0.39241058 0
-1.1956306 -3.6462162 0.90299869 0
-1.0027776 -3.6282525 1.1713324 0
1.0351576 -3.6776245 0.97347724 0
1.3214837 -3.6705747 0.56998336 0
-1.2469471 -3.6257873 0.91840065 0
-0.73759198 -3.6375883 1.3304849 0
-0.10933328 -3.6428685 1.5053473 0
-0.79217863 -3.6447124 1.2799308 0
-1.4206486 -3.6221583 0.64274395 0
1.4405105 -3.6694841 -0.10618198 0
-0.21472168 -3.6395802 1.5034423 0
-1.516067 -3.6237671 0.35211265 0
-0.57718945 -3.6327732 1.4241955 0
1.0420275 -3.6511667 1.0699918 0
1.4424394 -3.6521657 0.3782419 0
-0.94661355 -3.6215415 1.2452199 0
1.2304974 -3.6550801 0.83108294 0
1.4002964 -3.6753862 -0.31032807 0
1.0787889 -3.6689861 0.96977627 0
0.61737728 -3.6566627 1.3475056 0
-3.4914722 -1.5520394 -0.98622334 0
1.4399705 -3.6743326 -0.0084593296 0
0.87106407 -3.661171 1.1888328 0
1.1606606 -3.6788938 0.8338716 0
1.4810616 -3.6570425 -0.10296011 0
-0.63242292 -3.6303816 1.4148598 0
0.77367067 -3.6586068 1.2641225 0
1.0959476 -3.6595709 0.99723887 0
1.4292246 -3.6642625 0.3449713 0
1.4402659 -3.6716805 0.18611181 0
-1.3801279 -3.6269522 0.72949457 0
-0.70316076 -3.6258307 1.397203 0
1.1314808 -3.6502659 0.99653065 0
-3.4955182 1.5525048 -0.98731458 0
1.3227895 -3.6621542 0.66581881 0
-0.64687657 -3.6406062 1.3900471 0
-1.4205742 -3.6220953 -0.68397117 0
1.2411793 -3.671536 0.76550412 0
0.10380423 -3.6488488 1.5105875 0
1.2803965 -3.6771789 0.6677109 0
0.89359546 -3.6642044 1.1768746 0
-3.465364 1.6247029 -0.98164213 0
0.21063626 -3.6446328 1.5127885 0
1.4001408 -3.6766226 0.37773097 0
1.1208185 -3.6649299 0.96712589 0
1.4801811 -3.6661284 -0.0065072179 0
1.480747 -3.6602893 -0.20295 0
1.2018293 -3.6663311 0.86439145 0
0.9591552 -3.6501255 1.1790943 0
-1.2715151 -3.6336265 0.90391636 0
1.4402361 -3.6719484 0.28216684 0
1.3638289 -3.6523767 0.66444767 0
-1.6015921 -3.6147575 -0.099408269 0
1.2828735 -3.6625879 0.7635293 0
1.4403135 -3.671253 -0.3079651 0
1.2949574 -3.6774318 0.66934919 0
0.68705046 -3.6564887 1.3443508 0
-0.91998291 -3.6229405 1.2968466 0
1.3611958 -3.671123 0.56970763 0
-0.84204364 -3.629885 1.3307252 0
1.480202 -3.6659124 0.1869756 0
-1.5091951 -3.6181302 -0.54554582 0
-1.0550463 -3.6343262 1.161592 0
0.045590639 -3.6407516 1.555716 0
1.4023604 -3.6589918 0.56879258 0
-0.17779994 -3.6301591 1.5723689 0
-0.31904316 -3.6498969 1.5042758 0
-1.5169182 -3.6244655 0.49930656 0
-0.0012893677 -3.6616561 1.5103261 0
-1.378994 -3.6225305 0.81685913 0
-1.4883537 -3.6146669 0.64089108 0
-0.92059588 -3.6388805 1.2661023 0
-1.2830071 -3.6368687 0.90647721 0
-3.476553 -1.6261523 -0.98466516 0
1.4802761 -3.6651471 0.28273869 0
-1.1624477 -3.6327834 1.0763664 0
0.91091692 -3.6702371 1.1879528 0
0.11786604 -3.6464865 1.5512855 0
0.95978725 -3.6656272 1.1672029 0
0.66100252 -3.6683898 1.352 0
-1.1757069 -3.6382542 1.0542259 0
-1.6124318 -3.6233931 0.050327897 0
-0.73900485 -3.6226904 1.4370708 0
1.3229375 -3.6612 0.76257229 0
1.3993963 -3.6825366 0.473773 0
1.5195441 -3.6640055 -0.10363996 0
0.19041991 -3.6497247 1.5465202 0
1.5193608 -3.6662285 -0.0059686899 0
-1.6090133 -3.6206696 -0.25315976 0
-0.42381549 -3.6499147 1.5039079 0
-1.5068815 -3.6162324 0.64601886 0
-1.6120901 -3.6231208 0.2008661 0
1.4801947 -3.6659877 0.37807024 0
-1.0528781 -3.6213031 1.2466874 0
0.42917705 -3.6447389 1.5202286 0
-0.033685923 -3.6515806 1.5645263 0
0.99804926 -3.6604564 1.1789231 0
1.2026693 -3.662118 0.96325731 0
0.2625314 -3.6524556 1.5419064 0
0.89152825 -3.6585672 1.2677603 0
1.1593732 -3.675266 0.96746469 0
0.54580367 -3.6637657 1.4375968 0
1.4793352 -3.6748564 -0.30784243 0
1.4401062 -3.6731143 0.47352588 0
1.4781007 -3.6875963 0.087991238 0
0.10208058 -3.6374919 1.5969989 0
1.5193199 -3.6667237 -0.20363408 0
-0.66714311 -3.6459997 1.4344916 0
1.5188501 -3.6724205 0.090294123 0
1.2401848 -3.6769254 0.86489415 0
-1.4881406 -3.6139243 0.72876096 0
-0.73782158 -3.6404934 1.4172347 0
1.3972526 -3.6708765 0.61651993 0
-0.94709969 -3.6250861 1.3316624 0
1.5190448 -3.6700594 0.18691778 0
-1.1878841 -3.6341016 1.0937915 0
0.32269299 -3.6610305 1.5189803 0
-0.10984707 -3.6517112 1.5710063 0
0.75408638 -3.6664712 1.3434238 0
1.0126948 -3.6605403 1.1796162 0
-1.4273674 -3.6278327 0.78879905 0
0.33462524 -3.6533382 1.5371163 0
1.0771729 -3.6755972 1.0734782 0
-1.6091733 -3.6207972 0.35088134 0
-0.10927963 -3.6434436 1.5932667 0
-0.52844214 -3.6451211 1.503243 0
-0.21470356 -3.6398592 1.5910277 0
0.40759397 -3.6491301 1.5313706 0
1.4805592 -3.6622262 0.47326374 0
1.5589356 -3.6592107 0.092280984 0
1.0407783 -3.6559777 1.1748068 0
1.4409084 -3.6659107 0.56891465 0
1.5191638 -3.6686163 0.28273964 0
-0.26157165 -3.644397 1.5829997 0
1.1200105 -3.6684532 1.0695937 0
-1.0953312 -3.6403294 1.1859288 0
1.4012609 -3.667726 0.66534662 0
1.4949386 -3.6749413 0.34485507 0
-1.3429632 -3.6331613 0.92784142 0
-0.63264179 -3.6347375 1.502151 0
-1.2514603 -3.6298256 1.0622125 0
-1.0084357 -3.6376884 1.2730107 0
1.2952249 -3.6746709 0.83220112 0
0.4787488 -3.6488845 1.5268471 0
1.2659663 -3.6684368 0.90392566 0
-0.0026328564 -3.6506915 1.5967824 0
1.3611224 -3.684695 0.66941845 0
-0.78840613 -3.6407032 1.4156582 0
-1.2738385 -3.6439037 0.99088418 0
-1.3804002 -3.6280131 0.90391695 0
0.55090463 -3.6426075 1.5211451 0
-1.0027759 -3.6282511 1.3112974 0
1.0267524 -3.6710432 1.1663494 0
1.5193224 -3.6666927 0.37811899 0
1.1622267 -3.6619508 1.0660176 0
-0.84819412 -3.6264355 1.4239545 0
-3.4692202 -1.7012057 -0.98544455 0
1.3227969 -3.6621068 0.86038971 0
1.4275448 -3.6889322 0.50686014 0
-3.4699254 1.7013074 -0.98563552 0
0.65851498 -3.660176 1.4414873 0
-1.6141989 -3.6248009 -0.4087323 0
1.3611746 -3.6712735 0.76310968 0
-1.3750415 -3.6323144 0.91062856 0
1.1600326 -3.683882 0.99915922 0
1.1382486 -3.6658871 1.0900316 0
0.21130633 -3.64833 1.6023934 0
1.3965756 -3.6695311 0.71256554 0
-1.515959 -3.6236787 -0.7038871 0
-1.0513141 -3.6119082 1.3319676 0
-0.423913 -3.6363251 1.588948 0
-0.34046459 -3.6446517 1.5904577 0
1.5578864 -3.6746204 -0.0068359971 0
0.77832341 -3.672518 1.3566246 0
1.4022992 -3.6594782 0.76100743 0
1.2796484 -3.6815844 0.86453056 0
1.4953678 -3.6669514 0.50640523 0
1.2292733 -3.6660702 0.99598598 0
1.5584865 -3.6658077 0.28304124 0
1.561898 -3.6591833 0.34518409 0
1.5585551 -3.6647985 -0.30341119 0
1.5577731 -3.6762843 -0.10546219 0
1.0805491 -3.6617844 1.1737113 0
-1.1637747 -3.6395509 1.1633086 0
1.390385 -3.6572292 0.80861843 0
-1.7015624 -3.6147039 0.044663429 0
0.88871992 -3.6509082 1.35851 0
-1.2746778 -3.6242445 1.098582 0
0.89299786 -3.6583331 1.3365922 0
1.5588958 -3.6597946 0.37829089 0
0.82166457 -3.6731055 1.342026 0
1.4799953 -3.6680465 0.5688138 0
0.54288447 -3.6530254 1.5261927 0
0.31937623 -3.6453152 1.6057549 0
-0.31898928 -3.651397 1.5922127 0
-0.49293447 -3.6277921 1.601934 0
-0.82947969 -3.6317203 1.4471087 0
-1.2713315 -3.6328146 1.0774162 0
1.517849 -3.6845565 -0.30950928 0
1.3627353 -3.665139 0.83084285 0
-0.41876221 -3.6414368 1.5973682 0
1.2401713 -3.6769989 0.96472383 0
-1.6135566 -3.624289 0.50061643 0
-1.4898763 -3.6199667 0.81624031 0
-1.5086789 -3.6177068 0.79369998 0
-0.52818322 -3.6330869 1.5884788 0
1.5574874 -3.6804805 0.18626118 0
-1.5963697 -3.6105971 0.64948046 0
1.4401182 -3.6730068 0.66540492 0
1.0946847 -3.6685622 1.1643877 0
1.3623018 -3.6632483 0.85965395 0
-1.1724548 -3.6352592 1.1962109 0
1.2972127 -3.6541588 0.99366713 0
-1.3289673 -3.6209939 1.0704939 0
0.61864364 -3.6514823 1.51931 0
1.5975428 -3.665035 -0.20201814 0
-1.7075229 -3.6193144 -0.10998493 0
-0.73749399 -3.6363499 1.5035279 0
1.5972908 -3.6697259 -0.10372275 0
-0.84390831 -3.6471488 1.4195552 0
1.2815757 -3.6702325 0.96202493 0
1.5572445 -3.684046 -0.20696479 0
-1.4243295 -3.625267 0.93479729 0
0.96193206 -3.6529939 1.3332329 0
1.0128956 -3.6610427 1.2720313 0
1.5971141 -3.6730146 0.090874195 0
-1.3804741 -3.6283016 0.99111342 0
1.2009596 -3.6706932 1.0661829 0
1.2659032 -3.6683018 0.99820065 0
1.4029676 -3.6541686 0.85737824 0
1.4804022 -3.663847 0.66424274 0
1.5975987 -3.6639934 0.2832607 0
1.5972129 -3.6711731 0.18728518 0
1.3229904 -3.6608593 0.95893574 0
1.5968874 -3.677233 -0.0068734884 0
1.4277126 -3.6864698 0.6692493 0
-0.92396998 -3.6269422 1.4382799 0
1.518123 -3.6812348 0.47353566 0
1.5585847 -3.6643634 0.473189 0
-1.6032624 -3.6199429 0.63820934 0
1.5192504 -3.6675665 0.56860495 0
-0.91231704 -3.6246197 1.4538946 0
-1.0989358 -3.6383908 1.2805669 0
-1.0825136 -3.6281819 1.3245573 0
-1.6172616 -3.6272407 -0.56627077 0
1.163067 -3.6597793 1.1615791 0
1.2425699 -3.6640005 1.0628545 0
1.4955623 -3.6633303 0.6678226 0
-1.2695785 -3.6250601 1.1638453 0
-1.4888048 -3.6162374 0.90391743 0
-1.7103252 -3.6214821 -0.26586133 0
1.1191764 -3.672091 1.1740131 0
0.43080854 -3.6515021 1.6115224 0
1.5617151 -3.6638286 0.50629687 0
-1.162699 -3.6340654 1.2496898 0
0.77571285 -3.6647127 1.4470973 0
-1.466656 -3.624769 0.91464245 0
-3.4637513 -1.7766552 -0.98702264 0
-1.7160723 -3.6259274 0.19648862 0
1.6365647 -3.6630487 0.18815529 0
-0.63268185 -3.635534 1.5896456 0
-0.94875741 -3.637176 1.4199564 0
1.1389443 -3.6674926 1.1834607 0
1.5973597 -3.6684427 0.37818098 0
-0.84214878 -3.6308587 1.504231 0
0.65765679 -3.6573424 1.5320854 0
1.5969584 -3.6759109 -0.30575782 0
-1.709892 -3.6211469 0.3494947 0
1.5197045 -3.6620619 0.66377997 0
1.4398171 -3.6757104 0.76244402 0
1.6366757 -3.6602292 -0.30106544 0
1.3627677 -3.6599317 0.95762718 0
1.6362177 -3.6718585 -0.10378498 0
-0.58009624 -3.6385133 1.6131124 0
1.1607178 -3.6689916 1.1707919 0
1.2829806 -3.6619575 1.0607629 0
1.6361363 -3.6739256 0.090985179 0
1.203324 -3.6588342 1.1658144 0
-1.1823633 -3.625468 1.2858734 0
-1.6031508 -3.6195927 0.72695625 0
1.0285249 -3.6596138 1.3324277 0
-1.2544224 -3.6324763 1.2076445 0
1.0098449 -3.6534083 1.3638496 0
1.6358486 -3.6812308 -0.0072191358 0
1.5333037 -3.6747527 0.61188221 0
1.5580776 -3.6718123 0.56867409 0
1.4411964 -3.6633248 0.85810494 0
1.4284873 -3.675092 0.83127928 0
-1.7129023 -3.6234753 -0.42366499 0
-0.73695421 -3.6295197 1.5897822 0
-1.4876447 -3.6121979 0.99140644 0
0.68392038 -3.6701381 1.5200276 0
-0.10140109 -3.6307395 1.7489023 0
1.4795452 -3.6726892 0.76156974 0
-3.4799757 1.779231 -0.99142432 0
1.3984011 -3.6731589 0.90392745 0
-3.4462161 1.8501983 -0.98561633 0
1.2297004 -3.6622355 1.1607223 0
1.6753911 -3.6648462 0.18810749 0
-1.6146705 -3.6251764 -0.72470891 0
0.54357338 -3.6555603 1.6175413 0
-1.0005615 -3.6245611 1.4626026 0
1.5977554 -3.6610754 0.56798601 0
1.2673938 -3.6714888 1.0927422 0
1.3626837 -3.665765 0.99436831 0
1.675209 -3.6721108 -0.0055746436 0
1.5969267 -3.676501 0.4733597 0
1.6359169 -3.679497 0.28254247 0
1.5585532 -3.6648264 0.66376603 0
-1.3745487 -3.6315901 1.1061578 0
1.2431551 -3.6608291 1.1643274 0
-1.3827088 -3.6370158 1.078824 0
1.6362081 -3.6721039 0.37814867 0
-1.7117109 -3.6225538 0.50194538 0
-0.66302013 -3.6381385 1.6218066 0
1.4809768 -3.6579163 0.8566004 0
-1.5558457 -3.6116025 0.91823196 0
-1.8032649 -3.6131215 0.037670374 0
-1.6056206 -3.6179669 0.80031013 0
1.322196 -3.6659818 1.0602283 0
-1.1618834 -3.6299059 1.3363447 0
0.82543421 -3.6541984 1.509582 0
1.6355791 -3.6880784 -0.2069242 0
0.89306593 -3.6627605 1.452296 0
0.043172479 -3.64729 1.7390823 0
-1.7053421 -3.6176274 -0.5808959 0
-3.4540153 -1.8515512 -0.9877373 0
1.5319537 -3.6722512 0.70953941 0
-0.25435185 -3.6278527 1.7640429 0
1.4956119 -3.6624062 0.82981443 0
-0.74050713 -3.625458 1.627646 0
1.6750703 -3.677649 -0.10466683 0
1.4010284 -3.6695716 0.95850301 0
-1.0551653 -3.6350408 1.4219048 0
1.6364022 -3.6671727 0.47316504 0
-1.6039984 -3.6222529 0.81542027 0
0.18955517 -3.6522863 1.7272658 0
-1.1696861 -3.6327095 1.3399775 0
1.6751113 -3.6760128 -0.20384616 0
0.75258684 -3.6734684 1.5173454 0
-0.032715559 -3.6490676 1.7467175 0
1.1383965 -3.6662283 1.276984 0
-3.4219356 -1.9223347 -0.98265386 0
-0.9482317 -3.6333418 1.506758 0
-1.3788059 -3.6217966 1.1654155 0
1.6749083 -3.6841187 0.089887619 0
1.3624662 -3.6620777 1.0579777 0
1.561291 -3.6745985 0.66825235 0
-1.4292345 -3.6294093 1.0834208 0
-1.0133507 -3.6385641 1.4574959 0
1.0954211 -3.6633198 1.3312397 0
-0.84180427 -3.6276691 1.5912745 0
-1.3341625 -3.6255102 1.2183735 0
-1.8132012 -3.6205826 -0.12039971 0
1.7142104 -3.6695001 0.091768622 0
1.5184016 -3.6778579 0.76177573 0
-1.8021872 -3.6123123 0.34830678 0
0.40697861 -3.6512482 1.7095494 0
1.403152 -3.6527038 1.0545924 0
0.77665627 -3.6675336 1.5396218 0
-1.7966549 -3.6081583 -0.43480867 0
1.2823461 -3.6656945 1.1637793 0
1.4408228 -3.6666803 0.95703363 0
-1.8141403 -3.6212878 0.19254827 0
-1.273098 -3.6406283 1.2524192 0
0.25967455 -3.6613348 1.7236857 0
-1.0518627 -3.6152046 1.5063663 0
-1.5296414 -3.6349025 0.94549274 0
1.6751606 -3.674041 0.37813675 0
-3.4316411 1.9241616 -0.98530006 0
1.5584068 -3.6669772 0.76007462 0
-1.2761443 -3.626467 1.2940977 0
0.65805626 -3.6586614 1.624059 0
0.11153114 -3.6643999 1.7371631 0
1.7141302 -3.6769805 -0.0062355399 0
1.7141788 -3.6724443 0.18750358 0
1.3994151 -3.675174 0.99970376 0
1.2960658 -3.6659944 1.1602256 0
-1.8124683 -3.6200323 -0.27858943 0
1.5310177 -3.670517 0.80683279 0
1.6753387 -3.6669354 0.47313905 0
1.6748834 -3.685113 -0.30740011 0
0.33167601 -3.6629751 1.7183273 0
1.2665902 -3.6697707 1.187274 0
-1.7195506 -3.6222317 0.63547873 0
-0.18709183 -3.6523111 1.7629781 0
-1.7121477 -3.6228917 0.65465117 0
1.4808397 -3.6593316 0.95480704 0
0.76793206 -3.6414495 1.6272535 0
1.6361332 -3.6740053 0.56856942 0
1.5191658 -3.6685932 0.85774434 0
1.597976 -3.65697 0.75855279 0
1.6616535 -3.6574836 0.60856152 0
1.428701 -3.6719525 0.99451745 0
-0.3381691 -3.63959 1.7760468 0
1.7141567 -3.6744964 0.28290713 0
0.62075484 -3.6428454 1.6925781 0
1.6746912 -3.6927817 0.28191197 0
-1.6013653 -3.6145771 0.95077252 0
0.8910687 -3.6687872 1.5100336 0
-1.2475297 -3.6263087 1.3522911 0
0.89038992 -3.6554625 1.5439341 0
-1.6051803 -3.6259625 0.90391862 0
1.5966659 -3.6813581 0.665007 0
-1.7170744 -3.6151669 0.72546911 0
1.7531345 -3.6695459 -0.10292882 0
-1.5081084 -3.6172388 1.0917892 0
1.162375 -3.6652758 1.3298984 0
0.47493446 -3.6627548 1.7075629 0
1.7139971 -3.6893661 -0.10680872 0
-1.4692857 -3.6285164 1.1124606 0
-1.1622324 -3.6316857 1.4241257 0
1.3214073 -3.6710672 1.1635222 0
-1.0962465 -3.6340487 1.4738588 0
1.7531548 -3.6751912 -0.0059300661 0
-1.6982851 -3.612169 0.80637407 0
1.7140058 -3.6885567 -0.20658112 0
-1.4933178 -3.6319473 1.0799484 0
1.7531217 -3.665976 0.28336096 0
-0.83133364 -3.6350219 1.6397152 0
1.7141361 -3.676415 0.37810755 0
-1.2711086 -3.6318283 1.3392024 0
0.54589689 -3.6618936 1.7024295 0
-0.41785574 -3.6395118 1.784986 0
1.0153023 -3.6670659 1.4590092 0
-1.0941904 -3.6392481 1.4732385 0
1.5613878 -3.6721404 0.83039761 0
-3.4141812 -1.9975202 -0.98448336 0
-1.7128336 -3.6234224 -0.7451086 0
1.3971436 -3.6706598 1.0953484 0
1.7140191 -3.6873302 -0.30780655 0
1.7531583 -3.6762164 -0.20369971 0
1.7531757 -3.6810422 0.090368509 0
-0.49415159 -3.6302836 1.7915986 0
-1.7915566 -3.6043301 0.65737152 0
-1.3804193 -3.6280873 1.2536311 0
1.1395818 -3.6689641 1.3713603 0
-1.6025729 -3.6177781 0.99230742 0
1.6359967 -3.6774714 0.66450739 0
-0.94826341 -3.6335738 1.5948186 0
1.51951 -3.6644197 0.95512056 0
1.7531456 -3.6726317 -0.3038305 0
1.7919831 -3.6650789 -0.10214162 0
-1.8144565 -3.6215253 0.50336099 0
1.792032 -3.667805 -0.0048263073 0
1.7531801 -3.682296 0.18665385 0
0.95890498 -3.6708238 1.5077646 0
1.3623109 -3.670285 1.159965 0
-1.1784134 -3.6192911 1.479939 0
1.5344335 -3.676846 0.90392935 0
1.4951856 -3.6703441 0.99382401 0
1.6364398 -3.6662188 0.7594676 0
1.7141069 -3.6791437 0.47334003 0
-1.910217 -3.6125181 0.030179024 0
1.7920271 -3.6675322 -0.20179123 0
0.687024 -3.6566045 1.6920729 0
-1.0516968 -3.6142075 1.5941353 0
1.4301343 -3.6509016 1.1560974 0
1.2666399 -3.6698768 1.2822142 0
-1.3705595 -3.6257279 1.3023252 0
1.6939017 -3.6615999 0.66739726 0
1.3603739 -3.6769748 1.1635621 0
1.7919853 -3.6651964 0.28338003 0
-0.91537094 -3.6298802 1.6483052 0
1.5572842 -3.6834633 0.85963964 0
1.6270931 -3.6928532 0.66909754 0
-1.8110671 -3.6189802 -0.60049891 0
1.027877 -3.6637919 1.5036092 0
0.75739253 -3.6510432 1.6865351 0
-1.1603749 -3.6222148 1.5106828 0
-1.9121974 -3.6139612 0.18864512 0
1.5273068 -3.6636412 1.0008435 0
1.6751182 -3.675741 0.66424584 0
-1.4316723 -3.6314683 1.2335205 0
1.6694446 -3.6709781 0.70647025 0
1.4012256 -3.6680057 1.1597347 0
1.7922516 -3.6800795 0.090435147 0
1.674698 -3.6925132 0.56947386 0
1.2284955 -3.6730549 1.329886 0
-3.4328866 2.0013194 -0.98959768 0
-1.4927526 -3.6299801 1.1680593 0
1.5971518 -3.6723113 0.8574928 0
1.0972657 -3.6501863 1.4981601 0
-1.2692082 -3.6234229 1.426095 0
1.4387188 -3.6855707 1.0611603 0
1.7531433 -3.6720092 0.47321308 0
-1.1703913 -3.633359 1.4870815 0
1.6277432 -3.6668952 0.82975209 0
1.6754518 -3.6624258 0.75884795 0
-1.5622931 -3.6205165 1.1182868 0
-1.9121349 -3.6139157 -0.29070425 0
1.0113879 -3.6572697 1.5513282 0
0.88920617 -3.6522343 1.63673 0
1.7923063 -3.6831365 0.18654358 0
1.5581 -3.6714835 0.95592666 0
-1.8343706 -3.6141722 0.63324404 0
1.396212 -3.6688085 1.191174 0
-1.3792362 -3.6234748 1.3412178 0
1.7532074 -3.6899335 0.37787402 0
1.5617715 -3.6623957 0.99246907 0
-1.9236033 -3.6222732 -0.13142133 0
-1.7238173 -3.6344061 0.81426859 0
1.4789132 -3.6792111 1.0587387 0
-0.58110499 -3.6405056 1.8044276 0
1.1368016 -3.6625471 1.4649887 0
1.4409381 -3.6656446 1.1578529 0
1.7140235 -3.686918 0.56914377 0
1.7141896 -3.6714303 0.66380763 0
1.7922881 -3.6821129 -0.30648357 0
1.8312128 -3.6757896 -0.0062460303 0
1.5193145 -3.6667895 1.0550492 0
1.8308638 -3.6649559 -0.30214649 0
-1.3425028 -3.632761 1.3697209 0
1.2960891 -3.6657546 1.3271136 0
1.8311239 -3.6730313 -0.20328659 0
1.831275 -3.6777201 0.090604782 0
1.7531469 -3.6729836 0.56840622 0
1.6362159 -3.6719038 0.85714066 0
1.8313019 -3.6785557 -0.10495192 0
1.869547 -3.6598976 0.092606544 0
-3.409574 2.0736077 -0.98747623 0
-1.8321495 -3.6083736 0.72392166 0
1.6689615 -3.6701415 0.80527663 0
1.2631811 -3.6624825 1.376605 0
1.8307686 -3.6620021 0.37833726 0
-1.2657986 -3.6083412 1.5120304 0
-1.9209051 -3.6203067 0.34655786 0
-1.4904518 -3.6219699 1.2557755 0
1.5590229 -3.6579273 1.0523207 0
1.8064959 -3.6615949 0.5023483 0
-1.7984543 -3.6095095 0.81320333 0
-1.2442288 -3.6233549 1.499929 0
1.5971804 -3.6717782 0.95552206 0
1.5265186 -3.6621809 1.0977859 0
-1.3752832 -3.6080601 1.4274926 0
1.8314333 -3.6826329 0.18650186 0
-3.4170661 -2.0752416 -0.9895308 0
1.8312923 -3.6782548 0.28264427 0
-1.6137776 -3.6244652 1.1055245 0
1.7922138 -3.6779668 0.4733243 0
1.870023 -3.6701229 -0.0055910349 0
-1.4646924 -3.6219704 1.3103118 0
-1.723237 -3.6327498 0.90391994 0
1.8307749 -3.6621974 0.47306597 0
1.7531387 -3.6707098 0.66373241 0
-1.60885 -3.6374812 1.0817564 0
-3.3805637 -2.1443515 -0.9840641 0
-1.9147968 -3.6158555 0.5047102 0
-1.0081897 -3.6372783 1.6606674 0
1.8700646 -3.6710165 0.18738437 0
-1.7152672 -3.6253047 0.96258688 0
-1.8168826 -3.6233468 -0.76727092 0
-1.9224551 -3.6214364 -0.45600289 0
-0.66611552 -3.6440399 1.8157053 0
1.8703167 -3.6764331 -0.10483801 0
-1.2776458 -3.6287429 1.4919872 0
1.3940953 -3.6646023 1.2869692 0
1.7925678 -3.6977546 0.37773013 0
1.6364273 -3.6665366 0.9541496 0
1.3628438 -3.6638243 1.3255806 0
0.82106233 -3.6761262 1.6896615 0
-1.5225906 -3.6291187 1.2468116 0
-1.6035705 -3.6209097 1.1696997 0
-0.74321032 -3.6304371 1.8222156 0
1.7922133 -3.6779404 0.56868792 0
-1.719497 -3.6220789 0.99326706 0
1.4790033 -3.6782818 1.1601644 0
1.6277993 -3.6646621 0.99248612 0
1.8703884 -3.6779706 -0.20478272 0
0.89151096 -3.6663907 1.6835413 0
1.6756387 -3.6549618 0.95165539 0
-1.9098229 -3.6122308 -0.61790216 0
1.7140601 -3.6834996 0.76135027 0
1.1615112 -3.6721375 1.5012257 0
-1.1618588 -3.629781 1.6007252 0
1.7599759 -3.6808441 0.66839337 0
1.8308247 -3.6637418 0.56799471 0
1.6937032 -3.6800897 0.83080304 0
1.6749405 -3.682832 0.8586731 0
1.6713004 -3.6741924 0.90393114 0
1.9089756 -3.6686101 0.091278553 0
1.8703797 -3.6777852 -0.30599821 0
1.1358513 -3.6603534 1.5596619 0
-3.3957253 2.1478853 -0.98823547 0
1.0120077 -3.6588209 1.6461658 0
1.714231 -3.6675832 0.85614705 0
1.8705024 -3.6804197 0.28244996 0
-1.6617608 -3.6188843 1.1253536 0
1.7531389 -3.6707757 0.75977087 0
1.4946389 -3.6805179 1.1601584 0
1.909202 -3.6723266 -0.0062725544 0
1.3856891 -3.6478975 1.3813262 0
-1.9101322 -3.6124561 0.66262078 0
1.5971557 -3.6722386 1.0550835 0
1.9092697 -3.6734383 -0.1046629 0
1.8921669 -3.6678579 0.3450532 0
1.5186408 -3.6749578 1.1583285 0
0.96026886 -3.6627905 1.6793776 0
-2.0209227 -3.6115508 0.18408978 0
-1.4325349 -3.6321967 1.3854201 0
-1.8377109 -3.6228924 0.81360817 0
1.8153355 -3.6759388 0.60194802 0
-1.7950072 -3.6069212 0.96900606 0
1.8704073 -3.6783786 0.37802446 0
-1.7164187 -3.6132958 1.0822778 0
-1.0958459 -3.6334026 1.6704373 0
1.4294925 -3.6603272 1.3239303 0
1.5279878 -3.6649032 1.1951942 0
-3.3633461 -2.2176626 -0.98417473 0
1.7599111 -3.662708 0.82926154 0
-1.3324804 -3.624048 1.5177867 0
-1.4926937 -3.6297746 1.3454087 0
1.5583448 -3.6678877 1.1556406 0
-1.6025481 -3.615519 1.2572367 0
1.7923115 -3.6834271 0.66488171 0
1.6364694 -3.6654706 1.0531006 0
1.9092238 -3.6726837 -0.30519164 0
-2.0323515 -3.6196313 0.021135449 0
-2.0048685 -3.6001997 0.50582802 0
1.2667645 -3.6701434 1.4734669 0
1.228483 -3.6731665 1.49964 0
1.9098471 -3.68292 -0.20641249 0
1.6685572 -3.6694412 1.0025668 0
-0.8303473 -3.6332657 1.8341651 0
1.947968 -3.6672983 -0.10398322 0
-1.3767397 -3.61374 1.5171709 0
1.7920688 -3.669868 0.75971067 0
-1.706944 -3.6188667 1.1165843 0
1.8129501 -3.6720681 0.70300329 0
-1.4862397 -3.6073072 1.4314823 0
1.9483352 -3.6721759 -0.0066697598 0
1.8311062 -3.6724775 0.66400909 0
-1.60411 -3.6226029 1.2589092 0
1.8705846 -3.6821859 0.47344196 0
1.9482679 -3.6712825 0.090623379 0
1.7142549 -3.6653588 0.95354176 0
1.9098551 -3.6830494 0.28220177 0
-2.0367517 -3.6227427 -0.14274132 0
1.8921844 -3.6684005 0.50635612 0
-1.9553652 -3.6159375 0.62999058 0
1.9087331 -3.6646287 0.47317171 0
1.9103134 -3.6905754 0.18548679 0
1.5611527 -3.6781113 1.1592877 0
-2.0278449 -3.6164451 0.34508073 0
-3.3776321 2.2212088 -0.98811889 0
1.7531574 -3.675926 0.85744631 0
1.6938134 -3.6698134 0.99297357 0
1.0271559 -3.6684415 1.6779988 0
-1.912364 -3.6140826 -0.78636324 0
-1.3747494 -3.6318853 1.5030026 0
-2.0338511 -3.6206915 -0.30699122 0
1.5973752 -3.668154 1.1550763 0
-1.5664725 -3.6262949 1.3202233 0
1.9487871 -3.6781788 0.18634021 0
1.9866215 -3.6616895 0.091410279 0
1.8705035 -3.6804454 0.56895125 0
1.9483806 -3.6727784 -0.30592966 0
-1.8405414 -3.6302826 0.90392101 0
1.753104 -3.661011 0.95266962 0
1.9486241 -3.6760132 0.2824316 0
1.095903 -3.6598885 1.673039 0
-2.0258451 -3.615031 -0.47160327 0
1.9490539 -3.6817219 -0.20675141 0
1.5258604 -3.6609614 1.2923574 0
-3.3449545 2.2906928 -0.98425078 0
1.8700461 -3.6706207 0.66398084 0
1.9871798 -3.6679139 -0.10472906 0
-1.7183304 -3.6187503 1.1721034 0
1.8265029 -3.6942213 0.66913188 0
-1.8351066 -3.6160939 0.99406374 0
-1.9167261 -3.6172614 0.82192552 0
1.8141329 -3.6739874 0.80347013 0
-1.5210145 -3.6278257 1.400475 0
1.6750972 -3.676573 1.0553753 0
1.295086 -3.6761043 1.4987221 0
1.6365032 -3.6646082 1.1536396 0
-1.7606411 -3.613755 1.1321762 0
1.9876602 -3.6732693 -0.0073543787 0
1.6277077 -3.6683152 1.1573977 0
-1.1880028 -3.6342876 1.6819439 0
-1.9568307 -3.6194575 0.72128844 0
1.8312539 -3.6770658 0.76071477 0
1.1371266 -3.6632972 1.6560059 0
1.7921726 -3.6756637 0.85747111 0
1.4951265 -3.6714432 1.3253114 0
1.9107996 -3.6985583 0.37763488 0
1.263358 -3.6628609 1.5686476 0
-3.3554635 -2.2934618 -0.98716271 0
-1.2741117 -3.6451116 1.6079195 0
1.9490488 -3.6816535 0.37788391 0
1.9474895 -3.6609414 0.56817615 0
1.9881376 -3.678592 -0.20677304 0
1.1631767 -3.6589077 1.6703987 0
-1.6049895 -3.6253636 1.3487215 0
-1.9544568 -3.613755 0.81279826 0
1.8261948 -3.6769969 0.83057392 0
1.7141595 -3.6742465 1.054677 0
1.8700858 -3.6714716 0.760216 0
1.6744657 -3.6796749 1.1018603 0
1.9879305 -3.6762846 -0.30773723 0
-1.8327541 -3.6099522 1.0839982 0
1.7599436 -3.6718099 0.99318957 0
2.0264387 -3.6678455 0.090186238 0
-2.0246501 -3.614186 -0.6397016 0
1.9887471 -3.6853881 0.18542409 0
-0.92494941 -3.6463802 1.8497865 0
2.0262508 -3.6660399 0.18679249 0
-2.1341329 -3.6091831 0.014350176 0
1.9594667 -3.6915562 0.34459364 0
1.9102604 -3.6897044 0.56954765 0
-2.0227251 -3.6128249 0.66742575 0
1.9877771 -3.6745729 0.3779515 0
1.3619428 -3.6747482 1.4970312 0
1.9587132 -3.6753695 0.50652337 0
-1.6604469 -3.6171215 1.3278613 0
-1.2740309 -3.6232641 1.690629 0
1.8312684 -3.6775148 0.85791934 0
1.8146091 -3.6747599 0.90393329 0
1.9095408 -3.6778884 0.66480112 0
1.9887911 -3.6858788 0.28174329 0
-1.9061306 -3.6095402 0.98016667 0
-1.4705596 -3.6303318 1.5133421 0
1.9495829 -3.6887493 0.4736402 0
2.0273538 -3.6766315 -0.10716897 0
2.0275567 -3.67858 -0.0088011622 0
-1.8101165 -3.6182663 1.1295235 0
-1.7186189 -3.6195734 1.2620335 0
1.7922027 -3.6773453 0.95592618 0
1.4296485 -3.658036 1.4920104 0
-2.1391592 -3.6126299 0.17897224 0
-1.3805246 -3.6284988 1.6095781 0
1.908837 -3.666333 0.7598412 0
1.8929631 -3.6925743 0.66913283 0
1.9864932 -3.6602588 0.56830859 0
1.5614358 -3.6709216 1.3246109 0
1.9478475 -3.6656971 0.66396463 0
-2.1429596 -3.6152363 -0.15291643 0
-1.4395173 -3.6380935 1.5420148 0
2.027565 -3.6786585 -0.2076664 0
-1.4914956 -3.6256046 1.5240023 0
-1.9542961 -3.6133687 0.90392172 0
-3.3349395 2.3660831 -0.98694742 0
-2.135572 -3.6101699 -0.31926042 0
1.7531559 -3.6755414 1.0549438 0
-1.7146676 -3.624841 1.2754989 0
-1.0088096 -3.6383116 1.8593452 0
1.4021415 -3.6805916 1.4831002 0
1.9710112 -3.6873593 0.4920752 0
1.8259182 -3.6615446 0.99201632 0
-3.3390746 -2.3672361 -0.98809767 0
1.6748652 -3.6858373 1.1589942 0
-2.0759234 -3.6100085 0.62702 0
1.9646866 -3.6777267 0.5962373 0
2.0276718 -3.6796844 -0.30967116 0
1.6723022 -3.6759279 1.2007909 0
2.0252974 -3.6785133 0.34475935 0
2.0663319 -3.6721506 -0.008468926 0
1.6936945 -3.6809042 1.1592042 0
-2.1409454 -3.6138549 0.34348643 0
1.2289796 -3.6687076 1.6709294 0
1.5316399 -3.67167 1.3916817 0
2.0281742 -3.6845098 0.2816155 0
-1.6162553 -3.6264389 1.4173737 0
1.7141547 -3.6746864 1.1558185 0
2.0665715 -3.6741695 0.088869095 0
-1.3611009 -3.61183 1.6996264 0
-2.0216951 -3.6120965 -0.80985188 0
1.7598845 -3.6553037 1.155112 0
1.8139358 -3.6736674 1.0043876 0
-1.5577173 -3.6141899 1.520617 0
-3.3029261 -2.4353149 -0.98381174 0
1.9893612 -3.6922343 0.47375786 0
-1.716018 -3.6121528 1.3513746 0
2.0667143 -3.6753731 -0.20791304 0
1.8708097 -3.6870222 0.8596704 0
2.0653949 -3.6642528 0.37799037 0
2.0661464 -3.6705871 -0.30838966 0
1.9590278 -3.6821277 0.66872203 0
1.2662164 -3.6689715 1.6669698 0
-1.6070218 -3.6317425 1.439693 0
2.0284553 -3.6872091 0.37766349 0
-2.1357026 -3.6102595 0.50780249 0
-1.9537919 -3.6121581 0.99500513 0
2.0274284 -3.6773469 0.47356331 0
1.9091325 -3.6711853 0.85749125 0
-1.0931323 -3.6290214 1.8689804 0
1.7922268 -3.6786911 1.0557678 0
1.9483348 -3.6721699 0.76088572 0
-1.5176985 -3.6251056 1.5558896 0
-2.0263968 -3.6154213 0.82962644 0
1.8928053 -3.6876776 0.83165407 0
-1.8374171 -3.6221263 1.175194 0
2.0670347 -3.6780751 0.28172529 0
2.0677345 -3.6839728 0.18483138 0
2.0252399 -3.6775706 0.50662398 0
1.6276251 -3.6716111 1.3243308 0
1.7531404 -3.6712029 1.1548476 0
-1.8694913 -3.6186416 1.1408646 0
-1.7957134 -3.6074514 1.2859797 0
1.3970004 -3.6703753 1.5793543 0
1.9474015 -3.6597741 0.85609984 0
1.870263 -3.6752787 0.9560132 0
2.105953 -3.6724663 -0.0093023777 0
2.0270135 -3.6733634 0.56919706 0
1.8318489 -3.6955335 0.95965362 0
2.0688658 -3.6935093 -0.11132282 0
1.2954351 -3.6725023 1.6700964 0
2.106046 -3.6731646 0.18535101 0
-3.3209043 2.4406066 -0.98883331 0
1.4950074 -3.67366 1.4946938 0
2.1043186 -3.6601934 0.37797582 0
2.1066384 -3.6776133 0.087835073 0
1.9711475 -3.6875672 0.69844067 0
1.9887313 -3.6852117 0.66596031 0
2.0664041 -3.6727586 0.47355902 0
1.8312401 -3.6766365 1.0555191 0
-2.0824943 -3.6245978 0.71874285 0
-1.9512978 -3.6061671 1.085885 0
2.0902374 -3.6570756 0.5063442 0
-2.1325302 -3.608084 -0.65933573 0
2.1065819 -3.6771896 -0.2094788 0
-1.4926763 -3.6297145 1.6153421 0
-1.7660129 -3.6207511 1.3384073 0
1.8149269 -3.6752756 1.1050391 0
-1.7031484 -3.6159308 1.4316556 0
1.6741364 -3.6791046 1.3005893 0
1.9878421 -3.6752975 0.76166725 0
-2.1354761 -3.6101041 0.67219353 0
-1.7150111 -3.6092801 1.441514 0
2.0920887 -3.6816695 0.34462523 0
-1.6047192 -3.6245143 1.529227 0
-2.1585708 -3.6259422 -0.49398756 0
2.1069632 -3.680052 0.2813611 0
1.6938493 -3.6664722 1.3231015 0
1.7921917 -3.6767311 1.1564412 0
1.8923821 -3.6745393 0.99381566 0
-1.9182653 -3.6183832 1.1433055 0
2.0275102 -3.6781323 0.66567099 0
-3.2883558 -2.509619 -0.98583269 0
-1.8367553 -3.6203976 1.2659047 0
-1.1826856 -3.625972 1.8810711 0
1.5337849 -3.6756442 1.4910402 0
1.9095533 -3.6780946 0.95696962 0
1.9590498 -3.6826022 0.83143842 0
1.9575899 -3.666918 0.90393531 0
1.8701415 -3.6726692 1.0549574 0
2.1457598 -3.6729543 0.087733388 0
2.1453557 -3.6702206 0.18512774 0
2.1089668 -3.6950977 -0.11260289 0
2.1447227 -3.6659362 0.28181839 0
2.0670183 -3.6779358 0.56966722 0
1.9716995 -3.6884077 0.80122054 0
1.561481 -3.6697752 1.493084 0
-2.0242772 -3.6139226 0.99226534 0
1.8260785 -3.6705048 1.1576321 0
2.025898 -3.6883748 0.6692369 0
-3.296864 2.5122561 -0.9882195 0
2.1082788 -3.6899319 -0.31494284 0
2.1443377 -3.6633296 0.37782443 0
2.0269222 -3.6724868 0.76178658 0
-2.0847511 -3.6296086 0.81125546 0
2.1838496 -3.6617463 0.088376522 0
1.9878294 -3.6751573 0.85905457 0
1.3614028 -3.6812956 1.6708641 0
-2.2622023 -3.6135325 -0.1649332 0
-1.6116729 -3.6227884 1.5750818 0
1.9484193 -3.6732929 0.95655155 0
2.1478097 -3.6868274 -0.01247704 0
2.1844211 -3.6652646 -0.0099908113 0
-2.2538404 -3.6079721 -0.33458954 0
-2.2540574 -3.6081166 0.34190619 0
-2.2636209 -3.614476 0.17351246 0
1.8125911 -3.6714852 1.2055538 0
2.1478665 -3.6872113 -0.11213654 0
2.1575298 -3.6671541 0.34478378 0
1.6695135 -3.6710975 1.3994837 0
2.0667355 -3.6755526 0.66582656 0
-1.6632199 -3.6208422 1.5337965 0
-2.2682123 -3.6175292 0.0042200089 0
1.4293114 -3.6629879 1.6646063 0
-2.0800614 -3.6191964 0.90392339 0
1.3972433 -3.6708579 1.6780703 0
1.8314004 -3.6816099 1.1580112 0
2.1479006 -3.6874416 -0.21314967 0
2.1200211 -3.679719 0.48486531 0
2.0911186 -3.6687815 0.66844463 0
-1.8350046 -3.6158276 1.3565686 0
2.0657537 -3.6672764 0.76167846 0
2.1141346 -3.6712904 0.59075034 0
-1.9561391 -3.6177962 1.1779952 0
-2.1371765 -3.6112704 0.83737266 0
2.108777 -3.6936727 0.47401369 0
1.9592707 -3.6694779 1.0061238 0
1.6277503 -3.6666157 1.4918623 0
-1.2729857 -3.62168 1.8932874 0
2.1865082 -3.6781149 -0.11154038 0
1.7599393 -3.6706216 1.3238623 0
-3.2684183 -2.5824177 -0.98664963 0
2.1073554 -3.682997 0.57019448 0
-2.2055302 -3.6169271 0.62274241 0
1.5309284 -3.6703515 1.5895309 0
1.9588077 -3.6774013 0.99448776 0
-1.9049747 -3.6086979 1.3031983 0
2.148669 -3.6926427 -0.31716752 0
2.0255337 -3.6823919 0.83173203 0
2.186868 -3.6803291 0.1836971 0
2.1058903 -3.6719954 0.66594577 0
2.0273209 -3.6763151 0.85984039 0
1.9101117 -3.687263 1.0588169 0
-1.7991428 -3.6100266 1.4484563 0
-1.6059899 -3.628504 1.6213126 0
2.1468239 -3.6801553 0.47387242 0
-2.0783844 -3.615473 0.9962306 0
2.1871219 -3.6818922 -0.21327132 0
-1.4769874 -3.6394923 1.7200913 0
1.8705109 -3.6806042 1.1581542 0
-2.1458602 -3.6172254 -0.83794022 0
1.4957819 -3.6592419 1.6625216 0
2.2244549 -3.6655505 0.087081432 0
-3.276238 2.5849648 -0.98885322 0
1.8079638 -3.6639769 1.3057809 0
-2.2583113 -3.6109452 0.50958288 0
-2.202394 -3.6104662 0.71697354 0
2.1856844 -3.6730433 0.37754619 0
2.1581976 -3.6746018 0.50674665 0
1.9089112 -3.6675518 1.1552138 0
1.9884493 -3.6820681 0.95889127 0
-2.2619414 -3.6133592 -0.50927085 0
2.2254987 -3.6714435 -0.11153042 0
1.6657047 -3.6645007 1.4987152 0
2.2261634 -3.6751952 -0.012648165 0
-1.9534926 -3.611439 1.2691736 0
2.1877344 -3.6856637 -0.31692374 0
-1.721014 -3.6264069 1.5355873 0
1.9491071 -3.6824279 1.0583148 0
-1.8752217 -3.6258876 1.3496809 0
-2.0252175 -3.6145875 1.1567163 0
2.2261739 -3.6752546 -0.21326959 0
1.8259742 -3.6646721 1.3228436 0
-1.7037661 -3.6164083 1.5934367 0
2.0667715 -3.6758571 0.86046004 0
-2.0758147 -3.6097672 1.0883465 0
2.2259471 -3.6739748 0.28072 0
2.1211679 -3.6813607 0.69476295 0
-3.2446079 -2.6540024 -0.98666835 0
-2.2025032 -3.6106911 0.81049383 0
2.145895 -3.6738703 0.66659498 0
-2.2521763 -3.6068656 -0.68207026 0
2.1897197 -3.6978862 0.27980232 0
-3.2449279 2.6541116 -0.98675895 0
-1.7613199 -3.6146386 1.5443394 0
2.1482558 -3.689846 0.57084811 0
-1.7134659 -3.6048715 1.623513 0
-2.3658633 -3.5984373 -0.17456704 0
-1.8368869 -3.6207414 1.4489267 0
1.561928 -3.6584227 1.661478 0
2.0278833 -3.6817157 0.95956254 0
2.2282183 -3.6867955 0.18253374 0
-1.5663579 -3.6261365 1.729552 0
2.1878161 -3.6861672 0.47408569 0
1.9880848 -3.678004 1.0580368 0
1.8930988 -3.696789 1.1620598 0
2.1581585 -3.674165 0.66901469 0
2.2255383 -3.6796725 0.34445179 0
2.226408 -3.6765769 0.37736642 0
2.1161492 -3.6741748 0.79961097 0
2.2275758 -3.6831682 -0.31805146 0
1.965975 -3.6796892 1.1089926 0
2.1081531 -3.6889884 0.76497388 0
1.6937068 -3.6797607 1.4946244 0
2.0254722 -3.681381 0.99541497 0
