# .PCD v0.7 - Point Cloud Data file format
VERSION 0.7
FIELDS x y z intensity
SIZE 4 4 4 4
TYPE F F F F
COUNT 1 1 1 1
WIDTH 1432
HEIGHT 1
VIEWPOINT 0 0 0 1 0 0 0
POINTS 1432
DATA ascii
-12.239503 2.9651167 -0.81028187 0
11.989288 -3.8302114 -0.96251655 0
-12.146159 -3.4509075 0.051290751 0
11.990587 -3.8308175 1.0183034 0
-12.144935 -3.450546 0.33615291 0
1.9490914 12.445095 -0.98594415 0
11.791558 -3.8295314 2.4574797 0
-3.7219005 12.079329 0.179075 0
-12.147438 -3.4512846 0.62024856 0
-11.730292 3.0890002 3.5752964 0
-3.8090525 11.773458 2.6244247 0
11.873178 -3.8288682 2.109045 0
-12.244513 2.9658387 1.1663475 0
2.1134346 12.436212 -0.98535907 0
11.980543 -3.8261316 1.4140127 0
-3.9014978 11.496268 3.5808659 0
-12.145783 -3.4507966 0.90415812 0
-3.723855 12.083988 0.67241299 0
-11.958269 3.0394685 2.8607631 0
11.599969 -3.8215201 3.3599453 0
-12.132724 -3.4469433 1.1877108 0
12.129947 2.1880434 2.930671 0
-3.7105923 12.114359 0.20881522 0
2.2777646 12.429249 -0.98529875 0
-3.8620758 11.637535 3.2118912 0
12.06146 2.2114847 3.2109976 0
2.4477034 12.012793 3.2320576 0
-3.7158613 12.125146 -0.22611243 0
-3.7119517 12.117142 0.64263868 0
-3.7915044 11.880503 2.3662202 0
-3.7136836 12.120688 -0.66199064 0
-12.128627 -3.4457345 1.4713724 0
-3.8248844 11.748484 2.9134941 0
-3.7236404 12.083477 1.1664121 0
-12.244044 2.9657712 1.6620831 0
11.983644 -3.8275783 1.8131518 0
11.878654 -3.830569 2.4133954 0
11.788353 -3.8286128 2.8381031 0
2.423378 12.114655 3.0080357 0
-3.716177 12.125792 1.0775499 0
-11.963327 3.0408044 3.147419 0
-12.143706 -3.4501839 1.7568502 0
-11.584122 -3.4588032 4.0595131 0
-3.7276239 12.092974 1.6631331 0
-3.712379 12.118017 1.5131304 0
-3.8251143 11.749285 3.2070193 0
2.3715413 12.543767 0.18991065 0
11.97878 -3.825309 2.2145762 0
-3.7864857 11.870592 2.8050809 0
11.877693 -3.8302708 2.7187276 0
12.133968 2.1892586 3.3341341 0
-12.235535 2.9645448 2.1598265 0
-3.8139582 11.784698 3.1265106 0
2.371299 12.538563 0.66139829 0
12.595395 2.1598892 -0.16592062 0
-12.140516 -3.4492426 2.0422134 0
12.600838 2.161449 0.22855449 0
12.59382 2.1594379 -0.5617981 0
-3.8594337 11.632497 3.6578722 0
-3.8945098 11.480861 4.0831008 0
2.3708215 12.528305 1.1328318 0
12.608962 2.1637771 0.62299287 0
-11.743004 3.0910182 4.084619 0
-11.877532 3.0591295 3.7037215 0
12.592735 2.159127 -0.96004975 0
11.795221 -3.8305812 3.2274866 0
2.4232695 12.112876 3.4223213 0
12.59485 2.1597331 1.0172908 0
-11.784282 -3.4561512 3.7102957 0
11.86679 -3.8268831 3.0243063 0
12.227983 -3.7600501 -0.98557854 0
-3.7158546 12.125132 1.9528089 0
-3.7288837 12.095977 2.1627555 0
12.286378 -3.6060808 -0.98451626 0
11.980662 -3.8261869 2.621536 0
-12.153862 -3.4531798 2.3306811 0
12.595696 2.1599755 1.4133687 0
12.349493 -3.454303 -0.98438168 0
2.3717175 12.547549 1.6078596 0
-3.7835617 11.864818 3.2502298 0
-12.247534 2.966274 2.6645353 0
-3.7060866 12.105137 2.3920512 0
12.426548 -3.3080785 -0.98637855 0
-12.148628 -3.4516358 2.6186495 0
12.472181 -3.1493146 -0.9845103 0
11.862438 -3.8255308 3.3329916 0
-3.6386962 12.379094 0.20519149 0
-3.8127255 11.781875 3.6327786 0
-3.63446 12.370099 0.64603484 0
-3.6357026 12.372737 -0.67892253 0
12.524479 -2.9934158 -0.98382092 0
2.3706093 12.523745 2.0818567 0
12.604783 2.1625795 1.8129883 0
-3.6455379 12.393623 -0.23720497 0
-3.7246246 12.085823 2.6646497 0
-3.6309657 12.403895 0.30766463 0
11.981303 -3.8264863 3.0338883 0
-3.6392913 12.415509 0.17419577 0
-3.6365728 12.374585 1.087502 0
-3.6357689 12.422626 0.0072486401 0
12.625798 -2.680856 -0.98289812 0
-3.6332312 12.412728 0.60586953 0
12.593772 -2.8435936 -0.98563659 0
-11.856309 3.0528824 4.2242947 0
-3.6383662 12.413212 0.67716086 0
-12.150564 -3.4522071 2.9094834 0
12.384769 -3.8353796 -0.15212715 0
-3.6343408 12.417056 0.904176 0
12.596789 2.1602888 2.2138987 0
-3.6322494 12.398024 1.1798382 0
-3.6292429 12.397177 1.2021084 0
12.393429 -3.8343742 -0.18617731 0
12.399452 -3.8370802 0.22179127 0
12.389993 -3.8367956 -0.5393883 0
12.69567 -2.5307803 -0.9853487 0
12.402925 -3.840302 0.2329191 0
-12.244828 2.9658842 3.172822 0
12.397543 -3.8388431 0.61838353 0
12.380824 -3.8343098 -0.9275713 0
-3.7849035 11.867467 3.7046881 0
-11.790371 -3.4581344 4.2395687 0
-12.677613 2.8568914 0.31922674 0
12.404826 -3.8394945 0.62971139 0
-12.671724 2.8555155 0.61199653 0
-3.6441512 12.390677 1.5320573 0
12.411286 -3.8423965 -0.5974704 0
2.3709393 12.530832 2.5631628 0
12.754794 -2.376826 -0.98668647 0
-12.693679 2.8606451 0.024809122 0
-3.6311655 12.404675 1.5007257 0
12.393249 -3.8376787 1.0039873 0
-3.7233348 12.140443 2.8465796 0
-12.668528 2.8547685 0.90416825 0
12.398067 -3.8364584 1.0378437 0
12.948668 0.96268165 -0.98402131 0
12.971693 0.57796586 -0.98415112 0
12.793842 -2.2167587 -0.98573649 0
12.745704 -2.4897578 -0.98336422 0
-12.143749 -3.4501963 3.2009273 0
12.823634 2.0543764 -0.98390472 0
12.951606 -0.96289265 -0.98443508 0
12.978731 -0.57826889 -0.98514104 0
12.81901 2.1113601 -0.98440516 0
12.992186 -0.19284353 -0.98547745 0
12.832546 -2.0567927 -0.9850384 0
12.88279 -1.7309773 -0.98563433 0
12.931557 1.3482587 -0.9862839 0
12.886815 1.7314999 -0.98620474 0
13.001655 0.19297937 -0.9868083 0
12.490269 -3.616987 -0.98445058 0
12.934856 -1.3485911 -0.98674989 0
12.387816 -3.8362055 1.3905909 0
-3.6378613 12.411959 1.6859598 0
-12.671057 2.8553596 1.1963246 0
12.833966 -2.1137397 -0.9865334 0
11.983442 -3.8274839 3.4534359 0
12.869801 1.8965893 -0.98444998 0
12.600096 2.1612363 2.6209693 0
12.692806 -2.8725059 -0.98681033 0
12.602446 -3.2477088 -0.98644102 0
-3.6388216 12.37936 1.9768636 0
-3.8106823 11.777192 4.1465163 0
-3.6331325 12.412344 1.8003647 0
-3.7330985 12.106026 3.1777515 0
12.908126 -1.7367496 -0.98428893 0
12.885214 -1.9005327 -0.98640347 0
12.412108 -3.842766 1.4489491 0
-12.614291 -3.440506 -0.33798999 0
12.92775 1.741472 -0.98676717 0
-12.679291 2.8572834 1.489192 0
12.950161 1.5777512 -0.98488379 0
-12.621342 -3.4417291 0.17121863 0
12.383312 -3.8349843 1.7792878 0
-12.774007 2.8304722 -0.3414802 0
-12.777462 2.83092 0.17012024 0
12.961765 -1.5803685 -0.98634434 0
12.985642 1.417196 -0.98494041 0
-12.773123 2.8303578 0.68120337 0
-3.6329851 12.41177 2.1005559 0
-3.7162719 12.125986 3.2972975 0
2.3706126 12.523818 3.0475769 0
-12.627322 -3.4427662 0.68028724 0
-3.6331997 12.400384 2.1928592 0
12.927224 2.1551447 -0.16381168 0
12.397566 -3.8362334 1.8598051 0
12.930027 2.1554465 0.22930658 0
-12.773988 2.8304698 -0.85501599 0
-12.67318 2.8558555 1.7820594 0
-12.23576 2.9645772 3.6863794 0
13.00388 -1.4210362 -0.98722887 0
-12.759468 2.828589 1.1921117 0
13.025963 1.2575402 -0.98589039 0
12.93061 2.1555095 0.62210357 0
13.026254 -1.2575972 -0.98592675 0
13.041894 1.0932148 -0.9840802 0
-12.6361 -3.444289 -0.85112762 0
-3.6384821 12.378639 2.4264784 0
12.590804 2.1585736 3.0308204 0
13.046779 -1.0940981 -0.98468971 0
12.939203 2.1564355 -0.559475 0
12.92439 2.1548393 -0.95509863 0
-12.630229 -3.4432704 1.1902375 0
13.079153 -0.93282539 -0.9852221 0
-12.669254 2.8549383 2.075799 0
12.934963 2.1559784 1.0156195 0
13.093562 0.76867253 -0.98380923 0
12.393388 -3.8377161 2.1733973 0
13.099447 -0.76956373 -0.9845401 0
13.090627 0.93473107 -0.98665011 0
-3.6354914 12.421542 2.4032764 0
-3.7220764 12.079748 3.6877718 0
13.120334 0.60650939 -0.98422265 0
-12.267172 2.956815 3.7836905 0
12.920331 2.1544018 1.4092143 0
13.126019 -0.60728723 -0.9849273 0
12.407308 -3.8406093 2.2772977 0
-12.776001 2.8307307 1.7065935 0
13.154567 0.44512779 -0.9858458 0
13.157181 -0.44544727 -0.98616922 0
-3.6332383 12.400479 2.7052417 0
13.162385 -0.28048509 -0.9844898 0
-12.631593 -3.4435072 1.7021275 0
13.168342 0.28112692 -0.98522544 0
-12.67836 2.8570657 2.3721957 0
-3.6345367 12.417819 2.706162 0
12.389685 -3.8367124 2.569849 0
13.185585 0.11756116 -0.98532331 0
-3.6409059 12.383786 2.8822992 0
12.930186 2.1554637 1.8072143 0
-3.7198501 12.13331 3.760705 0
13.200391 0.046253562 -0.98540938 0
2.3710976 12.534235 3.5421472 0
12.597542 2.1605043 3.4511213 0
13.202486 -0.11913806 -0.98740745 0
13.206064 -0.04580605 -0.98610806 0
13.205456 0.21075034 -0.98458552 0
13.205653 -0.21073765 -0.98460984 0
13.207451 -0.37524253 -0.98367441 0
13.073356 2.1518314 -0.053493619 0
13.070897 2.1514404 -0.37411225 0
12.396799 -3.8358886 2.6958692 0
13.078059 2.1525798 0.2660929 0
13.215173 0.37485534 -0.98462379 0
-12.615309 -3.4406826 2.2150521 0
13.080018 2.1528914 0.5852735 0
-12.680478 2.8575609 2.6696382 0
13.224232 -0.53902656 -0.98486972 0
13.078289 2.1526165 -0.69717658 0
13.227884 0.53889585 -0.98531854 0
13.220693 0.70355928 -0.98385715 0
-3.6328645 12.411299 3.0103827 0
-12.783458 2.8316965 2.2242727 0
-12.242071 2.965487 4.2118034 0
12.920071 2.1543739 2.206156 0
13.234672 -0.70325911 -0.98557389 0
13.08462 2.1536238 0.90420127 0
-3.6253729 12.787449 0.19881868 0
13.235567 -0.86775786 -0.98539484 0
-3.628407 12.794138 -0.25588214 0
-3.6227417 12.781648 -0.71092176 0
13.2276 1.0321851 -0.98441648 0
13.074162 2.1519597 1.222991 0
13.243346 0.86770219 -0.98635006 0
13.220243 1.196431 -0.98380184 0
12.393804 -3.8378291 2.9733207 0
-3.62746 12.79205 0.65266931 0
13.225823 -1.1965508 -0.98448718 0
13.245493 -1.0323131 -0.98661351 0
-12.671139 2.8553786 2.9672008 0
-3.6363692 12.408254 3.2249398 0
13.061311 2.1499147 1.5415206 0
13.221074 1.3608603 -0.98448181 0
13.217394 1.5252559 -0.98489678 0
13.235481 -1.361376 -0.98625183 0
-3.6273122 12.791725 1.1071432 0
-12.272376 2.9582665 4.3244839 0
13.169994 2.1482909 -0.19476491 0
-3.6318407 12.407309 3.3171177 0
13.204388 1.6891807 -0.98445415 0
-3.6487288 12.400398 3.3476758 0
-3.7341509 12.108534 4.2200747 0
13.168589 2.1479099 -0.60996616 0
13.212669 -1.6897149 -0.98547304 0
-12.763336 2.8290901 2.7425332 0
13.183263 2.1518888 0.21880639 0
12.40997 -3.8418057 3.1253452 0
13.175164 2.0165889 -0.98403823 0
13.177354 2.1502867 0.63248658 0
13.245949 -1.5266876 -0.98840725 0
13.204493 1.8540699 -0.98591459 0
-12.629439 -3.4431336 2.7361243 0
12.937381 2.156239 2.6141827 0
13.184242 -2.0174358 -0.98515773 0
2.3707888 12.527603 4.0409174 0
-12.660591 2.8529143 3.2663679 0
13.21699 -1.8550558 -0.98745394 0
13.079991 2.1528873 1.8623695 0
-3.6288519 12.79512 1.5636158 0
13.177796 -2.1821458 -0.98639309 0
13.1808 2.1512213 1.0467515 0
12.834716 -3.8430417 0.21479678 0
13.13393 -2.5083697 -0.98590779 0
13.166767 -2.3466194 -0.98735499 0
12.846335 -3.8480628 -0.20818764 0
13.108852 -2.6709878 -0.985708 0
12.836233 -3.8436973 0.63663197 0
12.400124 -3.8395426 3.3842621 0
13.04743 -2.994216 -0.98477101 0
13.084945 -2.8337872 -0.98594284 0
12.85112 -3.8501303 -0.63295722 0
13.078843 2.1527047 2.1832724 0
13.02068 -3.156507 -0.98522949 0
12.946448 -3.4769137 -0.98441637 0
-3.6224718 12.944371 0.16571593 0
12.838886 -3.8448436 1.0591621 0
-3.6283951 12.794112 2.0225539 0
-3.6201401 12.938334 0.68557107 0
12.931234 2.1555767 3.0235639 0
13.199304 2.1562381 1.4641504 0
13.001044 -3.3204393 -0.98687303 0
12.398651 -3.8367202 3.555625 0
-3.6407652 12.383488 3.8119822 0
-3.6367264 12.409141 3.750617 0
12.881563 -3.7995987 -0.98594081 0
-12.437524 -3.445451 3.8532791 0
-12.765027 2.829309 3.2694087 0
12.832984 -3.842293 1.4826286 0
12.938665 -3.644099 -0.98814571 0
-12.617873 -3.4411273 3.2589302 0
13.181849 2.1515052 1.8808758 0
13.079029 2.1527343 2.5056772 0
-3.6212254 12.941143 1.2061052 0
-3.6206365 12.777005 2.4825671 0
12.842494 -3.8464029 1.9103017 0
12.922832 2.1546714 3.4385567 0
13.075762 2.1522143 2.8293591 0
-3.6238441 12.947925 1.7291312 0
-12.686447 2.8520133 3.8707848 0
13.196583 2.1555004 2.3052044 0
12.83347 -3.8425033 2.3391867 0
-3.6322613 12.398054 4.2814474 0
-13.338751 2.6845312 -0.36993092 0
-3.6264005 12.789714 2.9527416 0
13.06284 -3.8459766 0.22175491 0
13.051524 -3.8430817 0.62944114 0
-12.775078 2.830611 3.8055525 0
13.083796 2.1534927 3.1568937 0
-3.6229887 12.94571 2.2546883 0
13.076028 -3.8493507 -0.18734628 0
-12.43568 -3.4448793 4.4032841 0
-13.36657 2.6877306 0.16021633 0
-12.635881 -3.4442511 3.7949867 0
-13.350925 2.6859312 0.69090867 0
13.068415 -3.8474028 -0.59702158 0
13.187642 2.1530764 2.7305567 0
2.3824916 13.420385 0.58490598 0
2.3858902 13.436488 -0.37798595 0
-13.35733 2.6866679 -0.90414894 0
2.3876455 13.444805 0.2641027 0
13.064299 -3.8463497 1.0381117 0
2.3891294 13.451835 -0.057317555 0
2.3869734 13.44162 0.90420222 0
-13.360137 2.6869907 1.2224588 0
12.842109 -3.8462365 2.775892 0
13.068579 2.1510713 3.4828892 0
2.3848987 13.431789 1.2237692 0
-3.6156335 13.230237 0.19182622 0
13.085244 -3.8517087 1.4499412 0
-13.339664 2.6846364 1.753993 0
-3.624095 12.784631 3.4258137 0
-13.466055 2.6498005 -0.024799705 0
13.186384 2.1527352 3.1629095 0
-3.6238976 12.948064 2.7853804 0
-12.685163 2.851675 4.4237633 0
-3.6222191 13.245328 -0.27735472 0
-3.6163135 13.231795 -0.74667585 0
-13.478825 2.6524003 0.28481603 0
-3.6194458 13.238973 0.65974009 0
2.3885245 13.448969 1.544502 0
-3.6136289 13.225643 1.127629 0
-13.491611 2.6550031 0.59436703 0
13.082821 -3.8510885 1.8628478 0
12.83203 -3.841881 3.2145209 0
2.3871422 13.44242 1.8650532 0
-13.491484 2.6549773 0.90418994 0
-12.624735 -3.4423177 4.3331146 0
-12.77879 2.8310919 4.349411 0
-13.481421 2.6529286 1.2137709 0
-13.335231 2.6841264 2.2893238 0
13.067311 -3.8471208 2.2769957 0
-3.6177282 13.235037 1.5983853 0
2.3844316 13.429577 2.1857371 0
13.169693 2.1482093 3.5979137 0
-13.478776 2.6523902 1.5235624 0
13.305063 -3.8511145 0.20718217 0
13.309807 -3.8530843 -0.23065579 0
-3.6271758 12.956552 3.323431 0
13.300961 -3.8494112 -0.66917133 0
2.3834114 13.424744 2.5081635 0
-13.487004 2.6540654 1.8346777 0
-3.6309605 12.799768 3.9121323 0
13.308132 -3.8523886 0.64427578 0
13.325062 -3.8503234 -0.096108198 0
-13.438186 -3.4303319 0.27841592 0
-13.428933 -3.4278882 0.59169662 0
-3.6170187 13.233411 2.0712686 0
13.330338 -3.8517981 0.23768139 0
13.334177 -3.8528714 -0.43212521 0
13.321612 -3.8493593 -0.76741636 0
13.330816 -3.8519318 0.57111871 0
13.302943 -3.8502343 1.0816662 0
-13.460673 -3.4362712 -0.036947489 0
13.074892 -3.8490601 2.6992588 0
12.840171 -3.8453987 3.6648245 0
-13.443145 -3.4316416 0.90419364 0
13.328959 -3.8514128 0.90421844 0
-13.483058 2.6532619 2.146039 0
-13.426612 -3.4272749 1.2166343 0
-13.355312 2.6864359 2.83286 0
13.300008 -3.849015 1.5204809 0
2.3842204 13.428576 2.8333647 0
13.337954 -3.8539269 1.2374916 0
-3.6149211 13.228604 2.5475502 0
-13.437969 -3.4302747 1.5299623 0
-13.47933 2.652503 2.4585958 0
13.349427 -3.8571339 1.5716815 0
13.818234 2.1392374 -0.22749645 0
13.07704 -3.8496096 3.1265488 0
-13.131837 2.7425237 3.9641395 0
-3.6236644 12.94746 3.8651252 0
-13.43834 -3.4303727 1.8437235 0
-3.6087542 13.521832 0.15637183 0
13.829782 2.1421919 0.20793664 0
13.311805 -3.853914 1.9637213 0
2.3845305 13.430045 3.1604872 0
13.329268 -3.8514988 1.9048543 0
13.826237 2.1412847 0.64339936 0
13.828717 2.1419196 -0.66568184 0
-13.481282 2.6529005 2.7734957 0
-13.420417 -3.4256387 2.1567588 0
13.817557 2.1390643 1.0788598 0
-3.6151605 13.539154 0.69535053 0
-13.358683 2.6868234 3.3805923 0
-3.6132321 13.224734 3.0289602 0
-13.455935 2.6477401 3.0859766 0
13.306583 -3.8517458 2.408756 0
-3.6127477 13.53263 1.2349448 0
13.336615 -3.8535528 2.2408061 0
13.816584 2.1388152 1.515986 0
13.070505 -3.8479376 3.5585399 0
2.3855128 13.4347 3.4908071 0
-13.443027 -3.4316101 2.4751959 0
-3.6094761 13.523784 1.7758145 0
13.327391 -3.8509746 2.5765657 0
13.816323 2.1387484 1.9558113 0
-13.473118 2.6512384 3.4078269 0
13.314665 -3.8551018 2.8611441 0
-3.6249056 12.950673 4.4184732 0
-13.132274 2.7426322 4.532588 0
-3.6163483 13.231874 3.5194268 0
-13.453319 -3.4343286 2.7946715 0
-13.154615 -3.4350207 4.0110655 0
13.335815 -3.8533292 2.9162874 0
-3.6133275 13.72049 0.1839745 0
-13.367816 2.6878738 3.9373894 0
-3.6142058 13.722584 -0.3001852 0
-3.6136904 13.535179 2.3219886 0
-3.6124625 13.718428 0.66738641 0
-3.6123223 13.718093 -0.78565443 0
13.837705 2.1442187 2.4029438 0
-13.435237 -3.429553 3.1119175 0
-3.6123662 13.718198 1.1513357 0
13.308999 -3.8527491 3.3168945 0
-13.837566 -3.423538 0.15032768 0
13.338377 -3.8540452 3.2576475 0
-13.8268 -3.421829 0.70088184 0
-13.83841 -3.4236722 -0.40113324 0
13.829864 2.1422126 2.8507369 0
-3.6133928 13.720645 1.6372964 0
-13.443306 -3.431684 3.4358234 0
-13.847441 -3.4251056 -0.9554013 0
-3.6127038 13.532511 2.8713436 0
-13.831714 -3.4226089 1.2521777 0
-3.62397 13.24934 4.0214329 0
-13.344969 2.6852462 4.4952583 0
13.334843 -3.8530574 3.600563 0
-3.6113806 13.715849 2.1254568 0
13.814236 -3.861182 0.19888341 0
13.29728 -3.8478825 3.7778645 0
-13.155928 -3.4354069 4.5872965 0
13.809409 -3.8592584 0.65242577 0
13.804959 2.1358411 3.300015 0
13.828332 -3.8668005 -0.25609821 0
-13.840413 -3.42399 1.8061788 0
13.824298 -3.8651927 -0.71210241 0
13.846095 -3.8624685 0.2084161 0
13.806221 -3.8579876 1.1062508 0
13.849433 -3.863272 -0.2268616 0
13.84207 -3.8614998 -0.66301262 0
13.84703 -3.8626935 0.6430006 0
13.828698 -3.8582821 1.0771437 0
-3.6109204 13.71475 2.6180921 0
-3.6071959 13.96453 0.23728788 0
13.811139 -3.8599474 1.562263 0
-3.6155071 13.540092 3.4287338 0
-3.6082544 13.969213 -0.097417593 0
-13.59526 2.6253078 4.06183 0
13.822594 -3.8568132 1.51266 0
-3.6082149 13.969036 0.57082641 0
-13.834195 -3.423003 2.3623376 0
-3.6080685 13.968387 0.90421891 0
-3.6039047 13.94997 1.2371562 0
13.801996 -3.8563035 2.0195827 0
-14.420147 -0.9500429 -0.98842514 0
-14.421093 0.9500429 -0.98850787 0
13.829314 2.1420722 3.7684107 0
-14.418995 1.1813827 -0.98846924 0
13.845844 -3.8624082 1.954113 0
-3.607028 13.963787 1.571116 0
-14.425451 -1.1814752 -0.98903418 0
-14.411806 1.4126115 -0.98827469 0
-3.6105437 13.713853 3.1161656 0
-14.420877 -1.4128712 -0.98906875 0
-14.409243 -1.6440227 -0.9887749 0
-14.413176 1.6441917 -0.98911929 0
-3.6057768 13.958251 1.9050732 0
-14.38978 1.8746768 -0.98808479 0
14.390795 2.1300077 -0.23999965 0
-14.396067 -1.8750372 -0.98863578 0
13.810388 -3.8596485 2.4831402 0
-13.848932 -3.4253426 2.9262054 0
-14.38282 -2.1060483 -0.98878002 0
-14.384441 2.1061647 -0.98892236 0
14.415999 2.1323595 0.20353854 0
-14.352583 -2.3356917 -0.98772275 0
-3.6174331 13.545299 3.9937263 0
-14.360628 2.3363843 -0.98842919 0
13.857103 -3.8651178 2.3990917 0
-14.325104 2.5653126 -0.98719537 0
14.42085 2.132812 0.64794636 0
14.421768 2.1328976 -0.68832922 0
-14.344799 -2.5672925 -0.98892725 0
-13.598308 2.6260183 4.6466875 0
-3.6101284 13.9775 2.2422285 0
-3.5996504 14.158427 0.14597631 0
-14.314648 -2.7967649 -0.98845541 0
14.421602 2.1328821 1.0930212 0
14.385218 2.1294875 1.5365176 0
-3.6014237 14.163442 0.70551634 0
-3.6088333 13.709775 3.620182 0
-14.283714 -3.0260282 -0.98820317 0
13.834188 -3.8596032 2.8430009 0
13.81797 -3.8626707 2.9523191 0
-3.606905 13.963243 2.5777574 0
-14.249971 -3.2548513 -0.98799205 0
-3.5967565 14.209893 0.17618322 0
-3.6019292 14.164871 1.2659113 0
-13.838566 -3.4236968 3.4924526 0
-3.6036496 14.227009 -0.324426 0
14.531734 2.127465 -0.26364022 0
-3.5997996 14.217449 -0.82564604 0
14.400771 2.1309385 1.986577 0
14.536736 2.1286688 0.19601679 0
-3.6043429 14.22873 0.6755712 0
14.535295 2.1283221 -0.72539341 0
14.54702 2.1311436 0.65556777 0
-3.608346 13.969615 2.9174089 0
-3.6039305 14.227706 1.1758652 0
13.823707 -3.8570809 3.2942729 0
-3.6016984 14.164219 1.8282743 0
14.535765 2.1284349 1.1152573 0
-3.6146297 13.537719 4.564641 0
13.818577 -3.8629124 3.4267511 0
14.399014 2.1307745 2.4388547 0
-3.6021705 14.223336 1.6776013 0
-3.6108479 13.714579 4.1346612 0
-3.6056256 13.957583 3.256494 0
14.540627 2.1296051 1.5772729 0
-14.556383 2.5885623 0.13975263 0
-14.55492 2.5884151 -0.43276262 0
-3.5971308 14.151303 2.3924382 0
-14.561365 2.5890629 0.71173465 0
-13.83243 -3.4227226 4.06669 0
13.817327 -3.8555458 3.753252 0
-14.553204 2.5882425 1.2840722 0
-3.6069207 14.235131 2.184222 0
13.802145 -3.8563626 3.9040265 0
14.559891 2.1342409 2.0442896 0
14.344794 -3.8648131 0.19023311 0
14.415735 2.1323347 2.8996468 0
14.345826 -3.8652074 -0.28133291 0
-3.6076155 13.966384 3.6016321 0
14.351295 -3.8672969 0.66128826 0
14.352648 -3.8678138 -0.75524771 0
-14.558298 2.5887549 1.8590999 0
14.348595 -3.8662655 1.1328881 0
-3.600481 14.160777 2.9642615 0
14.543834 2.1303766 2.5109639 0
-3.6003895 14.218913 2.6913147 0
-13.936311 -3.4222505 4.1837425 0
14.356378 -3.8692391 1.606997 0
14.41612 2.1323705 3.36413 0
-14.54933 2.5878532 2.4362752 0
14.547483 2.1312551 2.9856095 0
-13.847224 -3.4250712 4.6555033 0
14.351727 -3.8674619 2.0829608 0
-3.6065273 14.234155 3.2094126 0
-3.6000533 14.159567 3.5409479 0
14.40615 2.1314404 3.8334045 0
-14.541489 2.587065 3.0179691 0
14.352343 -3.8676975 2.5635679 0
14.539901 2.1294303 3.4643393 0
-3.6001377 14.218288 3.7280049 0
-13.9448 -3.424618 4.7897034 0
14.344675 -3.8647678 3.047843 0
14.693654 -3.8710063 -0.27004337 0
-3.5911112 14.763166 -0.35032445 0
-3.6058121 14.175851 4.1297112 0
14.523996 2.125603 3.9480085 0
14.699416 -3.8723059 0.19387078 0
-3.5954394 14.774374 0.16702557 0
-14.54797 2.5877166 3.6083775 0
-3.5919971 14.76546 0.68420744 0
14.701323 -3.872736 -0.73644996 0
-3.5927234 14.767341 -0.87017369 0
14.713073 -3.8753862 0.65777338 0
14.700365 -3.87252 1.1218038 0
-3.5936723 14.769798 1.2020969 0
-3.6011648 14.220839 4.2591429 0
14.69939 -3.8723001 1.5876765 0
14.357175 -3.8695438 3.5431452 0
-3.5954413 14.862954 0.13437712 0
-3.5913 14.850689 0.71679688 0
-3.5981531 14.7814 1.722892 0
-14.478872 2.5872722 4.2589016 0
-3.5921125 14.853095 1.2998338 0
14.699149 -3.8722456 2.056427 0
-3.5911345 14.763227 2.2438314 0
-14.553696 2.5882919 4.2071381 0
-3.6083722 14.18309 4.7266903 0
-3.5889683 14.843782 1.8841045 0
14.339454 -3.8627727 4.0387721 0
-15.013422 -3.4026358 0.20755529 0
-15.021618 -3.4045503 -0.14231861 0
-15.024899 -3.4053173 0.55581069 0
14.705732 -3.8737307 2.5303051 0
14.946115 -3.8791821 0.18031371 0
-15.034899 -3.4076536 0.90423763 0
-3.5928769 14.767738 2.7717423 0
14.949371 -3.8803732 0.67114675 0
14.960461 -3.8844292 -0.311858 0
14.944553 -3.8786108 -0.8040849 0
-15.046045 -3.4102581 1.2531705 0
15.332728 2.1151531 -0.30437714 0
15.336843 2.1160812 0.18246508 0
-3.5953689 14.86274 2.474931 0
14.953756 -3.8819768 1.1628838 0
-15.036495 -3.4080267 1.602025 0
15.342041 2.1172535 0.66902792 0
14.705664 -3.8737152 3.0086031 0
-14.486435 2.5889211 4.876647 0
15.326042 2.1136451 1.1554179 0
15.349921 2.119031 -0.79462051 0
-15.016539 -3.4033639 1.9504323 0
14.944721 -3.8786724 1.6555004 0
-14.539469 2.5868618 4.8106651 0
-3.5895996 14.759252 3.3031569 0
15.343619 2.1176097 1.6454551 0
-15.030718 -3.4066768 2.3022947 0
-3.5919642 14.852655 3.0673947 0
14.945478 -3.8789494 2.1517429 0
14.710834 -3.874881 3.4946728 0
15.327857 2.1140542 2.1355619 0
-15.402071 2.5996478 -0.15716219 0
15.137339 -3.8784406 -0.21911776 0
-15.408836 2.6008241 0.19695902 0
2.4179564 15.440859 0.1724875 0
-15.029255 -3.4063349 2.6544919 0
15.147654 -3.8810072 0.15552592 0
15.146544 -3.8807311 0.53012657 0
-15.402412 2.5997074 0.90424335 0
-15.418972 2.6025863 0.55055356 0
15.147157 -3.8808835 -0.59642375 0
-15.257025 -3.3999808 0.72550869 0
2.4182911 15.448051 0.67903805 0
-15.271229 -3.4020276 -0.47520971 0
-15.278931 -3.4031374 0.12550497 0
2.4190121 15.463538 -0.33574486 0
2.4184887 15.452292 -0.84445834 0
15.150451 -3.8817034 0.90426898 0
14.945115 -3.8788164 2.6521263 0
15.147719 -3.8810236 -0.97473049 0
-15.409887 2.601007 1.2577195 0
-3.5954523 14.774406 3.8470459 0
15.144341 -3.880183 1.2783587 0
2.4186568 15.455904 1.1867442 0
-15.023108 -3.4048986 3.007865 0
-15.277111 -3.4028754 1.326921 0
15.340454 2.1168957 2.6333606 0
14.695421 -3.8714049 3.9833641 0
-15.410246 2.6010692 1.6115966 0
-3.5911613 14.850278 3.6672821 0
2.4177518 15.436462 1.6944718 0
15.699439 -0.23168217 -0.98382246 0
15.700543 0.23169802 -0.98395169 0
15.565043 2.0792105 -0.98362947 0
15.15815 -3.8836188 1.653518 0
15.662829 -1.1576916 -0.98420405 0
15.692838 -0.69514394 -0.98460519 0
15.421979 -2.9947157 -0.98393083 0
15.694852 0.69523072 -0.98484087 0
15.503889 -2.5385771 -0.98423088 0
15.57624 -2.0806639 -0.98494887 0
15.631843 -1.620326 -0.98524404 0
15.675731 1.1586186 -0.98571575 0
-15.259851 -3.400388 1.9286575 0
-15.4121 2.6013913 1.9663653 0
14.942964 -3.8780291 3.1576786 0
15.646216 1.6217742 -0.9869324 0
15.349828 -3.4532273 -0.98635805 0
-3.5840921 15.355146 0.1576128 0
-3.5828853 15.351884 -0.37903321 0
-15.029369 -3.4063618 3.3653593 0
2.4174991 15.431036 2.2056704 0
15.156307 -3.8831604 2.029027 0
-3.5830951 15.35245 0.69373691 0
15.33377 2.1153879 3.1337614 0
-3.5846953 15.356777 -0.91816449 0
-15.422384 2.6031795 2.3231785 0
15.139962 -3.8790936 2.4042773 0
-3.5904179 14.761371 4.3928223 0
-14.809874 -3.4114997 4.3777475 0
-3.591681 15.375667 1.2317619 0
-15.264238 -3.4010203 2.5355461 0
-15.022356 -3.4047232 3.7233324 0
-15.401695 2.5995824 2.6783576 0
-3.5786834 15.340522 1.768048 0
-3.5895452 14.84549 4.2746058 0
15.134519 -3.8777392 2.7816901 0
14.944833 -3.8787134 3.6709685 0
2.4182591 15.447362 2.7243395 0
15.340056 2.116806 3.64359 0
-15.415163 2.6019242 3.0393696 0
-3.584064 15.355071 2.3115015 0
15.796784 2.109297 0.14109874 0
2.4170969 15.422395 3.2418909 0
15.141343 -3.8794372 3.1626787 0
15.805623 2.1104445 -0.24214864 0
-15.262896 -3.4008269 3.1470556 0
15.801923 2.1099641 0.52277434 0
15.805869 2.1104765 -0.62625253 0
15.8005 2.1097794 0.9042778 0
-15.400965 2.5994556 3.3987741 0
-14.796885 -3.408077 5.0089073 0
14.938589 -3.8764293 4.1904273 0
-3.5799899 15.594796 0.12232924 0
15.814733 2.1116273 1.286083 0
2.4211018 15.839445 -0.22156084 0
15.798232 2.1094851 1.6675267 0
15.140431 -3.8792105 3.5451875 0
-3.584199 15.607877 0.72931051 0
15.342972 2.1174636 4.1612334 0
-3.5890818 15.368639 2.8605578 0
2.4232929 15.851532 0.52924907 0
-3.5933881 14.856873 4.896018 0
2.4258332 15.865548 0.1531589 0
2.4219079 15.843891 0.9042697 0
15.576403 -3.8864048 0.16991198 0
2.4252934 15.862569 -0.60093474 0
15.584578 -3.8892629 -0.34274185 0
-15.40737 2.600569 3.7642069 0
-3.585247 15.611135 1.3374519 0
15.806203 2.1105199 2.0507503 0
2.4179676 15.441098 3.7748513 0
2.4226305 15.847879 1.2792048 0
15.583848 -3.8890078 -0.85705626 0
15.596043 -3.8932712 0.68185115 0
-15.271496 -3.4020662 3.7672238 0
15.574942 -3.8858941 1.1936069 0
-3.5812287 15.598645 1.9466152 0
2.423903 15.854898 1.6548793 0
15.803006 2.1101048 2.4345469 0
-3.5843906 15.355954 3.4112968 0
15.160886 -3.8842998 3.9347401 0
15.585123 -3.8894536 1.7085743 0
2.4233224 15.851695 2.0309753 0
15.700362 -3.8888149 -0.32179159 0
15.693665 -3.8874047 0.67454183 0
15.799766 2.109684 2.8198609 0
2.4168537 15.417168 4.3063579 0
15.713609 -3.8916042 0.17650223 0
15.703702 -3.889518 -0.82244849 0
2.4214413 15.841318 2.4074662 0
-3.5833521 15.605245 2.5610557 0
15.702253 -3.8892131 1.1732926 0
15.58892 -3.8907812 2.2266231 0
-15.253874 -3.3995266 4.3903637 0
15.79761 2.1094043 3.2072792 0
15.699422 -3.8886168 1.6734657 0
2.421792 15.843252 2.7865684 0
-3.5878701 15.365362 3.9740505 0
15.580454 -3.887821 2.7473583 0
-3.5828171 15.603583 3.1798992 0
15.70555 -3.8899074 2.1776257 0
-3.5745392 15.932083 0.14796829 0
-3.5742569 15.930644 0.52635968 0
2.4216893 15.842685 3.1674747 0
15.800107 2.1097286 3.5979118 0
-3.5786796 15.953195 -0.23271406 0
-3.5776358 15.947875 -0.61312652 0
-3.5778913 15.949175 0.90427399 0
-3.5722294 15.980889 0.14741194 0
-3.5733933 15.98418 -0.41002607 0
15.578543 -3.8871529 3.2746058 0
-3.5762658 15.940888 1.2824311 0
-3.5762525 15.992265 0.7041986 0
15.712934 -3.8914618 2.68677 0
2.4223142 15.846133 3.5515261 0
15.792031 2.10868 3.9896555 0
-3.5793114 16.000916 -0.97099984 0
-3.5743518 15.98689 1.2615767 0
-3.5783319 15.951422 1.6614995 0
-15.270374 -3.4019046 5.0316172 0
-3.5932269 15.379847 4.5481081 0
-3.580812 15.59735 3.8045702 0
-3.5752487 15.935699 2.0400195 0
15.69629 -3.8879576 3.1973352 0
-3.5756655 15.990605 1.8214431 0
15.595189 -3.8929727 3.8134561 0
2.4251637 15.861854 3.9410429 0
-3.5789423 15.954534 2.4223163 0
-3.5774798 15.995735 2.3852015 0
-3.5756226 15.937607 2.8029137 0
15.702693 -3.8893056 3.71912 0
-3.5813303 15.59896 4.4392223 0
-15.766712 2.6063564 4.5507584 0
-3.4180918 16.237667 -0.98596966 0
-3.1932597 16.29286 -0.98439693 0
15.577635 -3.8868353 4.3525991 0
-3.5743141 15.986784 2.9518311 0
-3.5762901 15.941012 3.1876965 0
-2.9795599 16.382832 -0.9863081 0
-2.7587962 16.450891 -0.98649454 0
-3.574296 15.930843 3.5728936 0
-2.534039 16.504841 -0.98568714 0
16.270653 -3.8969424 0.1583848 0
16.267799 -3.8959906 -0.37674022 0
15.711095 -3.8910747 4.2503948 0
16.266621 -3.8955972 0.69294095 0
-15.753286 -3.393254 4.5877151 0
-3.5742483 15.986598 3.5259037 0
-2.3117533 16.567444 -0.98595631 0
16.276649 -3.8989437 -0.91469646 0
16.274254 -3.8981435 1.2284966 0
-2.0880523 16.624826 -0.98604143 0
-15.753092 2.60359 5.2095823 0
-3.570075 16.412407 0.10876417 0
-3.58252 15.602658 5.0848961 0
-1.8607886 16.667009 -0.98504984 0
-3.5677752 16.404894 0.74249852 0
16.264893 -3.8950202 1.7650118 0
-3.5791173 15.955427 3.9672394 0
-1.6364584 16.72156 -0.98545933 0
-1.4075556 16.754101 -0.98419106 0
-3.5701613 16.412689 1.377296 0
-3.5719428 15.980079 4.1062584 0
-1.1836066 16.811462 -0.98542631 0
16.281898 -3.9006951 2.3075371 0
-3.5686579 16.407778 2.0138288 0
-0.95719481 16.857014 -0.98589528 0
-0.72759414 16.883312 -0.98494589 0
-15.757854 -3.394388 5.2574606 0
-0.50044823 16.925194 -0.9856658 0
16.281101 -3.900429 2.8530195 0
-0.27145052 16.954632 -0.98557401 0
-3.5666718 16.401287 2.6537004 0
-0.042123079 16.981266 -0.98552442 0
0.18774521 17.002638 -0.98530114 0
-3.5626783 16.665915 0.1361649 0
-3.5746536 15.987744 4.6995916 0
0.41797793 17.019279 -0.98495185 0
-3.5653958 16.673964 -0.44405687 0
-3.5628514 16.666428 0.71524453 0
0.64818907 17.035254 -0.98483348 0
-3.5593047 16.655922 1.2944589 0
16.284084 -3.9014242 3.4052854 0
0.87828243 17.053577 -0.98520994 0
-3.5675249 16.404074 3.3001432 0
1.1089177 17.062471 -0.98504901 0
-3.563519 16.668404 1.8771439 0
1.3396202 17.068468 -0.9849236 0
1.5702863 17.078436 -0.98543453 0
1.8011149 17.073917 -0.98496687 0
16.279514 -3.8998992 3.9634819 0
2.0318191 17.06835 -0.98469663 0
-3.5630932 16.667143 2.4625423 0
2.2622242 17.054775 -0.98401415 0
-3.5649428 16.395638 3.9517002 0
-16.969971 -3.3739853 0.096328378 0
-16.969767 -3.3739586 -0.56320739 0
16.860672 -3.9078379 -0.38158405 0
16.867298 -3.9091341 0.15670609 0
-3.5644722 16.671228 3.0537825 0
-16.974588 -3.3745832 0.7551527 0
16.865623 -3.9088066 0.694664 0
16.870491 -3.9097586 -0.92284155 0
16.279724 -3.8999693 4.531764 0
-17.016331 -3.3725631 0.11675072 0
16.858278 -3.9073694 1.2328563 0
-16.961124 -3.3728392 1.4141507 0
-17.018267 -3.3729575 0.51068878 0
-17.033997 -3.3761597 -0.27934873 0
-17.024401 -3.3742058 0.90429294 0
-17.015638 -3.3724222 1.2978346 0
-3.5676975 16.40464 4.6157532 0
16.875553 -3.9107492 1.7746928 0
-16.98213 -3.37556 2.0776558 0
-17.025141 -3.374357 1.692256 0
-3.5674634 16.680088 3.6528816 0
16.861017 -3.9079051 2.3171039 0
-17.010841 -3.3714454 2.0862865 0
17.03146 -3.9087541 0.14569354 0
17.041925 -3.9120796 -0.41557789 0
17.027737 -3.9075706 -0.9774127 0
17.043488 -3.912576 0.70592666 0
-17.025412 -3.3744118 2.4836738 0
-16.987709 -3.3762829 2.7448018 0
17.047176 -3.9137485 1.2672665 0
16.867439 -3.9091616 2.8665295 0
-3.5642343 16.670523 4.2563381 0
17.041241 -3.9118617 1.8300519 0
-17.020948 -3.3735032 2.8812156 0
17.171328 -3.7111747 -0.98432505 0
-3.56989 16.411804 5.2907476 0
17.23885 -3.4905779 -0.98454273 0
-16.97538 -3.3746858 3.4152279 0
17.307636 -3.2702019 -0.98516107 0
17.035954 -3.9101822 2.3959346 0
17.363258 -3.0461996 -0.98487341 0
-3.5517945 17.281155 0.7570765 0
16.87664 -3.9109619 3.4230766 0
-3.5564036 17.297024 0.094035029 0
-17.026608 -3.3746555 3.2821674 0
17.412544 -2.8207209 -0.98430586 0
-3.5520258 17.28195 1.4206815 0
17.481232 -2.5997608 -0.98577011 0
17.549189 2.1425524 -0.98334587 0
17.52055 2.3720779 -0.98488712 0
17.53167 -2.3744199 -0.98588157 0
-3.5610433 16.661072 4.8689251 0
17.561596 -2.1449802 -0.98445201 0
-17.015146 -3.3723221 3.6831493 0
17.603502 1.918134 -0.98438358 0
17.043724 -3.9126513 2.9684711 0
17.635681 1.689647 -0.98374093 0
17.616173 -1.9204257 -0.98551023 0
17.655273 -1.6929014 -0.98547864 0
16.864567 -3.9085999 3.9828858 0
-3.5493751 17.399647 -0.47991413 0
-3.5523143 17.408783 0.12390637 0
17.703133 -1.2334948 -0.98360085 0
-3.5506825 17.403711 0.72740054 0
-16.967981 -3.3737273 4.0932045 0
-3.5559263 17.29538 2.0879288 0
17.693956 1.4652767 -0.9856987 0
17.695478 -1.465507 -0.98583341 0
17.727402 1.236815 -0.98574388 0
17.745506 -1.0064154 -0.98472536 0
17.752514 1.007272 -0.98534286 0
17.765419 0.77649802 -0.98415792 0
17.766972 -0.77666551 -0.98429465 0
-3.5510368 17.404812 1.3315983 0
-16.815569 -3.3759344 4.8252258 0
17.786381 -0.54681748 -0.98397267 0
-17.017111 -3.3727219 4.0892467 0
17.801872 -0.316719 -0.98359644 0
17.80238 0.5483101 -0.9853785 0
17.821194 -0.086943448 -0.98384523 0
17.819138 0.31808084 -0.98511159 0
17.050495 -3.9148037 3.5477448 0
-3.5502214 17.27574 2.7560167 0
17.82671 0.087299168 -0.98432875 0
17.833912 0.14329195 -0.98380351 0
-3.5519729 17.407721 1.9382589 0
17.844448 0.37363899 -0.98385954 0
17.851681 -0.14240116 -0.98535991 0
17.853317 -0.37332153 -0.98463583 0
17.860039 0.60394317 -0.98464608 0
17.860348 -0.60393655 -0.98467314 0
17.847488 1.0652467 -0.98325908 0
17.473057 -3.9172823 0.049711585 0
17.471237 -3.9168849 0.47729731 0
16.876118 -3.9108601 4.5573788 0
17.477062 -3.9181578 -0.37904513 0
17.873871 -0.83456445 -0.98556745 0
17.464985 -3.9155185 0.90433359 0
17.850365 -1.2958491 -0.98379946 0
17.866375 -1.0653819 -0.98491156 0
17.856464 1.2959801 -0.98433352 0
17.480415 -3.9188907 -0.80932844 0
17.886158 0.83447653 -0.98664248 0
-3.5489569 17.398346 2.5472674 0
17.84911 1.5265278 -0.98426735 0
17.022139 -3.905791 4.1269264 0
17.835217 -1.7567735 -0.98391783 0
17.85651 -1.5267926 -0.98491526 0
17.83643 1.7568343 -0.98402417 0
-16.978441 -3.3750823 4.7840815 0
17.481625 -3.9191549 1.3316185 0
17.800705 2.2166269 -0.98349404 0
17.843079 -1.9883549 -0.98576391 0
17.816166 -2.2178464 -0.98485076 0
17.843391 1.9883752 -0.98579133 0
-3.5563717 17.296915 3.4351559 0
17.473331 -3.9173429 1.7589715 0
17.770649 -2.6770616 -0.98461819 0
17.810688 -2.4490855 -0.98610866 0
17.746674 -2.9065583 -0.98482835 0
17.713192 -3.134871 -0.98448908 0
-16.820919 -3.3771813 5.53333 0
17.684313 -3.3638165 -0.9848454 0
17.598938 -3.8173089 -0.98397779 0
17.647232 -3.5915656 -0.98476529 0
-3.5499625 17.401472 3.16291 0
17.487339 -3.9204044 2.1884542 0
17.033951 -3.9095447 4.7247219 0
17.480114 -3.9188247 2.6179767 0
-3.5515451 17.280296 4.1157484 0
-3.5450606 17.386236 3.7818818 0
-17.283171 2.6316054 4.8954725 0
17.468727 -3.9163363 3.0485282 0
-16.981977 -3.3755403 5.4850597 0
17.476498 -3.9180348 3.4836431 0
-3.5510473 17.278582 4.8080091 0
17.86124 -3.9196155 -0.45670938 0
17.883251 -3.926265 0.13140118 0
17.875637 -3.9239643 0.71985984 0
-3.5566044 17.422115 4.4205847 0
17.483215 -3.9195027 3.9218092 0
17.876572 -3.9242475 1.3089485 0
-17.284132 2.6317861 5.6136494 0
17.8769 -3.9243462 1.9002104 0
17.472862 -3.9172399 4.3603716 0
-3.5495872 17.400307 5.0560865 0
17.882889 -3.9261558 2.495846 0
-3.5550265 17.292282 5.5156984 0
-3.5372553 18.205166 -0.5200029 0
-3.5424547 18.222157 0.11041164 0
-3.54006 18.214331 0.74084544 0
17.889214 -3.928067 3.097106 0
-3.5389886 18.210831 1.3717132 0
-3.5408401 18.266056 0.077831864 0
-3.5395842 18.261488 0.7734853 0
18.212009 -3.9281762 0.13357711 0
18.199364 -3.925889 0.71759844 0
18.219007 -3.9294417 -0.45175385 0
-3.539505 18.2612 1.4698887 0
-3.5388618 18.210417 2.0049207 0
18.222965 -3.9301572 1.3033645 0
17.892998 -3.9292099 3.7050023 0
18.212685 -3.9282982 1.8899443 0
-3.5403838 18.264397 2.1691413 0
-3.5378976 18.207266 2.6416273 0
18.218536 -3.9293566 2.4814005 0
17.880226 -3.9253514 4.3174925 0
-3.5394878 18.261139 2.8720899 0
-3.5424848 18.222256 3.2865911 0
-3.5335817 18.522123 0.029651046 0
-3.5342703 18.526262 -0.40917599 0
-3.5367813 18.541342 0.46678233 0
-3.5349259 18.530199 -0.84961033 0
-3.5360756 18.537106 0.90434647 0
18.227459 -3.9309702 3.0788617 0
-3.5360422 18.536903 1.3418067 0
-3.5332174 18.519939 1.7789402 0
-3.5418811 18.26984 3.5828199 0
17.877132 -3.9244163 4.9417086 0
-3.5386705 18.209791 3.9342489 0
18.219852 -3.9295945 3.6803403 0
-3.5360718 18.537081 2.218641 0
-18.007778 -3.3567512 5.0927563 0
-3.5340939 18.525204 2.6578393 0
-3.5397344 18.262035 4.2987618 0
-3.5388908 18.210512 4.5930262 0
-3.5340309 18.524822 3.0997524 0
18.23148 -3.9316974 4.2940092 0
-3.5342636 18.52622 3.5443134 0
18.796394 -3.936928 0.11605787 0
18.805153 -3.9394381 -0.5044592 0
18.799465 -3.9378083 0.73539782 0
-18.014299 -3.3581731 5.8441458 0
18.805647 -3.9395792 1.355886 0
18.216639 -3.929013 4.9112778 0
-3.5420485 18.270449 5.0278034 0
-3.5404444 18.215588 5.2637854 0
-3.5364904 18.539597 3.9938564 0
18.811182 -3.9411662 1.9790406 0
-19.045235 -3.3408086 0.060441732 0
-19.051897 -3.3415751 -0.67131734 0
-19.049004 -3.3412423 0.79102445 0
-3.5350409 18.530891 4.4432707 0
18.803562 -3.9389822 2.6047378 0
-19.045618 -3.340853 1.5223861 0
-3.5208106 19.07448 -0.56341636 0
-3.5254154 19.090334 0.095974207 0
-3.5243454 19.086651 0.7553587 0
2.4765785 19.282339 -0.0041531324 0
2.4779892 19.291636 0.45013416 0
-3.5258145 19.091709 1.4157565 0
2.4801979 19.306187 -0.46133149 0
-19.051043 -3.3414767 2.2569668 0
-3.5395012 18.261187 5.7643986 0
2.4788547 19.297337 -0.91803801 0
18.80312 -3.9388554 3.2364502 0
2.4803727 19.307339 0.90436757 0
2.4778218 19.290533 1.3585746 0
-3.5253878 19.090239 2.0783496 0
2.4790154 19.298395 1.8136461 0
-19.054398 -3.3418624 2.9961767 0
2.4779365 19.291286 2.2690175 0
18.799673 -3.9378679 3.8745499 0
-3.5268459 19.095259 2.7457266 0
2.4769666 19.284897 2.7256072 0
-3.5211644 19.325197 0.060059905 0
-3.5248976 19.339575 0.79159927 0
-3.5196767 19.319468 1.5232019 0
2.4770164 19.285225 3.1846795 0
-3.5241537 19.085989 3.4168611 0
-19.065275 -3.3431134 3.7431889 0
18.803703 -3.9390228 4.5229139 0
-3.521018 19.324633 2.2583184 0
19.658455 2.0260274 -0.98262298 0
2.4781103 19.292433 3.6472521 0
19.774778 0.2901476 -0.98417211 0
19.759762 0.87027419 -0.98432434 0
19.762884 -0.87040859 -0.98461604 0
19.525274 -3.1784585 -0.98414505 0
19.782387 -0.29025677 -0.98488235 0
19.731913 1.4500513 -0.98483264 0
19.684624 -2.0286639 -0.98507786 0
19.617046 -2.6052766 -0.98497486 0
19.439663 -3.7527702 -0.98545468 0
19.745584 -1.4510336 -0.98611212 0
-19.048117 -3.3411403 4.4937944 0
2.4743485 19.267649 4.1078825 0
-3.5299673 19.106007 4.1007109 0
-3.5217695 19.327528 2.9980259 0
-19.619944 -3.3329899 -0.0020286441 0
18.806864 -3.9399288 5.1818714 0
-19.619577 -3.332926 -0.45642889 0
-19.624895 -3.3338509 0.45129681 0
-19.616596 -3.3324077 0.90436542 0
-19.622683 -3.3334658 1.3573828 0
2.4767342 19.283365 4.578599 0
-19.617004 -3.3324788 1.8106229 0
-3.5192575 19.317854 3.7422571 0
-3.5287962 19.101974 4.7895918 0
-19.634569 -3.3355329 2.2662301 0
-19.064709 -3.3430486 5.2612877 0
-19.620279 -3.3330483 2.7211351 0
-3.5214596 19.326334 4.4977102 0
-19.621534 -3.3332663 3.1791906 0
-3.5263057 19.093399 5.4881077 0
2.0100927 20.075325 -0.98404467 0
1.4340079 20.146358 -0.98486269 0
19.831415 -3.9545171 0.098572493 0
-19.613827 -3.3319263 3.6385279 0
19.828291 -3.9536707 -0.55631083 0
19.832266 -3.9544914 -0.53528357 0
19.828415 -3.9538517 0.74569941 0
19.845783 -3.9567366 0.10539317 0
0.27518606 20.211649 -0.98396623 0
19.833998 -3.9552181 0.75287414 0
0.85589337 20.201193 -0.98571205 0
-0.30492353 20.222469 -0.98381078 0
19.825481 -3.9533646 1.386323 0
-19.060392 -3.3425519 6.0367937 0
-0.88532662 20.229185 -0.98482609 0
19.838881 -3.9565418 1.4082856 0
-2.0438662 20.159908 -0.98379469 0
-1.4657445 20.214237 -0.98537445 0
-2.6222706 20.112791 -0.98444259 0
-19.615583 -3.3322318 4.1020951 0
-3.1990528 20.047403 -0.98493278 0
19.829939 -3.9541171 2.0652015 0
19.84083 -3.9559138 2.030709 0
-3.5216508 19.32707 5.2622595 0
-19.356417 -3.3354361 5.3964262 0
-3.5131741 20.065451 0.079653263 0
-3.5109935 20.057522 -0.61285353 0
19.817774 -3.9520841 2.6753545 0
-3.5144897 20.070234 0.7718333 0
-19.61269 -3.3317287 4.5684185 0
-3.5102382 20.054775 1.4641042 0
19.848045 -3.9590266 2.7289355 0
-3.5103116 20.05504 2.1592185 0
19.825548 -3.9529269 3.3930387 0
19.840281 -3.9558227 3.3312283 0
-3.5184975 19.314926 6.0357237 0
-3.5107732 20.056719 2.8587925 0
-19.361023 -3.3363717 6.1960611 0
19.828426 -3.9538536 3.9892282 0
19.8437 -3.9578488 4.0710783 0
-3.51194 20.060963 3.5649352 0
19.842146 -3.9561324 4.6613626 0
19.830652 -3.9543107 4.7522459 0
-3.5027342 20.512421 0.040043354 0
-3.5116353 20.059855 4.278162 0
-3.5032763 20.514637 0.81139636 0
-3.5047088 20.5205 1.5840464 0
19.835646 -3.9550526 5.3399105 0
19.837307 -3.956115 5.4490032 0
20.570538 -3.9661431 0.40644968 0
20.578592 -3.967663 -0.092442274 0
-3.5064201 20.5275 2.3600547 0
20.570934 -3.966218 -0.59168088 0
-3.510376 20.055275 5.000226 0
20.573265 -3.9666579 0.90442085 0
20.568703 -3.9657969 1.402349 0
-3.5018473 20.508793 3.1380744 0
20.578985 -3.967737 1.9013054 0
20.580425 -3.9680088 2.4012041 0
20.563807 -3.9648731 2.9010859 0
-3.5116391 20.05987 5.7362423 0
-3.5044627 20.519491 3.926239 0
20.567881 -3.9656417 3.404819 0
20.558884 -3.9639442 3.909626 0
-3.5029836 20.513439 4.7205915 0
20.972696 -3.9696419 -0.61452198 0
20.985758 -3.9729836 0.079005718 0
20.974794 -3.9701784 0.77219665 0
20.984665 -3.9727037 1.4665692 0
-3.4925418 21.114965 -0.66614366 0
-3.4926677 21.11545 0.78936076 0
-3.4980631 21.13623 0.061664343 0
20.584087 -3.9686997 4.4230423 0
-3.4926438 21.115358 1.5175648 0
21.007576 -3.978565 2.1653786 0
-3.4916248 21.111435 2.248086 0
20.572111 -3.96644 4.9344735 0
-3.5022054 20.510258 5.5260458 0
20.975687 -3.9704072 2.8631825 0
-3.4967976 21.131355 2.9858255 0
20.976074 -3.970506 3.5699635 0
-3.4931035 21.117128 3.7257748 0
-3.5051122 20.522148 6.3485203 0
20.977703 -3.9709222 4.2848845 0
-3.4984999 21.137913 4.4799528 0
-21.633677 -3.3000185 -0.80561376 0
-21.650885 -3.3017485 0.015293598 0
-21.635349 -3.3001869 0.83583367 0
-20.899778 -3.3124039 5.7450953 0
20.98274 -3.9722111 5.0105066 0
-21.641609 -3.3008161 1.6574316 0
-21.629848 -3.2996337 2.4808977 0
-3.4938231 21.1199 5.2366962 0
20.979424 -3.9713628 5.7459803 0
-3.4835715 21.84358 0.017509937 0
-3.4804597 21.830009 0.83364689 0
-21.639381 -3.3005922 3.3112106 0
21.789103 -3.9853747 0.071812749 0
21.780487 -3.9840703 -0.63636827 0
-20.910145 -3.3143551 6.6022987 0
-3.4832897 21.84235 1.6511993 0
21.818277 -3.9897923 0.78010213 0
21.797918 -3.9867098 1.4886923 0
-3.4947429 21.123444 6.010397 0
21.789492 -3.9854338 2.1994953 0
-3.4846439 21.848257 2.4720585 0
-21.648666 -3.3015256 4.1493073 0
21.783815 -3.9845743 2.9143999 0
-3.4831038 21.841539 3.2967825 0
-3.4789958 22.088879 0.38542759 0
-3.4793568 22.091511 -0.65504766 0
-3.4808159 22.102152 -0.13477719 0
-3.4789648 22.08865 0.90444648 0
-3.4772577 22.076204 1.4231679 0
-3.4783354 22.084063 1.9428227 0
21.794022 -3.9861197 3.6376028 0
-21.646528 -3.3013105 4.9951496 0
-3.4812927 21.833643 4.1279345 0
-3.4788675 22.087944 2.4636953 0
-3.4798841 22.095358 2.986783 0
-3.4753308 22.300312 0.042057753 0
-3.4722185 22.287579 0.80911326 0
-3.4735098 22.292862 -0.72576046 0
21.787884 -3.9851904 4.3663621 0
-3.4776683 22.309874 1.5780783 0
-3.4795494 22.092918 3.5113363 0
22.287119 -3.9937694 0.056871533 0
22.281874 -3.9925072 -0.68140244 0
22.279812 -3.9920108 0.79439712 0
-21.634119 -3.3000631 5.8500195 0
-3.4844189 21.847275 4.9720564 0
-3.4744987 22.296907 2.3482928 0
22.287678 -3.9939039 1.5331151 0
-3.4798059 22.094788 4.0392499 0
21.788816 -3.9853313 5.1062965 0
22.284855 -3.9932244 2.2741461 0
-3.4742012 22.295691 3.1237783 0
-3.4797974 22.094725 4.5703983 0
22.284155 -3.9930561 3.019784 0
-3.4820585 21.836983 5.8230324 0
21.77857 -3.9837799 5.8552961 0
-3.4755616 22.301256 3.9069605 0
-21.651808 -3.3018413 6.7260122 0
-3.4794264 22.09202 5.1051221 0
22.2978 -3.9963396 3.7741289 0
-3.4812803 22.324652 4.7028246 0
22.298935 -3.9966128 4.5353498 0
-3.4832788 21.842304 6.69139 0
-3.4749417 22.298719 5.4995365 0
22.290234 -3.9945185 5.3047228 0
-23.130888 -3.2761741 0.37099624 0
-23.11808 -3.2743242 0.90446389 0
-23.140165 -3.2775145 -0.163486 0
-23.130463 -3.2761128 -0.69822407 0
-23.139679 -3.2774441 1.4381399 0
-3.4758224 22.302322 6.3154669 0
-23.138182 -3.2772279 1.9723244 0
22.296886 -3.9961197 6.0902023 0
-23.143347 -3.2779739 2.5080698 0
-23.136808 -3.2770295 3.0447025 0
-3.456543 23.314686 0.85885739 0
-3.4602394 23.331936 -0.0077654123 0
-23.138548 -3.2772806 3.584343 0
-3.4608345 23.334713 1.7273023 0
-22.672632 -3.2852404 6.1467514 0
-3.4590659 23.326462 2.5978348 0
-23.139978 -3.2774875 4.1269674 0
-23.138895 -3.2773306 4.6728058 0
-3.4591804 23.326994 3.4742146 0
-3.4541883 23.615448 0.019804716 0
-3.4520407 23.606083 -0.79247272 0
-3.4556375 23.621767 0.83170843 0
-3.4552765 23.620192 1.6446314 0
-23.147816 -3.2786195 5.2246919 0
-3.4572353 23.317919 4.3566236 0
-22.673502 -3.2853916 7.0658779 0
-3.4527011 23.608963 2.4595554 0
-3.4518952 23.60545 3.2796392 0
23.760345 -4.0160518 0.81966114 0
23.763062 -4.0166645 -0.75729084 0
23.776011 -4.0195851 0.031458378 0
23.751154 -4.0139785 1.6080511 0
-3.4560776 23.312515 5.2489271 0
-3.4553909 23.620693 4.1095805 0
23.766895 -4.017529 2.4009085 0
23.755081 -4.0148644 3.1962881 0
-3.4529662 23.610119 4.9447041 0
-3.4619498 23.339916 6.1607828 0
23.762379 -4.0165105 4.0007706 0
2.5567689 24.297705 -0.015228391 0
2.5565038 24.28948 0.86648464 0
2.5559511 24.272329 1.74823 0
24.204002 -4.0228963 0.02999711 0
24.201393 -4.0225391 0.82135677 0
24.206068 -4.0231786 -0.76248312 0
2.556529 24.290268 2.6350796 0
-3.4561992 23.624218 5.7963228 0
23.758871 -4.0157189 4.8125744 0
24.203667 -4.0228505 1.6137562 0
-3.4599838 23.330744 7.0794125 0
2.5560842 24.276453 3.5247211 0
24.21805 -4.0248184 2.4102907 0
2.5605071 24.566921 0.32834542 0
2.5598865 24.561857 0.90451646 0
2.5627956 24.585596 -0.24932587 0
2.5614865 24.574915 -0.82705975 0
24.200541 -4.0224228 3.2087722 0
2.5603244 24.565432 1.4806538 0
23.779371 -4.0203433 5.6409035 0
2.5583956 24.549692 2.0566771 0
-3.4540987 23.615057 6.6564093 0
2.5555854 24.260977 4.4207916 0
2.5607994 24.569307 2.635705 0
24.213537 -4.0242009 4.0177674 0
2.5605659 24.567402 3.215519 0
23.763466 -4.0167556 6.4741764 0
2.5555747 24.260637 5.3286867 0
2.5590694 24.555187 3.7965555 0
24.213419 -4.0241847 4.8341093 0
2.5588493 24.553392 4.3816652 0
-24.945986 -3.2476704 -0.041887522 0
2.5552092 24.249294 6.2464247 0
-24.944408 -3.2475345 -0.97812021 0
-24.961073 -3.2489693 0.89355171 0
2.5595841 24.559389 4.9718237 0
24.221704 -4.0253181 5.6635599 0
24.892515 -4.0324922 0.30717254 0
24.90514 -4.0345011 -0.29143965 0
-24.977875 -3.2504156 1.8312802 0
-3.43466 25.021353 -0.036553383 0
24.915194 -4.0361004 0.90454328 0
-3.4322395 25.009214 0.88773727 0
24.918896 -4.0366898 -0.89202666 0
24.906073 -4.0346494 1.5022335 0
-25.264893 -0.95007163 -0.98974264 0
24.896893 -4.0331883 2.1001396 0
-25.257523 -1.3365483 -0.98950148 0
-25.275738 0.95007169 -0.99031091 0
-3.4340115 25.018101 1.8134136 0
-24.955826 -3.2485175 2.770216 0
-25.264837 1.336653 -0.98988485 0
-3.4294243 25.088144 -0.0051984787 0
-25.252508 1.7230399 -0.9896735 0
-25.253859 -1.7230785 -0.98974431 0
-3.4286542 25.084551 -0.867854 0
-25.230082 -2.1089563 -0.98922253 0
2.5627625 24.585325 5.5705843 0
-3.4306488 25.093859 0.85670042 0
-25.239218 2.109349 -0.98970175 0
-25.208029 -2.4947271 -0.98908067 0
-25.214439 2.4950945 -0.9894172 0
-25.181059 -2.880147 -0.98897016 0
-25.186478 2.8805356 -0.98925495 0
24.912762 -4.0357137 2.700686 0
-25.153511 3.2655361 -0.98911929 0
24.207253 -4.0233412 6.5009327 0
-3.4312229 25.096537 1.7198963 0
-3.4318314 25.007166 2.7413507 0
2.5553074 24.252344 7.1821413 0
-24.950584 -3.2480664 3.7154274 0
24.903349 -4.0342159 3.3015504 0
-3.4306278 25.09376 2.5859611 0
-3.4334002 25.015036 3.676548 0
24.891811 -4.0323801 3.9043369 0
-3.4322495 25.101328 3.4584341 0
-24.950838 -3.2480881 4.6692839 0
24.903151 -4.0341845 4.5131254 0
-3.4336481 25.016277 4.6192923 0
-3.4277759 25.080452 4.3343568 0
