# .PCD v0.7 - Point Cloud Data file format
VERSION 0.7
FIELDS x y z intensity
SIZE 4 4 4 4
TYPE F F F F
COUNT 1 1 1 1
WIDTH 1458
HEIGHT 1
VIEWPOINT 0 0 0 1 0 0 0
POINTS 1458
DATA ascii
6.6031456 5.7041931 0.19651353 0
6.0794964 6.242784 -0.49652988 0
6.3446474 5.9738417 -0.49049097 0
7.7797623 -3.9568834 -0.022784591 0
5.7338705 6.5750365 -0.27179259 0
6.1409569 6.1682601 0.652614 0
6.3380656 5.9658766 0.6507017 0
6.0112586 6.3089633 -0.49820375 0
6.0135446 6.3121719 0.42462045 0
7.7512369 -3.9520075 0.69808042 0
6.1473784 6.1767492 -0.49500948 0
5.7837329 6.535737 0.17568278 0
6.4656596 5.8289032 0.64956665 0
6.054985 6.2861748 0.16653244 0
5.7368774 6.5798149 -0.038923681 0
7.7202158 -3.9545903 0.98798287 0
5.7727566 6.5233335 0.58327925 0
6.4123945 5.9095311 0.4233548 0
6.2155476 6.1116281 -0.49376476 0
6.482501 5.8200464 0.58325636 0
6.3129988 6.0037265 0.58325243 0
5.7852449 6.5378766 0.16473947 0
6.2994266 6.0076632 -0.68226194 0
6.1394558 6.1662765 -0.72624528 0
6.4706836 5.8456731 0.44985902 0
5.7811799 6.5328522 0.37968847 0
5.7807875 6.528584 0.45448065 0
6.4962196 5.8323631 0.17548293 0
6.6563301 5.6397753 0.3796522 0
6.6659245 5.6355534 -0.25700617 0
5.948338 6.3452635 0.78605831 0
6.0080032 6.3043938 0.6542412 0
-3.1232502 8.153861 0.17539161 0
7.5939088 -3.9524348 1.7274669 0
6.5525198 5.7606916 -0.3904013 0
6.2982607 6.0056872 0.73297608 0
-3.1824708 7.9516745 1.7078246 0
6.6350732 5.6781521 -0.10844928 0
5.8768387 6.4466648 0.42519522 0
6.6305766 5.671442 -0.38764471 0
5.8059626 6.5113955 0.42545697 0
6.4736214 5.8503408 -0.39329052 0
5.8736191 6.4486637 0.45393848 0
-8.1058483 3.1957548 -0.6125384 0
5.9681411 6.3663878 0.37955666 0
6.5515871 5.7592554 0.44934893 0
6.5316734 5.763514 0.64930248 0
6.2863326 6.0501995 0.42384601 0
6.4064279 5.9025168 0.65045905 0
6.1411147 6.1853127 0.58315545 0
5.8124561 6.5213923 -0.038478017 0
5.7392664 6.5836101 0.19350827 0
5.9486923 6.3840699 0.42499757 0
6.4216166 5.920372 0.1957968 0
6.4796119 5.8448367 0.42326653 0
-8.1154861 3.1978562 0.49387008 0
6.2162089 6.0951047 0.73486984 0
6.6080909 5.7095246 -0.25825202 0
6.6699262 5.6397457 0.19653399 0
6.2093186 6.1036344 -0.72511435 0
6.7129316 5.5899572 0.17093827 0
6.4150195 5.9126172 -0.49028182 0
5.9627419 6.3606286 0.58310145 0
6.5407815 5.7736197 -0.48761445 0
6.6668148 5.6486588 -0.029803872 0
5.6948366 6.6255693 0.16402696 0
7.7798824 -3.956948 0.42044055 0
6.0761938 6.238286 -0.72940242 0
6.5597596 5.7718368 0.16978921 0
6.132143 6.1830621 0.73673201 0
5.691041 6.6173577 0.45521516 0
5.6692314 6.6517544 -0.040261835 0
5.7921185 6.5452132 -0.029989123 0
6.0806198 6.2443137 0.65392023 0
6.7107224 5.5867605 -0.38546473 0
6.7326212 5.5711594 0.19663279 0
6.1340551 6.1782026 0.78605855 0
6.2779427 6.0397449 -0.72391915 0
6.5454006 5.7787442 0.42316675 0
6.3953528 5.9428849 0.45060909 0
5.8079529 6.5144601 -0.50502044 0
6.7165728 5.5952263 -0.10725942 0
6.2163091 6.1126051 0.65270549 0
6.7353663 5.5739546 -0.029982835 0
-3.1698465 7.9912691 1.5899043 0
5.944211 6.3775854 0.65546083 0
6.6341519 5.6767774 0.44894096 0
6.6079798 5.7094049 0.42301059 0
6.0104065 6.3077674 -0.73221302 0
6.668592 5.6501646 -0.23570871 0
5.799562 6.5015426 -0.73879898 0
5.8746142 6.443346 0.65625799 0
6.4718142 5.8359318 -0.7189095 0
6.3862925 5.9280219 0.73185873 0
6.3887053 5.9319797 -0.67993158 0
5.8149519 6.5252352 -0.27194339 0
-7.8380165 -3.8740442 0.17458117 0
5.5983677 6.7025747 0.45590168 0
6.6701007 5.6399283 0.42287046 0
7.7454138 -3.9468715 0.95737648 0
6.3368545 5.9644103 0.87879616 0
6.6781631 5.6483746 -0.030699313 0
5.6717143 6.655827 0.1930576 0
6.5360804 5.7684035 -0.71767378 0
5.598793 6.7204394 -0.041449875 0
6.2236176 6.1080785 -0.68825167 0
6.6086626 5.7101412 -0.48748636 0
5.670989 6.6546378 -0.27481586 0
6.7963972 5.5038443 0.19667937 0
6.4829602 5.8204584 0.78605872 0
-7.7477412 -3.8760347 1.2163277 0
5.944828 6.3415194 0.98840612 0
6.5512309 5.758707 -0.67255533 0
6.347259 5.9770026 -0.72314596 0
5.8059616 6.511394 0.65725321 0
-8.1455708 3.1872947 0.17431557 0
5.739409 6.5838366 -0.50766313 0
5.6686182 6.6507487 0.42623863 0
5.8832855 6.456286 -0.50415248 0
7.7741399 -3.9538569 -0.69410872 0
6.0740056 6.2353053 0.8833577 0
6.6607151 5.6434903 0.58283198 0
6.5493793 5.7558565 0.72877514 0
5.8742142 6.4427481 -0.73753786 0
6.7378001 5.5764318 -0.25766462 0
5.9446716 6.378252 -0.73537123 0
-8.1408052 3.18543 0.3788369 0
6.3155017 6.0061064 0.78605878 0
6.4733963 5.8499827 -0.67684883 0
6.4711337 5.8463883 0.73056322 0
6.413559 5.9108996 -0.72186971 0
5.5092316 6.7989831 -0.13202411 0
5.5936365 6.7117014 -0.51175237 0
-8.1028061 3.1950915 0.86197948 0
5.6101227 6.71843 -0.031175494 0
5.606689 6.7212772 -0.13033444 0
5.5970688 6.7175174 0.42659563 0
6.6025071 5.7035046 -0.71718717 0
6.8000784 5.5074863 -0.25723761 0
6.7091179 5.5844383 -0.66557121 0
6.8376698 5.464325 0.17390251 0
-3.1246397 8.1574879 0.58270705 0
5.527585 6.7891235 -0.042689294 0
5.7449594 6.5926552 0.42607832 0
6.839632 5.4658928 -0.031419456 0
5.8743992 6.4502311 0.74285901 0
5.9648194 6.3674645 0.74112999 0
-7.8430638 -3.876539 0.37851343 0
5.7799368 6.5314469 0.78605896 0
6.6343546 5.6770797 -0.66981047 0
5.6031175 6.727767 0.19259664 0
6.7387695 5.5774193 0.42292041 0
6.7955694 5.5030255 -0.48518074 0
6.2123308 6.0883121 1.0187871 0
-8.137681 3.1842077 0.58263642 0
6.2133555 6.1088152 0.8818872 0
5.6123834 6.721137 0.17366308 0
5.6712284 6.6550298 -0.51068574 0
-3.1302652 8.1721745 0.37840223 0
6.8576021 5.4341364 0.42263594 0
5.9424176 6.37499 0.88663131 0
6.5352526 5.7674851 0.87709433 0
6.7383089 5.5769501 -0.4866479 0
6.720767 5.6012959 0.44870234 0
6.6784654 5.6486917 -0.48786479 0
6.671175 5.6410537 0.64956892 0
6.6104984 5.7121205 0.65010226 0
-7.8363914 -3.8732412 0.58256996 0
6.8025527 5.5196691 -0.10660622 0
5.7849474 6.5372567 0.74489927 0
6.2812052 6.0438104 0.8811084 0
7.7254148 -3.9572537 1.1903996 0
6.8079066 5.5152307 -0.030486166 0
6.1490221 6.1789217 0.88332444 0
7.7718568 -3.9526281 0.86395872 0
6.4110188 5.9079142 0.87917727 0
5.6101823 6.7291284 0.16299105 0
5.5304947 6.7942195 0.19222993 0
7.7894268 -3.9620855 0.6427598 0
6.013483 6.3120856 0.8856976 0
6.797327 5.5123334 0.4481988 0
5.6049204 6.7308216 -0.27755839 0
6.4750171 5.8395891 0.87831038 0
5.4166679 6.8786073 0.37820935 0
5.5095153 6.7996459 0.45683432 0
-3.1414552 8.108057 1.0907451 0
5.7381029 6.5817618 -0.74425924 0
6.8772764 5.4293442 0.17155716 0
5.6927977 6.6211586 0.74681991 0
6.7999697 5.5160432 -0.38488513 0
6.0435715 6.2647882 1.0251667 0
6.1306238 6.1803102 1.022305 0
6.3823209 5.9215064 1.013777 0
6.6360831 5.6796589 0.72794437 0
5.416316 6.8902302 0.16173688 0
5.6697741 6.6526446 0.65971649 0
5.4568963 6.8601899 -0.044122845 0
5.5309696 6.7950506 -0.27916992 0
6.8678789 5.4440165 0.19651523 0
5.6134877 6.7224598 0.37808394 0
6.7349653 5.5735464 0.64935291 0
5.4168243 6.8914661 -0.13462043 0
6.7911391 5.498642 -0.71465957 0
6.846715 5.4715533 -0.23851907 0
6.8062296 5.5248303 0.17093341 0
6.7921605 5.5050817 -0.66345179 0
6.8759189 5.427495 -0.38250196 0
6.483254 5.8207221 0.98888493 0
-8.133028 3.1823869 0.78605932 0
5.7447729 6.5923586 0.65910053 0
6.8060036 5.5133481 0.42295653 0
5.6678643 6.6495118 -0.74752307 0
5.424273 6.8882651 0.17287159 0
-3.1242659 8.1565123 0.78605932 0
6.3026791 6.0131745 1.0170705 0
6.8426428 5.4682989 -0.44516492 0
6.6037078 5.7047997 0.87708819 0
6.8728433 5.4487891 -0.030491352 0
5.8782969 6.4488416 0.88881677 0
6.9308853 5.3758769 -0.030070692 0
6.1407905 6.1849861 0.98895174 0
6.8833203 5.4375758 -0.10560077 0
5.5175972 6.8185339 0.1622071 0
6.9886184 5.3029685 -0.029707968 0
5.5315838 6.7961268 0.42720842 0
6.3171463 6.0076704 0.98899865 0
6.9310203 5.3760028 0.19653191 0
6.9256496 5.3709855 0.42273983 0
6.8394775 5.4657693 0.58224827 0
7.5827522 -3.9423072 1.9901228 0
5.6120172 6.7206988 0.58223569 0
6.2735496 6.0342708 1.110132 0
5.8092279 6.5164232 0.89042407 0
6.8733697 5.4492955 -0.25827366 0
6.468935 5.842895 1.0119208 0
6.6685739 5.6501493 0.7860595 0
6.719007 5.5987482 0.72688383 0
5.664319 6.6436958 0.89309472 0
6.8497539 5.4739819 0.37760344 0
6.4670219 5.8304586 1.1062169 0
5.6019859 6.7258496 0.66117913 0
5.531765 6.7964435 -0.51693696 0
6.6698618 5.639678 0.87690508 0
6.8687558 5.44486 -0.48662764 0
6.8612556 5.4376493 0.64904898 0
6.8691611 5.4182911 0.72374696 0
5.5988917 6.7206063 -0.75156009 0
7.0131969 5.2821884 -0.033707857 0
6.8040266 5.5113921 0.64960015 0
5.7398014 6.5844598 0.89216667 0
6.0767899 6.2390976 1.1153684 0
5.9627461 6.3634419 1.029526 0
5.3821263 6.9253135 0.42792147 0
6.8822188 5.4360757 0.44798863 0
6.8741822 5.4251299 -0.66139948 0
6.6823058 5.6527147 -0.71998978 0
6.9547811 5.3440518 0.44745758 0
5.5288754 6.7913833 0.66222572 0
7.0129337 5.2819901 -0.24028611 0
6.7430272 5.5817533 -0.71860564 0
6.9613752 5.3527689 0.17175165 0
5.3881326 6.9365683 -0.045921355 0
6.9575605 5.3477263 -0.38117462 0
-7.8427143 -3.8763661 0.78605974 0
6.9624205 5.3541503 -0.10457239 0
7.0100341 5.2798061 0.37724966 0
-8.1281033 3.1804597 0.98924303 0
6.1319261 6.1760583 1.1914785 0
6.1468897 6.1761031 1.11431 0
6.4087005 5.9051886 1.1084844 0
6.3446689 5.9738674 1.1098951 0
6.9951172 5.3088679 -0.25766987 0
6.2140923 6.1097608 1.112874 0
5.3816819 6.9244809 -0.52179199 0
5.4643574 6.8737025 -0.28231633 0
6.9967651 5.3103638 0.1964639 0
7.0167289 5.2848487 0.17170388 0
6.9909401 5.3050761 0.42279881 0
-8.092556 3.1928561 1.2307481 0
5.6090293 6.7171206 0.7860598 0
5.389008 6.9382091 0.19122341 0
5.4365172 6.9038143 -0.034408808 0
5.9544435 6.3517761 1.1916291 0
6.8639336 5.4402237 -0.71645355 0
5.8726664 6.4404392 1.1212103 0
6.0125165 6.3107285 1.11787 0
5.311029 6.9989529 0.19091666 0
5.4251375 6.8893628 0.5819267 0
5.6082044 6.7246828 0.74992979 0
6.3096218 6.0005145 1.1916747 0
6.6336479 5.6760254 1.0075274 0
6.8384004 5.4649086 0.78605992 0
5.3253222 6.9901762 0.16071194 0
6.8018651 5.5187039 0.72594416 0
5.5117998 6.804985 0.75176626 0
5.4523826 6.852016 -0.75812864 0
5.9440651 6.3773742 1.1197408 0
5.5972342 6.7177973 0.89563531 0
5.8766108 6.4546771 1.0332427 0
5.8027458 6.5064445 1.1232469 0
5.4678717 6.8800659 0.19145858 0
7.7548704 -3.9552119 1.2202194 0
-3.1243713 8.1567869 0.98939455 0
6.9422355 5.3864803 -0.25886643 0
5.7888937 6.5415688 0.98940587 0
6.9354653 5.3801556 -0.48710781 0
6.7391529 5.5778093 0.87723356 0
6.798429 5.5058546 0.87643468 0
6.5396719 5.7723885 1.106811 0
6.5582981 5.7695866 1.0107293 0
5.4581289 6.8624225 0.66365653 0
5.3910351 6.9420071 -0.28450763 0
6.6671658 5.6489558 0.98948377 0
5.4659204 6.8765326 0.42787099 0
7.7287674 -3.958971 1.3933833 0
5.4236965 6.908185 0.458002 0
7.0581875 5.2407384 -0.25780725 0
5.3278332 6.9965429 -0.13798636 0
7.0164728 5.284656 -0.44864511 0
5.4639254 6.8729196 -0.52104604 0
6.6040907 5.7052121 1.106061 0
5.532424 6.7975974 -0.75682068 0
6.4855804 5.8228106 1.192077 0
5.6027966 6.7096562 0.98954916 0
5.4167385 6.8912582 0.75400865 0
6.99718 5.3107405 -0.4869082 0
5.3830423 6.9270306 0.66475481 0
6.7159948 5.5943899 1.0056762 0
-3.135603 8.1002054 1.4046428 0
5.7352786 6.5772743 1.126111 0
5.6954422 6.6268806 1.0399721 0
6.6669135 5.6365895 1.1052105 0
7.0436277 5.2743053 -0.10384518 0
6.0420256 6.2618909 1.3134072 0
6.2989039 6.0067773 1.3015357 0
6.792665 5.5057898 1.0031837 0
6.9312892 5.3762541 -0.71722734 0
7.6068025 -3.9644961 1.9699473 0
-7.8401546 -3.8751011 0.98964727 0
6.9583588 5.3487816 -0.66005933 0
5.7899628 6.5477114 1.0372288 0
6.935657 5.3803349 0.64981294 0
5.7793541 6.5307889 1.1923022 0
7.0380116 5.2670975 0.44727689 0
6.2709179 6.0309916 1.3415415 0
6.2052598 6.0984254 1.3434685 0
7.0661182 5.2477331 0.19629075 0
7.0169935 5.285048 0.58156317 0
6.2166023 6.0957928 1.3059146 0
7.7872424 -3.9609096 1.089711 0
5.3148689 7.006403 0.42862967 0
7.1237264 5.1746397 -0.030569673 0
6.4649568 5.8365746 1.2943035 0
5.4260874 6.8905687 0.78606039 0
5.3201685 7.0166855 -0.047985345 0
5.5300846 6.7935014 0.89841384 0
7.1168108 5.1850581 -0.10255548 0
5.3278394 6.9965582 0.45880783 0
6.86765 5.4437966 0.87697947 0
6.8700757 5.4195371 1.0010382 0
5.6671238 6.6482968 1.1291176 0
7.0483608 5.2803793 0.17182921 0
6.4034901 5.8990636 1.3388085 0
5.957552 6.353364 1.318536 0
5.507462 6.794848 1.0467134 0
6.4670925 5.8305397 1.3371743 0
6.7334313 5.5719843 1.1051934 0
6.1339455 6.1863265 1.3106378 0
7.0724578 5.2533245 -0.031247467 0
7.1191096 5.1879225 0.17232907 0
7.1128645 5.1801405 0.44689679 0
-7.7519479 -3.8772731 1.5826304 0
5.3205566 7.0174394 -0.2874881 0
6.9955416 5.3092532 -0.71752453 0
6.9999766 5.3132792 0.64991188 0
5.6056538 6.7189507 1.0440633 0
6.9623847 5.3541031 0.72396934 0
6.626658 5.6655941 1.2875129 0
5.595479 6.7148237 1.1315975 0
7.741643 -3.9435456 1.4814197 0
5.9392443 6.370398 1.3532592 0
7.0539508 5.2370014 -0.7167877 0
7.1285405 5.1787648 -0.25889516 0
5.4586358 6.8633404 0.90068078 0
6.3893995 5.9331183 1.2994955 0
7.7168918 -3.9528878 1.595607 0
7.1904526 5.099124 0.16956061 0
-3.119092 8.2010622 0.86424309 0
6.3444753 5.9736333 1.3418537 0
7.0701151 5.2512584 0.42320231 0
5.8705878 6.4373374 1.3559062 0
7.0676818 5.2491121 -0.48831338 0
-3.124922 8.158226 1.1930223 0
6.1472139 6.1765318 1.347682 0
7.1907291 5.0993199 -0.24446416 0
7.7731991 -3.9533505 1.3133395 0
7.1270943 5.1775255 0.42310849 0
6.6670532 5.6488605 1.1931221 0
6.0121536 6.3102193 1.3520899 0
6.8466887 5.4715323 0.99008703 0
7.0515447 5.2844648 -0.38179225 0
-8.1387138 3.1846118 1.1931787 0
7.1903868 5.1092229 -0.031026691 0
5.3839455 6.9287219 0.90259022 0
6.5532999 5.7618923 1.2924218 0
5.3159494 7.0084996 0.66690278 0
6.5376945 5.7701941 1.3374556 0
7.1352715 5.1845322 0.19610356 0
6.8015056 5.5088978 1.1056061 0
7.0635419 5.245461 0.65002441 0
5.256978 7.0848832 -0.037658155 0
7.1227083 5.1924071 -0.37933671 0
7.1963863 5.1046171 -0.10191989 0
6.1387281 6.1829095 1.3954146 0
-3.0948615 8.2616549 -0.16320801 0
6.3137603 6.0044503 1.3954332 0
6.4835844 5.8210187 1.3954499 0
5.9592423 6.356895 1.3954561 0
6.0833788 6.2480717 1.3507253 0
7.0208015 5.2879162 0.78606093 0
-7.8385777 -3.8743217 1.1933739 0
-3.1736884 7.997674 1.9622667 0
5.2474642 7.089849 -0.29025102 0
5.3139086 7.00454 -0.76911652 0
7.1864491 5.1059456 0.42309386 0
7.1838746 5.0944591 0.58104551 0
6.9960294 5.3096957 0.87717766 0
5.392827 6.9453659 -0.7666223 0
7.0451999 5.2763224 -0.65949625 0
7.1936193 5.1119132 0.19614333 0
6.7116275 5.5880704 1.2855133 0
5.3231993 7.0225668 -0.52912235 0
5.8761826 6.4538169 1.3250265 0
7.0433569 5.2739577 0.72322214 0
5.2513618 7.0976849 -0.05014351 0
6.6657715 5.6353931 1.3355972 0
6.9420581 5.3863144 0.87824517 0
7.1952682 5.1132855 -0.25965899 0
5.2574787 7.0855579 0.37505594 0
6.6057105 5.7069583 1.3373333 0
7.2038112 5.1085973 -0.038510799 0
7.1218066 5.1729946 -0.71824741 0
5.6921129 6.6196771 1.3336142 0
7.133893 5.1833515 -0.48915124 0
-3.0998197 8.2685099 0.15204442 0
7.2012134 5.1104589 0.17247258 0
-3.0931497 8.2592878 -0.47950906 0
6.8674421 5.4435968 1.105804 0
7.0287833 5.2552547 0.99795246 0
5.3113852 6.9996438 0.90513659 0
5.7867413 6.5409966 1.3298241 0
5.6106811 6.7190986 1.1938331 0
7.1967297 5.1050324 0.44680458 0
6.8652992 5.4130316 1.2789567 0
5.6638699 6.6429591 1.3657075 0
5.4322696 6.8984199 0.9904629 0
5.3315043 7.0058503 0.75791073 0
7.1212287 5.1905632 -0.65702724 0
-3.0961995 8.263504 0.46724778 0
7.2018695 5.1072202 0.3747806 0
7.2715697 5.0195127 0.17290007 0
5.2651281 7.0958672 0.16809815 0
5.811049 6.5192261 1.3615389 0
7.1938086 5.112071 -0.48912466 0
7.1317863 5.1815462 0.65052593 0
7.2569499 5.0433822 0.19604731 0
6.9623399 5.3540435 1.0012677 0
5.2425666 7.1167421 -0.14225295 0
7.2029715 5.112586 -0.37835574 0
7.1211429 5.1904564 0.72231823 0
5.7403102 6.5852685 1.3643155 0
7.1841316 5.1040163 -0.71873987 0
-3.1230681 8.1533852 1.3966937 0
5.2564268 7.1078687 0.1896511 0
-3.1098113 8.1850758 1.2338276 0
6.8455081 5.4705887 1.1942649 0
6.3375235 5.96522 1.5743089 0
6.4017715 5.8970432 1.5721773 0
7.1905212 5.1093345 0.65043586 0
5.5363088 6.8044019 1.1374621 0
5.423667 6.9081116 1.0530156 0
7.2778821 5.0269337 -0.10154417 0
7.193192 5.1007514 0.72105712 0
7.9101181 -3.9484742 -0.34894347 0
7.2081833 5.1116977 -0.45605338 0
5.2614245 7.0908756 0.58051616 0
6.7385774 5.5772233 1.3369999 0
7.2553692 5.0421042 -0.48952019 0
5.2531848 7.1013498 -0.53386879 0
6.0063515 6.3020749 1.587049 0
7.2671371 5.0516171 -0.032221884 0
5.7920909 6.5451813 1.3973203 0
5.5973887 6.7180595 1.3704917 0
6.6683784 5.6499834 1.3973278 0
6.0760646 6.2381096 1.5849158 0
6.3009105 6.0101771 1.5897316 0
6.9957113 5.3094072 1.1060647 0
5.3859434 6.932466 1.1423033 0
-8.099453 3.1943603 1.603197 0
7.0719337 5.2528625 0.87881088 0
6.802134 5.5190816 1.2849624 0
5.2576575 7.110342 0.42979714 0
7.2665558 5.0511475 -0.26103324 0
6.0447073 6.2669153 1.6053219 0
6.2783961 6.0403104 1.5783696 0
7.9202094 -3.9571207 -0.08553946 0
5.4640388 6.8731251 1.1404748 0
7.0079999 5.2782745 1.1947539 0
7.3232479 4.9769554 -0.032083839 0
7.1285825 5.1788006 0.87830001 0
6.9413915 5.3856921 1.1075037 0
-3.093267 8.25945 -0.7979275 0
5.2561264 7.0837355 0.78606182 0
7.7174659 -3.9531817 1.7997248 0
-3.1361251 8.1009054 1.7222463 0
7.9205093 -3.9573777 0.17805368 0
6.137115 6.1812844 1.5993509 0
5.25214 7.0992503 0.66963518 0
7.2024918 5.1120057 -0.65584832 0
-3.0947213 8.2614603 0.78259546 0
7.3063722 4.9637079 0.65035951 0
6.9511299 5.3392253 1.2779882 0
5.2489929 7.1337433 0.15885417 0
5.6081142 6.7244806 1.3410736 0
6.3871379 5.9294081 1.5857862 0
7.0315733 5.2960291 0.99098408 0
5.3282671 6.9976435 1.0571636 0
6.5484257 5.7543888 1.5759326 0
5.5114856 6.8042512 1.3453052 0
7.1154308 5.1833386 0.99771947 0
6.4747624 5.8392982 1.5729504 0
7.2664952 5.0510983 0.42356697 0
5.9587688 6.3557253 1.6114565 0
7.9166031 -3.9540308 0.44125658 0
5.801178 6.5040298 1.5970669 0
-8.1480722 3.1882737 1.3979943 0
5.9603801 6.358109 1.5997754 0
5.4322829 6.898437 1.1950881 0
7.3466668 4.93501 0.44623983 0
6.2217474 6.104804 1.5963982 0
7.3542733 4.9436965 -0.10085762 0
6.8074279 5.5147572 1.3376887 0
7.2578783 5.0441322 0.650998 0
7.3266859 4.9796543 -0.26125056 0
6.3178535 6.0083427 1.6001171 0
6.6026883 5.7037001 1.5700185 0
7.3304262 4.9825902 0.19570535 0
5.5294895 6.7924585 1.3752834 0
6.9260693 5.3713775 1.3354959 0
7.3244958 4.9779353 0.42356309 0
6.2198601 6.1171627 1.5830294 0
6.541748 5.7746916 1.5722096 0
7.2848577 5.0351334 0.44685793 0
7.2573242 5.0436845 -0.72164249 0
5.9471378 6.3818207 1.5931268 0
6.1393056 6.196033 1.6026037 0
6.1546149 6.1863146 1.5859675 0
7.2887192 5.0396724 -0.37828732 0
5.8726664 6.4467473 1.6181574 0
6.4745746 5.8518553 1.5826371 0
5.7815924 6.533318 1.600629 0
7.1950898 5.1131377 0.87903881 0
6.4923201 5.8288617 1.6007082 0
-7.8532348 -3.881566 1.3987281 0
7.7864475 -3.9604819 1.5443603 0
5.6150508 6.7243319 1.3987505 0
6.6677632 5.6374798 1.5693125 0
5.2500219 7.136466 0.46059665 0
5.8788428 6.4496555 1.5965589 0
6.6340561 5.6766343 1.5731226 0
7.3811827 4.9223766 0.1655764 0
7.3613434 4.9517703 0.17277135 0
7.3279805 4.9806705 -0.49179351 0
7.2778611 5.0269089 0.7209425 0
6.7304029 5.5689011 1.5682058 0
7.2112145 5.1138473 0.78606236 0
7.3905702 4.9109092 0.19564047 0
7.3684759 4.9139028 0.57988811 0
6.875906 5.4517336 1.338484 0
6.8482342 5.4727674 1.3991659 0
5.244525 7.1219225 0.76194322 0
7.3937321 4.9133191 -0.032965213 0
-7.7453799 -3.8753397 1.9506166 0
7.9227982 -3.9593389 -0.61671287 0
7.0719657 5.2528906 1.1084146 0
7.3841195 4.905993 -0.49163574 0
7.3807588 4.9220939 0.37280276 0
5.6914296 6.6181984 1.6302277 0
7.196826 5.1051488 0.9969117 0
7.0361376 5.2646923 1.2770859 0
5.3204198 7.0171738 1.1477773 0
7.2570715 5.0434804 0.87936628 0
7.3858919 4.9255171 -0.25174665 0
7.3628249 4.9534631 -0.37681371 0
7.2864652 5.0370226 -0.65541762 0
6.6658258 5.6478205 1.6018062 0
5.7866173 6.5407372 1.6255511 0
7.3804765 4.9219055 -0.46088839 0
7.3903775 4.9285088 -0.043333232 0
5.2605705 7.089725 0.99157482 0
7.9219446 -3.9586074 0.70505929 0
7.3909664 4.911211 0.42376825 0
5.3846745 6.9300885 1.3832797 0
5.3227119 6.9835591 1.3568567 0
7.2022796 5.1075106 0.99160349 0
5.4232521 6.9071026 1.3527603 0
6.203825 6.0965843 1.816028 0
6.7190118 5.5987554 1.5704955 0
6.7945647 5.5084562 1.5656615 0
5.2558861 7.1067805 0.91130549 0
7.9572177 -3.9468112 -0.25865555 0
7.7602549 -3.9599612 1.7525392 0
5.4633131 6.8718109 1.3811101 0
7.4281678 4.8582158 0.44618255 0
7.4530034 4.840765 -0.033166081 0
-8.1410809 3.1855378 1.602307 0
-3.0932755 8.2594624 1.098928 0
6.9993625 5.3127217 1.3377419 0
7.4365768 4.8675461 -0.10073879 0
7.452867 4.8406644 0.19550714 0
6.857738 5.434267 1.5673958 0
-3.1276817 8.1654301 1.6024768 0
5.431128 6.8969698 1.4000267 0
7.4014111 4.9191709 -0.26318419 0
7.3287535 4.9812775 -0.72433233 0
7.4376984 4.8687901 0.17296901 0
7.3554072 4.9449916 0.72034788 0
5.6062889 6.7138386 1.6027409 0
7.1378064 5.1867046 1.109184 0
6.141335 6.1687603 1.8204588 0
7.3593602 4.9495058 -0.65313083 0
6.4048376 5.9006476 1.8102542 0
6.4812937 5.8189621 1.8043033 0
-7.8436999 -3.8768532 1.6029946 0
7.1154747 5.183393 1.2752985 0
7.1944628 5.1126156 1.1086292 0
5.2660093 7.1271324 -0.78301203 0
7.4257574 4.8555412 -0.64991999 0
7.9694753 -3.9531841 -0.031482428 0
7.0177541 5.2856207 1.4005098 0
5.7480783 6.5976105 1.6068316 0
6.0757771 6.2377181 1.8241792 0
5.6745424 6.6604662 1.6096908 0
6.8055758 5.5129251 1.5708122 0
5.9387379 6.3696656 1.8306327 0
7.4389119 4.8701367 -0.3757847 0
-3.1084361 8.1827068 1.6063159 0
6.3434973 5.9724503 1.8138587 0
7.2516232 5.0390759 1.1083288 0
6.0089397 6.3057079 1.8278549 0
7.3757076 4.9187255 0.78606308 0
7.0642052 5.2460461 1.3383534 0
5.255589 7.0830112 1.1969211 0
5.6021476 6.7261233 1.6133968 0
6.3800263 5.9177427 1.8731453 0
7.7753558 -3.9545116 1.7732149 0
6.1415443 6.1857457 1.8050717 0
5.2504168 7.0957856 1.1525058 0
7.3957419 4.9148507 0.65249765 0
7.4427342 4.8331685 -0.72447133 0
7.4634509 4.8484931 -0.26381177 0
6.2811432 6.0437326 1.8175297 0
5.7997904 6.501894 1.8381354 0
5.6066899 6.7212791 1.6395528 0
6.8802891 5.4334474 1.5639921 0
7.2808318 5.0304008 0.99662238 0
6.5381532 5.7707028 1.8079604 0
7.198832 5.1050658 1.197171 0
7.3929977 4.9127593 -0.72574115 0
7.4572811 4.8439293 -0.49424362 0
7.512157 4.7842083 -0.10018823 0
7.9209003 -3.9577129 0.96958578 0
6.4766326 5.841434 1.8107353 0
6.3214617 6.0117745 1.8058783 0
5.5304599 6.7941585 1.6178379 0
6.1306448 6.1803484 1.8929579 0
7.4623365 4.8476691 0.42409849 0
5.2446566 7.1222706 1.0646996 0
6.3018122 6.0117059 1.880988 0
7.3330531 4.9846525 0.8813588 0
7.5102334 4.7821345 -0.37431312 0
6.9313841 5.3763423 1.5700412 0
6.5469475 5.7521129 1.8631805 0
6.4675064 5.8406258 1.8693569 0
5.9691148 6.3674264 1.8063617 0
7.5228529 4.7756457 0.19518825 0
5.7842231 6.5362906 1.806401 0
5.8759975 6.4454093 1.8369401 0
7.1294594 5.1795521 1.3392437 0
7.5221405 4.7751341 -0.26418161 0
5.956749 6.3518066 1.9064484 0
5.7329679 6.5736032 1.8437721 0
5.6598949 6.6364393 1.8472205 0
5.5139589 6.8100305 1.646562 0
7.978538 -3.9578962 0.42351338 0
6.6071024 5.7084589 1.8080964 0
6.7281942 5.5666528 1.8037171 0
7.9864511 -3.9620106 0.19573097 0
7.5129271 4.7850389 0.44623819 0
7.977488 -3.9573505 -0.49075466 0
7.5198488 4.792501 0.17298418 0
7.5221786 4.7751617 0.42419729 0
7.4386516 4.8698483 0.72030121 0
7.3563809 4.9461036 0.99535793 0
5.322752 7.021699 1.391574 0
7.1892557 5.1082816 1.339196 0
7.2003069 5.1093612 1.2748272 0
5.4599395 6.8657012 1.6232517 0
5.4303665 6.8960028 1.6056063 0
7.3230038 4.9767637 1.1104167 0
6.9975863 5.3111091 1.5709175 0
5.3840227 6.9288673 1.6270019 0
6.0507402 6.2782216 1.9022675 0
6.6733441 5.6433263 1.8076252 0
7.3789458 4.9208851 0.99253118 0
6.9649429 5.3574848 1.5623578 0
6.2251897 6.1108317 1.8901742 0
6.8593903 5.4816828 1.605906 0
6.6338201 5.6762819 1.8601769 0
7.4504972 4.8389111 0.88180214 0
5.7800798 6.5271091 1.9216651 0
5.2141609 7.2473445 -0.056335241 0
5.872736 6.4468875 1.9155595 0
7.9773717 -3.9572897 0.65134883 0
-8.09972 3.1944184 1.978274 0
6.7958655 5.5033178 1.8043869 0
6.6715488 5.6526694 1.8082876 0
-8.1431789 3.1863589 1.8083011 0
7.4004831 4.9184642 0.88248223 0
7.2504144 5.0380988 1.3396353 0
7.5870094 4.7059073 0.19497663 0
-7.8399754 -3.8750124 1.8084127 0
7.5662498 4.7379799 -0.25755239 0
7.0178623 5.2857022 1.606379 0
7.1954494 5.1026673 1.4029937 0
7.4288163 4.8589354 0.99386549 0
6.8332582 5.4607987 1.808632 0
7.4701748 4.8534675 0.65368545 0
7.2753634 5.0239725 1.2727139 0
7.5212359 4.7744851 0.65341032 0
7.5166459 4.7711902 -0.72815096 0
7.0602303 5.2425399 1.571104 0
7.9764056 -3.9567873 -0.72264338 0
7.591898 4.7056317 0.17322667 0
7.5805597 4.701416 -0.49633628 0
7.571095 4.741014 0.16130829 0
6.7153654 5.5934792 1.8557885 0
7.5423489 4.7896404 -0.035372347 0
5.4227028 6.905767 1.6549542 0
7.0426946 5.2731075 1.5592573 0
7.9172945 -3.954623 1.2352231 0
-3.1302838 8.1722231 1.8091009 0
7.5742011 4.742959 -0.048342466 0
5.3113461 6.999568 1.6326107 0
5.2159691 7.2511134 -0.30171877 0
7.5957117 4.7096272 -0.10034245 0
7.5341949 4.7837873 -0.49752688 0
6.86239 5.4387393 1.8049725 0
7.5925674 4.7063332 -0.37441957 0
5.6120934 6.7207899 1.8096398 0
7.571341 4.741168 0.3699232 0
7.5624971 4.73563 0.57834935 0
7.5203533 4.793045 -0.65209442 0
5.5991011 6.7209611 1.856735 0
6.7957907 5.5101771 1.8515133 0
7.5964236 4.7124629 -0.26632273 0
7.6592484 4.6145139 0.17355148 0
5.2140369 7.247086 -0.54783738 0
5.2205648 7.260694 0.18752897 0
7.5705509 4.7406735 -0.46949756 0
7.5931659 4.7101946 0.42455435 0
-3.1015477 8.2708988 1.4190624 0
7.3939166 4.9134598 1.1125482 0
5.3268042 6.9939332 1.6622334 0
7.5207858 4.7935114 0.72025323 0
7.603961 4.7177119 -0.035832584 0
5.6953754 6.6267357 1.9321707 0
7.5964661 4.7104177 0.44628885 0
5.2124982 7.2438784 0.67553377 0
5.4226236 6.8861704 1.8107048 0
5.2671266 7.0985603 1.4042635 0
6.9270473 5.3722911 1.8052546 0
7.3790898 4.9209809 1.1992314 0
7.6526542 4.6367321 -0.26663262 0
7.9804716 -3.9589016 0.88034856 0
7.9580045 -3.9472201 1.1074584 0
5.5284481 6.7906356 1.8624569 0
7.5586367 4.7332125 0.78606462 0
7.3554101 4.9449949 1.2717946 0
7.6560493 4.6390247 0.19464305 0
7.6577716 4.6401882 -0.035860509 0
7.6496859 4.6347275 0.42462295 0
5.2214026 7.2624412 0.43190488 0
7.5897222 4.7077966 0.65432334 0
7.1254578 5.1958332 1.5577881 0
5.6024055 6.7116504 1.9397384 0
-3.0484104 8.4202967 -0.16856703 0
6.9512248 5.3393507 1.842628 0
7.5896873 4.7033157 0.71928525 0
6.8797512 5.4327149 1.8488772 0
5.260654 7.1163659 1.4005076 0
5.2490921 7.1340055 1.3708327 0
7.1993575 5.1082125 1.554418 0
-3.0627561 8.4100323 0.49707752 0
7.6674104 4.6228232 0.44605184 0
7.5933557 4.7103267 -0.73250628 0
7.1408143 5.1892819 1.5761335 0
7.5164461 4.7888327 0.99451238 0
5.4594955 6.8648968 1.8696114 0
7.3331041 4.9846926 1.3446084 0
7.1969371 5.114675 1.5751109 0
7.5344925 4.7840009 0.88491189 0
-3.0490918 8.4212675 -0.48881471 0
-3.0510917 8.424118 0.46907431 0
7.6753259 4.6308813 -0.3747139 0
7.6034994 4.7177858 -0.65236062 0
5.2594752 7.0882487 1.6101775 0
7.1998625 5.1057968 1.6101873 0
6.9999952 5.3132958 1.8084166 0
7.2726803 5.0208182 1.5512722 0
7.4329395 4.8635101 1.2706373 0
7.6545053 4.6379824 0.65505397 0
-3.0588775 8.4352131 0.15008913 0
7.2558961 5.0425301 1.5750777 0
7.4682131 4.852016 1.1153133 0
7.6642375 4.6445546 -0.50086099 0
7.68363 4.6393356 -0.10090119 0
7.3918004 4.9118466 1.3449028 0
5.5137978 6.8096538 1.9503095 0
7.5212226 4.7744751 1.1149662 0
5.2206569 7.2608862 -0.79889405 0
7.5927668 4.7099166 0.88533294 0
-3.0561686 8.3983011 0.87158465 0
7.6705685 4.6260386 -0.64999622 0
7.0260649 5.2918806 1.8143365 0
7.0379863 5.267065 1.8417538 0
7.5884113 4.7019792 0.99329299 0
7.3807082 4.92206 1.4065127 0
7.7282162 4.5735126 0.19422726 0
7.7269969 4.5727143 -0.26894754 0
7.3148227 4.9703417 1.5752933 0
7.7307577 4.5751767 -0.037159145 0
7.0647683 5.2465425 1.8092841 0
-3.0450649 8.4155293 0.78766179 0
7.7486482 4.545927 -0.099838585 0
-8.4289684 3.107435 0.12050055 0
7.4503026 4.8387671 1.3453623 0
7.7456074 4.546308 -0.26386166 0
7.6702881 4.6257529 0.71930337 0
5.2189755 7.257381 0.92172694 0
7.9248328 -3.9610827 1.5051395 0
8.0737486 -3.9444859 0.17615528 0
5.3909874 6.9419184 1.8776929 0
-3.0922527 8.2580481 1.7381964 0
7.7512531 4.5496216 -0.05311662 0
-3.115098 8.1941814 1.9843551 0
7.7514181 4.5486674 0.17323007 0
7.7241921 4.5708785 -0.50198203 0
7.6624594 4.6433539 -0.73553336 0
7.7280564 4.5734081 0.42516944 0
7.5511141 4.7285018 1.2010956 0
-8.4333038 3.1083152 -0.25859177 0
5.4208431 6.9012423 1.9597378 0
7.7496367 4.5486727 0.3674722 0
7.1274738 5.1778507 1.8098048 0
5.2097731 7.2381968 1.1660268 0
7.7567353 4.5528398 0.15703195 0
7.7492781 4.5465503 0.4461174 0
7.5778184 4.745224 0.99420172 0
7.7474627 4.5473971 -0.47667325 0
5.3168297 7.0102081 1.883703 0
7.1188035 5.187541 1.8393732 0
8.0835514 -3.9526446 -0.091928363 0
7.3568649 4.9466562 1.5510919 0
7.9728265 -3.9549267 1.3414044 0
7.7941914 4.503242 -0.037911206 0
7.7100453 4.5616169 0.88657498 0
7.5165935 4.7889915 1.2708156 0
7.7569904 4.5541801 -0.37500352 0
5.1960421 7.3509703 -0.15292069 0
5.1926227 7.3415174 0.46360615 0
8.0797901 -3.9495142 0.44338194 0
7.7935586 4.5028405 -0.27053076 0
7.7955012 4.5040731 0.19389668 0
5.2623005 7.1196761 1.6491328 0
7.593894 4.7107015 1.1177313 0
5.1970391 7.3537264 0.15556724 0
-8.4300861 3.1076617 -0.63870943 0
-8.4395523 3.1095846 0.49908799 0
7.791285 4.5013986 0.42541617 0
7.3870497 4.908226 1.5790112 0
7.7267518 4.5725541 -0.73780382 0
7.1942072 5.1019802 1.8357321 0
7.753912 4.5511823 0.57676739 0
7.3747697 4.9180999 1.6137128 0
5.1872401 7.3266373 0.77096462 0
7.8256006 4.4647651 -0.099755973 0
7.7898364 4.5004792 -0.50407428 0
7.7482266 4.5455098 0.71920753 0
7.249794 5.0375972 1.8107951 0
7.7525926 4.549829 -0.65047652 0
8.0893078 -3.9574368 -0.36142695 0
7.5862575 4.6997228 1.2686946 0
7.2659826 5.0129452 1.8314337 0
7.2033381 5.1082616 1.8184018 0
7.5259905 4.7778978 1.3493729 0
7.6738124 4.6293406 0.99392498 0
7.9104009 -3.9487159 1.7731314 0
7.7820349 4.4955301 -0.73855484 0
5.2505736 7.1379251 1.6791588 0
7.8313351 4.4702778 0.17318673 0
7.6755891 4.6522207 0.88845396 0
7.8275437 4.4666333 -0.37407476 0
-3.0473351 8.4187641 1.1079471 0
8.085331 -3.9541261 -0.63154697 0
8.0812979 -3.9507697 0.71117473 0
5.2666636 7.0979366 1.8193021 0
7.7380099 4.5354023 0.99206758 0
7.7449713 4.5844822 0.65744948 0
7.20539 5.1217108 1.8151852 0
-3.0573716 8.400444 1.2479157 0
7.4405284 4.8719306 1.5510445 0
7.7569618 4.5529723 0.78606677 0
5.3342781 7.0128827 1.9735818 0
7.865293 4.4355149 -0.039191991 0
7.8625345 4.4338198 -0.2724511 0
7.7999334 4.5068851 0.65766764 0
7.5615587 4.7350426 1.410037 0
7.5898805 4.7079067 1.3512356 0
7.8365374 4.4752793 0.44633925 0
7.9713306 -3.9541488 1.5755512 0
-8.4393501 3.1095436 0.87831515 0
5.1754827 7.401916 -0.31214619 0
5.177712 7.4067388 0.1855413 0
7.9039006 4.3848925 0.17329261 0
7.7496667 4.5486903 0.99525148 0
5.2561245 7.1072598 1.8973614 0
5.1761727 7.4111686 0.15384197 0
5.1793566 7.4102974 -0.063284457 0
7.6726356 4.6502261 1.1215053 0
7.8676033 4.4369349 0.42595017 0
7.9063225 4.3871551 -0.10002869 0
7.8747449 4.4413233 0.19330353 0
5.2158132 7.2507887 1.4165204 0
5.1741314 7.408246 0.36513066 0
7.5151792 4.7874665 1.5491498 0
7.8580985 4.4310937 0.65814948 0
5.1792111 7.4155192 -0.058464408 0
7.7944322 4.5033946 0.89002126 0
7.8311996 4.4701476 0.71956301 0
5.1888671 7.3311348 1.0801458 0
7.8355765 4.4743562 -0.65130091 0
7.3310561 4.9830847 1.8176273 0
7.3541613 4.9435687 1.832424 0
7.4705853 4.8537712 1.5856403 0
7.7276187 4.5731215 1.1218849 0
7.9073958 4.3881574 -0.37442267 0
7.9285469 4.3622818 0.19321384 0
7.3769574 4.919559 1.8226247 0
5.1769137 7.4050117 -0.56343877 0
7.8593345 4.4318533 -0.7435981 0
7.9320316 4.3643551 -0.040255219 0
7.9368773 4.3574018 -0.059324682 0
5.1747284 7.4091005 0.57568902 0
7.6577663 4.6401844 1.3540365 0
7.9088025 4.389472 0.44622451 0
5.1752567 7.4014273 0.68217242 0
7.9361472 4.3570013 -0.27230263 0
7.939929 4.3590775 0.15258324 0
7.9348655 4.3562975 0.36439541 0
7.8231277 4.4623876 0.99293882 0
7.9314251 4.3544087 -0.48576379 0
7.5317817 4.7820549 1.5870439 0
7.7475209 4.547431 1.2045476 0
7.9873919 4.2859516 -0.040683448 0
7.8831801 4.446507 -0.51028597 0
7.397089 4.9158773 1.8201927 0
7.9394784 4.3687859 -0.27526742 0
5.1857738 7.4241815 0.43419415 0
7.6847892 4.6405158 1.271888 0
8.0957718 -3.962817 0.98156279 0
7.5613294 4.7348986 1.6190586 0
7.9322109 4.3644619 -0.51022482 0
7.9088058 4.3894749 -0.65065795 0
7.9374223 4.3675623 0.42636645 0
5.1739593 7.407999 0.78606796 0
7.8626456 4.433888 0.89186257 0
-3.0506701 8.3885098 1.6247432 0
7.7487454 4.5460234 1.269212 0
7.79705 4.5050559 1.1245232 0
7.9102044 4.3907814 0.71970713 0
-3.0526028 8.4262705 1.4311131 0
7.5996561 4.7137594 1.5498167 0
7.9864678 4.3087893 0.17313232 0
7.9674897 -3.9521518 1.8121696 0
5.2489605 7.1336565 1.9895072 0
8.1726761 -3.950918 -0.040912002 0
5.1746116 7.4000311 0.93136454 0
7.4584885 4.8448224 1.8216782 0
5.2126245 7.2441421 1.6666332 0
7.9847093 4.3071933 -0.37459981 0
7.9906549 4.3125901 -0.10063261 0
7.9348822 4.3660512 0.65982902 0
-8.4384441 3.1093593 1.2588556 0
7.9292693 4.3627119 -0.74740982 0
5.1862116 7.3237934 1.3900112 0
8.1742229 -3.9516947 0.19289407 0
7.945405 4.3620839 0.57506645 0
7.4420943 4.8736677 1.8336183 0
-3.0039356 8.5707111 0.1509003 0
7.9336743 4.3556437 0.78606838 0
7.6011052 4.715723 1.590603 0
8.1759892 -3.9525809 -0.27593011 0
-3.0030172 8.5680914 0.36313501 0
8.0048046 4.2959776 0.19264969 0
7.988996 4.3110843 0.44632733 0
8.0053692 4.2963018 -0.27703905 0
7.8574657 4.4307046 1.1259801 0
8.0012836 4.2939501 0.4266794 0
7.5192566 4.7730641 1.8232596 0
8.0889978 -3.9571784 1.2515328 0
7.7463999 4.546773 1.4142656 0
7.6731653 4.6286821 1.5482353 0
7.6582007 4.6404781 1.5914837 0
5.1764288 7.4115353 0.99651647 0
7.9847846 4.3072615 -0.65068209 0
7.7396879 4.5810232 1.3596528 0
8.0023594 4.2945695 -0.51332319 0
8.0600786 4.2169061 -0.042215258 0
7.9074044 4.3881655 0.99382371 0
-2.9974895 8.5776196 0.4707467 0
-3.0038824 8.5870142 0.14845501 0
7.7902632 4.5007501 1.3594983 0
7.9915752 4.2883601 -0.74997771 0
8.1810627 -3.9551272 -0.51289022 0
7.9861598 4.3085098 0.71971452 0
7.9997811 4.2930851 0.6608327 0
5.1672597 7.398407 1.206447 0
5.1739693 7.3986406 1.181977 0
8.1888332 -3.9590271 0.42679128 0
8.0645618 4.2283607 -0.10057554 0
-3.0085273 8.5938396 -0.17486107 0
8.067852 4.2212353 0.19233492 0
7.522696 4.7955704 1.8329868 0
8.0616226 4.2257671 -0.3748641 0
-3.0073378 8.5804186 0.57441282 0
7.9432678 4.3710408 0.89505327 0
7.5874925 4.7010164 1.8282325 0
8.0695248 4.2221665 -0.27872735 0
7.5652852 4.7373762 1.829556 0
7.9399095 4.3590665 0.99692518 0
8.0698299 4.233007 0.17293002 0
-8.5789461 3.076128 0.14867121 0
7.8511658 4.4268332 1.3614794 0
7.5897284 4.7078009 1.8278457 0
7.8393335 4.4779677 1.2713408 0
8.0655661 4.2292457 0.44637075 0
8.071125 4.2230577 0.42713046 0
-3.0094333 8.59517 -0.49935895 0
-8.568326 3.0723197 0.57417297 0
-8.5806684 3.0767453 0.36143622 0
8.1916523 -3.9604421 0.66142476 0
7.7537975 4.5510216 1.5485364 0
8.1863766 -3.9577942 -0.75233185 0
8.1759958 -3.9525843 0.89533079 0
7.7810822 4.4949255 1.5959713 0
5.1288581 7.5473647 0.18365802 0
8.0744724 4.2249217 -0.51681417 0
8.0663223 4.2203827 0.66198981 0
5.2124724 7.2438245 1.9212672 0
8.1250429 4.1619587 -0.066291869 0
-3.002986 8.5856962 0.79374492 0
7.7366762 4.5790515 1.5975747 0
7.7492905 4.5484695 1.6250417 0
7.9392304 4.368638 1.1306276 0
8.129549 4.136498 0.44615147 0
-3.0095263 8.5866623 0.78606975 0
7.9356608 4.3567343 1.2077849 0
8.0899982 -3.9580109 1.5248117 0
7.8208246 4.4601736 1.5460902 0
8.0668011 4.2206502 -0.75506127 0
-8.5676241 3.072068 0.78606981 0
7.6548572 4.6382198 1.8311608 0
-3.0545402 8.4290323 1.7567873 0
8.1275139 4.1632237 -0.28144813 0
-2.9995317 8.6155901 0.49968514 0
8.0665445 4.2301087 0.72011405 0
8.0707092 4.2337813 -0.65252805 0
5.1872568 7.326684 1.7037209 0
5.133707 7.5573664 0.1525846 0
7.9118347 4.3923044 1.2705669 0
5.1321616 7.5547891 -0.32276136 0
8.1419697 4.14714 0.17296308 0
7.9941216 4.3157368 0.995112 0
8.1399059 4.1507325 0.19182275 0
8.0141525 4.3013592 0.89732587 0
8.1392794 4.1503949 -0.28106475 0
-8.4388695 3.1094458 1.6418306 0
5.13624 7.5639548 -0.069685102 0
8.1479959 4.1523042 -0.10126033 0
5.1330643 7.556818 0.43592262 0
-3.0070753 8.57967 0.99770808 0
5.1762314 7.4035363 1.4357373 0
8.1356239 4.1484275 -0.51888955 0
8.1485996 4.1554117 -0.044736773 0
7.6750317 4.6305819 1.8302336 0
8.1419134 4.1705999 0.14628333 0
8.1373367 4.1682558 0.36017057 0
8.1430283 4.1524124 0.42763916 0
-8.2870293 -3.8724434 -0.26050943 0
8.1467056 4.1511989 -0.37620163 0
5.134789 7.5604973 0.46687323 0
5.1327248 7.5560546 -0.57808787 0
8.2502632 -3.9463785 -0.371701 0
8.1354609 4.167295 -0.49877274 0
-8.2726135 -3.8684237 -0.64088875 0
8.1323185 4.1656852 0.57336712 0
8.179306 -3.9542458 1.132049 0
-8.5667372 3.0717502 0.99792767 0
7.7205749 4.5685101 1.8348836 0
8.006587 4.2970033 1.1333222 0
8.0625095 4.2265491 0.99436754 0
-8.285574 -3.8720376 0.49958903 0
8.2608337 -3.9549229 0.17351489 0
5.1821942 7.4197898 1.4190325 0
5.1330657 7.5568213 0.68867588 0
7.8573208 4.4306159 1.6019206 0
7.9853792 4.3078012 1.2701807 0
7.9375029 4.3676105 1.3683273 0
8.079195 4.2275515 0.89909571 0
8.2080936 4.0772505 -0.045577198 0
7.7441282 4.5454397 1.8358009 0
-3.0052202 8.5743761 1.2093149 0
8.1381845 4.1498055 -0.75958955 0
8.2586336 -3.9531448 0.44583577 0
8.2683506 -3.9610002 -0.099694222 0
8.1472549 4.1546879 0.66405678 0
8.2106085 4.078558 0.19132103 0
8.2200718 4.0662775 -0.10123724 0
8.1464844 4.1510086 0.72055602 0
-8.3105392 -3.8789992 0.11935861 0
7.943645 4.3611174 1.419853 0
8.2070408 4.0767026 0.42800879 0
5.1354084 7.5622892 0.78170252 0
5.1701035 7.4024787 1.6291198 0
-3.0094037 8.5951271 1.1187544 0
5.1297026 7.549263 0.94163227 0
8.1538525 4.1573224 -0.65407318 0
7.7547874 4.552001 1.8303561 0
-3.0052528 8.6261292 0.88074738 0
8.1390581 4.1691375 0.78607106 0
7.9104786 4.3910375 1.5488645 0
8.0861816 -3.9548347 1.800004 0
8.1227388 4.1607785 0.99852395 0
7.9995112 4.2929296 1.3708282 0
-3.0003655 8.5605249 1.4204855 0
8.2191133 4.0829797 -0.28448033 0
8.261837 -3.955734 -0.6484285 0
8.141861 4.1517839 0.90072119 0
7.7932281 4.5026312 1.8407431 0
8.2320786 4.0762711 0.17255956 0
8.0780869 4.2269344 1.1367221 0
8.2154732 4.0624499 -0.65233743 0
8.2261562 4.0713425 0.446706 0
5.1762791 7.4036388 1.6916726 0
8.2182178 4.0825138 -0.52406895 0
-8.5772963 3.075536 1.2105384 0
7.9762368 4.2995019 1.5467046 0
8.2975101 -3.9540532 0.14323926 0
7.8258066 4.464963 1.8284266 0
8.2122917 4.0794325 0.66522515 0
8.2327747 4.0768514 -0.37775773 0
7.9324298 4.3645921 1.6077729 0
8.1461372 4.150712 0.99553615 0
8.2793045 4.0044332 -0.04716447 0
-2.9957156 8.5750132 1.442167 0
8.2702541 -3.9625385 0.71922243 0
8.2101669 4.0783281 -0.76437294 0
8.1894455 -3.9593349 1.3722758 0
8.2202168 4.0663986 0.72064722 0
-8.296978 -3.8752174 0.88045073 0
8.3048239 -3.9575386 -0.072881639 0
8.303853 -3.9570761 -0.2892493 0
-2.9963722 8.6097708 1.2613683 0
8.0715199 4.2344961 1.2720609 0
5.1344547 7.5595293 1.0973976 0
7.9415121 4.3599467 1.6319599 0
8.298295 -3.9544275 -0.50603306 0
8.2054014 4.0758505 0.90252829 0
8.2886515 4.0091248 0.19065928 0
8.2983561 -3.9544563 0.57208228 0
7.8606439 4.4326577 1.8453887 0
8.3015366 3.987828 0.17260128 0
8.3094149 -3.9597263 0.35729012 0
8.2893677 4.0094838 -0.28702861 0
8.3051529 3.990751 -0.10217434 0
8.3194599 3.9645131 -0.074394941 0
8.0756407 4.2255721 1.3760637 0
-8.5732689 3.0740919 1.4230497 0
8.302825 3.988869 -0.3776142 0
8.1344528 4.1667786 1.2118216 0
8.3171415 3.9634087 0.35689163 0
8.2912655 4.0104365 0.42879179 0
8.2170143 4.0637331 0.99536377 0
8.151413 4.1569257 1.1404912 0
8.2966919 -3.9536636 0.78607237 0
5.1377506 7.5673504 1.1990058 0
8.2714338 -3.9634926 0.99348265 0
8.2916927 4.0106506 -0.52808857 0
8.3246927 3.9670067 -0.29194725 0
8.277071 4.0033126 -0.76840413 0
7.9072556 4.3880267 1.8296309 0
5.1774464 7.4129925 1.8431059 0
8.3303185 3.9696875 0.14069855 0
8.2871113 4.0083518 0.66702229 0
8.3095284 3.9942877 0.44697809 0
7.9296484 4.3534331 1.8435798 0
8.1852245 -3.9572158 1.612848 0
8.3025246 3.9886262 -0.65485263 0
8.3550491 3.9328268 -0.049065769 0
8.1494045 4.1535115 1.272754 0
8.2079334 4.0771666 1.1420457 0
8.3247347 3.9670269 -0.51014912 0
7.928741 4.3623977 1.8504484 0
-8.2905998 -3.8734391 1.2619224 0
8.0140572 4.3013043 1.6152521 0
8.3014765 3.9877789 0.72132659 0
-8.5585518 3.0688148 1.634994 0
8.1378593 4.1496305 1.3789312 0
8.1241817 4.1615171 1.4244676 0
8.357357 3.9339437 0.19016385 0
8.2913933 -3.9511383 0.99988306 0
8.3248405 3.9670773 0.57140017 0
5.0873232 7.7129974 0.18129814 0
5.1771841 7.4055963 1.9515858 0
-3.009851 8.5875883 1.6357101 0
-2.9581718 8.7578001 -0.18053037 0
5.1341705 7.5587082 1.4150748 0
5.0899258 7.7190804 -0.076165617 0
8.3805161 3.9069164 -0.10252595 0
-2.9597321 8.7601652 0.14637321 0
5.1323242 7.5551548 1.454735 0
8.2631702 -3.9568121 1.2680391 0
8.3598318 3.9351418 0.42928416 0
7.9812412 4.3040447 1.8291513 0
8.070549 4.2227368 1.6172822 0
8.0759315 4.2383885 1.5520175 0
8.3666172 3.9384267 -0.29034191 0
8.2893028 4.0094519 0.90642238 0
8.3591652 3.9348187 -0.53140253 0
8.3815641 3.9077389 -0.37857962 0
8.3867702 3.9118259 0.17226423 0
5.0918379 7.7235479 -0.33488268 0
-2.959199 8.7593575 0.47300991 0
-2.958776 8.7587166 -0.50877833 0
8.4195919 3.8548253 -0.050365984 0
8.3303194 3.9696879 0.78607345 0
5.0920515 7.7240481 0.4383117 0
8.2239733 4.0695252 1.2730954 0
7.9979725 4.2920437 1.8560375 0
8.1400471 4.145493 1.550028 0
8.3880596 3.9128382 0.44716442 0
8.3554001 3.9329965 -0.77460754 0
8.2940102 -3.9523854 1.2140611 0
-3.0043068 8.5876379 1.7729306 0
5.0870929 7.7479773 0.13783723 0
8.3655672 3.9379182 0.66907817 0
5.0881882 7.7496457 -0.079524279 0
8.3778229 3.9048021 0.72174656 0
8.3093061 3.9941084 0.99774337 0
5.0861888 7.7466002 0.35438338 0
-8.4227867 -3.8665116 0.35434794 0
8.3874874 -3.9485297 -0.2923705 0
-2.9562616 8.7549057 0.79974866 0
5.0913029 7.7222986 0.69574904 0
-3.006696 8.5785875 1.848742 0
8.127408 4.1631699 1.6386858 0
5.0951796 7.7313581 -0.59597224 0
8.288763 4.0091805 1.1470861 0
8.4323244 3.8607655 -0.29261726 0
8.2169113 4.0818348 1.3849769 0
8.4283333 3.8589032 0.42979285 0
8.1854935 -3.957351 1.8575366 0
8.0592861 4.2237067 1.8300432 0
8.4559755 3.8228843 0.17225859 0
8.4373503 3.8631103 0.18943349 0
8.3582945 3.9343977 0.90893298 0
-8.4362459 -3.87269 0.13686383 0
8.3919106 3.9158609 -0.65787005 0
-3.0061741 8.6278257 1.6478262 0
8.332613 3.9707811 1.0009472 0
-8.5648489 3.0710731 1.8497432 0
-8.7777805 3.0152402 -0.27537286 0
-8.4241257 -3.867126 0.57029384 0
8.3710403 3.8994772 0.99680907 0
-8.771328 3.0140257 0.50445122 0
8.4042215 -3.9566305 -0.051928818 0
8.4631348 3.8283408 -0.10343134 0
8.1488075 4.1555233 1.6243509 0
-8.7869434 3.0169649 0.11467145 0
8.4337597 3.8614354 -0.53580707 0
5.1319485 7.5543094 1.7147862 0
5.1316023 7.5512781 1.7343194 0
8.4065504 -3.9577579 0.18920985 0
8.2986507 3.9854953 1.2736411 0
5.0826573 7.7412214 0.7860744 0
5.0921183 7.7556314 0.57009459 0
8.2746735 4.0021091 1.3873792 0
8.4322901 3.8607495 0.67050034 0
-8.7717934 3.0141132 -0.66647774 0
8.2695007 -3.9619296 1.547187 0
5.091567 7.7229152 0.9542225 0
8.4637051 3.8287747 0.44731104 0
8.3245211 3.9669251 1.2156366 0
8.4690437 3.832844 -0.38062441 0
8.353467 3.9320605 1.1500254 0
8.4042778 -3.9566581 -0.53755671 0
8.4095058 -3.9591885 0.43024749 0
8.499609 3.782975 0.18902771 0
5.0740876 7.7879734 0.47029638 0
5.0776019 7.7986336 0.14890774 0
-8.2997818 -3.8759995 1.6472516 0
8.3988905 -3.9540498 0.67101848 0
-8.428977 -3.8693533 0.78607476 0
8.5141144 3.7614923 0.13509262 0
8.5005913 3.7834163 -0.29523057 0
8.2089062 4.077673 1.6276003 0
8.0823126 4.2292876 1.8658421 0
8.3071976 -3.9586697 1.4296589 0
8.4382467 3.8635285 -0.78173566 0
8.465744 3.8303292 -0.65861529 0
8.4629841 3.8282259 0.72282141 0
-2.9350395 8.8280058 0.50242633 0
8.5043802 3.7851183 0.43046361 0
5.0877266 7.7139411 1.2130462 0
8.2351046 4.0787902 1.554714 0
8.5013809 3.783771 -0.53938645 0
8.4037151 -3.9563854 -0.78310931 0
8.5178623 3.7911754 -0.053660035 0
5.0880175 7.7493854 1.0018812 0
8.133585 4.1663342 1.8543943 0
8.4426975 -3.9557297 0.17102315 0
8.1400738 4.1508226 1.8688391 0
8.4152393 3.8527944 1.1526977 0
5.0735073 7.7862139 0.79178381 0
8.5411654 3.7457273 -0.10410178 0
-8.4282341 -3.8690124 1.0019611 0
8.1488552 4.1530409 1.8341707 0
-2.9675694 8.7720432 1.1295753 0
8.4469042 -3.9590313 -0.10694912 0
8.542469 3.7466915 0.17184986 0
8.4389353 -3.9527757 0.44829339 0
-8.783802 3.0163736 0.89509392 0
8.5300674 3.7685399 -0.30408561 0
8.5213146 3.764673 -0.52339363 0
8.3239584 3.9666567 1.430958 0
8.295414 3.982878 1.5524646 0
8.4457674 3.8670375 0.91331518 0
8.5418224 3.7462132 -0.38116521 0
8.5696793 3.7054687 -0.054333836 0
8.5412474 3.7457879 0.44752365 0
8.5100346 3.7876585 0.67261028 0
8.4092035 -3.9590423 0.91388136 0
5.1299114 7.5497313 1.9773835 0
8.3555231 3.9330559 1.3940291 0
8.5428219 3.7741752 -0.085931897 0
8.4497433 -3.9612601 -0.38616282 0
8.2108593 4.05861 1.8315353 0
8.5381784 3.7721233 0.35125428 0
8.2633295 -3.9569414 1.826887 0
8.2807379 4.0051527 1.6336211 0
8.530715 3.7688265 0.56897271 0
8.506238 3.785953 -0.786412 0
8.4983425 3.7824061 0.91441494 0
8.5357246 3.7417023 0.72314715 0
8.5238352 3.7657866 -0.74571991 0
5.0879312 7.7492542 1.2179148 0
8.393796 3.917341 1.2775643 0
8.4703598 3.8338463 1.0001692 0
8.4471846 -3.9592512 -0.66649812 0
8.3116484 -3.9607909 1.6457376 0
8.5256662 3.7665956 0.78607607 0
-2.9393253 8.8361769 0.88883269 0
8.4473095 -3.9593489 0.72637618 0
-8.4318447 -3.8706698 1.218267 0
8.3170872 3.9633827 1.6463003 0
8.5899353 3.7142217 0.18806884 0
8.5504141 3.752569 -0.66119593 0
-2.9597569 8.7602024 1.458599 0
8.5883331 3.7135293 -0.29978967 0
5.0749874 7.7907019 1.1148961 0
8.2196331 4.08325 1.8777796 0
5.0471182 7.8921008 -0.083659768 0
8.4110489 -3.9599354 1.1578803 0
8.5770464 3.7086523 0.6741544 0
5.0817943 7.7399073 1.433639 0
5.092577 7.7252755 1.476913 0
8.638237 3.6262929 0.18789127 0
8.5918474 3.7150483 0.43136755 0
-8.77948 3.0155602 1.2865621 0
5.0482101 7.8947563 0.17863652 0
8.632782 3.6240277 0.43140566 0
8.6208172 3.6637981 -0.38250417 0
8.4286842 3.859067 1.3994644 0
5.04603 7.8894534 0.44066346 0
5.0400476 7.8749003 0.70208514 0
8.5917645 3.7150126 -0.54613763 0
8.5778904 3.709017 -0.79188347 0
8.3566332 3.9335933 1.6407032 0
5.0444078 7.8855062 -0.61101496 0
8.6317558 3.6716502 0.17136173 0
8.3857098 3.9109929 1.5565565 0
8.5436707 3.7475803 1.0007664 0
8.4473381 -3.9593723 1.0052954 0
5.050612 7.9005995 -0.34777206 0
8.3026934 -3.9565234 1.8612515 0
8.4719791 3.8350813 1.2789781 0
8.5379534 3.7720242 1.0033644 0
8.5109911 3.7880883 1.1600801 0
-2.9063497 8.9252653 -0.18641108 0
8.6299267 3.6703374 0.447999 0
8.6388798 3.6767642 -0.10611194 0
8.6608343 3.6356771 -0.057305753 0
-8.4368296 -3.8729579 1.4353337 0
8.6467199 3.6298158 -0.54826987 0
8.3044195 3.9901583 1.8371575 0
8.406826 -3.9578912 1.4030567 0
8.6265163 3.6678889 -0.66262418 0
5.0781665 7.7343817 1.6499728 0
-2.9066753 8.9257755 0.47494656 0
8.5873528 3.7131062 0.91909641 0
-2.9402013 8.8378468 1.2766593 0
8.6643133 3.6371217 -0.30330276 0
8.5308542 3.7688878 1.2205266 0
-2.9166884 8.9414339 0.14412904 0
8.2960033 4.012814 1.8860826 0
8.6515379 3.6318166 0.67617822 0
8.6320457 3.6718581 0.72507107 0
8.4406052 -3.9540861 1.284871 0
-2.9109769 8.9325018 -0.51925093 0
5.0759459 7.7936115 1.4401155 0
8.4262438 3.8579285 1.6466105 0
8.5034895 3.7847183 1.4053347 0
5.0457692 7.8888187 0.96605772 0
8.3324251 3.9706917 1.8651025 0
5.0936475 7.727777 1.7427132 0
8.7086563 3.5869801 -0.10638133 0
8.4635448 3.8286536 1.5583287 0
8.6544189 3.6330132 -0.79834819 0
8.350873 3.930805 1.8890735 0
8.7022915 3.5825484 0.44814575 0
8.6222801 3.6648481 1.0020617 0
8.5492477 3.7517059 1.2804178 0
8.7067966 3.5856855 -0.38470095 0
8.5856209 3.7123575 1.1647159 0
8.7236223 3.5585814 -0.31531453 0
-8.4357004 -3.8724396 1.6527362 0
8.5238857 3.7658093 1.4378088 0
