# .PCD v0.7 - Point Cloud Data file format
VERSION 0.7
FIELDS x y z intensity
SIZE 4 4 4 4
TYPE F F F F
COUNT 1 1 1 1
WIDTH 1435
HEIGHT 1
VIEWPOINT 0 0 0 1 0 0 0
POINTS 1435
DATA ascii
4.8380837 1.9604959 -0.44890529 0
4.9373627 0.35474482 1.718457 0
4.9607248 -0.78934872 1.4920268 0
4.9575729 -1.3281741 1.0572563 0
4.9427767 -1.5701382 0.75609756 0
4.950665 -1.6953866 0.29736772 0
4.8541813 1.923239 0.45818084 0
4.9486556 -1.4801331 0.89157563 0
4.9331665 -1.7351432 0.35944769 0
4.9557838 -1.630688 0.50781715 0
4.8628664 1.8466146 0.64794368 0
4.9588332 -1.698184 -0.075646043 0
4.8513045 1.9789672 0.17346227 0
4.9493189 -1.3673087 1.056563 0
4.8637619 1.665626 1.0254444 0
4.9479871 0.21307056 1.7189248 0
4.9502115 -1.7003822 -0.29599345 0
4.9501753 -1.5380421 0.78595799 0
4.8467774 1.9771204 0.29721758 0
4.9410739 -1.3370159 1.1350373 0
4.9467902 -1.6970932 0.37636882 0
4.8478394 1.9952228 0.101909 0
4.9407415 -1.6949344 0.45888084 0
4.9412217 -1.7374516 -0.24592102 0
4.9526281 -1.3843292 1.0255097 0
4.8293018 1.9699916 0.54299712 0
4.827136 2.0436895 -0.14197895 0
4.9467931 -1.7390482 0.059113383 0
4.9537153 -0.071066715 1.719236 0
4.8476114 1.9115331 -0.5913713 0
4.8522468 1.8796072 0.65554321 0
4.9456263 -1.738714 0.15965629 0
4.8575306 1.8410246 -0.72415912 0
4.8243876 2.0425479 0.25997382 0
4.9470272 -1.6225071 0.63938498 0
4.8490438 1.9213598 0.55709285 0
4.9447999 -1.0807408 1.3776603 0
4.9434614 -1.6956719 -0.45378309 0
4.9504967 -1.4485922 0.95654935 0
4.836123 2.003334 -0.34709758 0
4.8571725 1.8206547 0.78595805 0
4.8467951 1.9940634 0.24051987 0
4.8416128 1.8335624 0.852355 0
4.84624 2.0073664 -0.14261338 0
4.9466963 -1.6970026 -0.43270093 0
4.8592048 1.6873381 1.0386138 0
4.9540749 -0.64318055 1.6071451 0
4.8436384 1.9758399 0.42010432 0
4.8823061 1.2148151 1.4931569 0
4.9536738 -0.21331543 1.7199972 0
4.8300495 2.0009131 0.4584524 0
4.8576412 1.6113858 1.1629395 0
4.9497862 -1.7399058 -0.14444071 0
4.9449844 -1.4070277 1.0570846 0
4.8589807 1.7636976 0.91217393 0
4.846261 1.9100776 0.6509918 0
4.9548349 -1.6987559 -0.35084671 0
4.9381242 -1.6887619 -0.56931472 0
4.9527531 -1.414402 1.016036 0
4.8485479 2.0082865 0.15990396 0
4.935813 0.49730781 1.7204754 0
4.9411826 -1.7684405 -0.16489342 0
4.8839421 1.0674397 1.6077336 0
4.8313932 1.9149036 0.75458896 0
4.835844 2.0473053 0.059375912 0
4.8523874 1.7119941 1.0508509 0
4.9545431 -1.7412692 -0.0429717 0
4.9531226 -1.6560502 0.55892068 0
4.9423981 -1.6115363 0.75752759 0
4.8408728 1.8235734 0.91699183 0
4.8316655 2.0628886 -0.040668845 0
4.9226637 0.63910246 1.7210734 0
4.8542509 2.0105596 0.059095889 0
4.851428 1.9655948 0.45882314 0
4.8419695 1.9887092 -0.45929182 0
4.9557743 -1.6971364 0.41960222 0
4.8470821 1.7933762 0.95254618 0
4.8720212 1.5137594 1.2623048 0
4.852829 1.6618822 1.1447049 0
4.8429193 1.9064748 -0.73424864 0
4.9499645 -1.6252513 -0.70109451 0
4.9469075 -1.6940999 0.54237825 0
4.8486719 1.9961464 0.37892911 0
4.9582806 -1.2204447 1.2515464 0
4.886148 1.365747 1.3790523 0
4.9412079 -1.7374476 -0.45620811 0
4.9472179 -1.6545395 0.65871644 0
4.8236275 2.0866363 0.15953535 0
4.9454141 -1.6962013 0.55916357 0
4.836895 2.0477419 -0.2466855 0
4.9471207 -1.78197 0.058025569 0
4.8527136 1.8797705 0.75589454 0
4.8601608 1.5413547 1.2875648 0
4.9502249 -1.7003953 0.51011872 0
4.9454126 -1.5707326 0.85807502 0
4.8477182 2.0079556 0.35957587 0
4.9493713 -1.7765415 0.106527 0
4.9502802 -1.7774413 -0.02958551 0
4.9408541 -1.528511 0.95790762 0
4.9363632 -1.6937472 0.65865409 0
4.8420849 2.049897 0.15939583 0
4.9377756 -1.7791467 0.35974178 0
4.9440198 -1.7810332 -0.24883485 0
4.9709702 0.071314253 1.7224874 0
4.9579849 -1.7422554 0.2595017 0
4.9567132 -1.2333291 1.2628725 0
4.934401 -1.8211274 0.15897024 0
4.9461823 -1.6217177 0.77224922 0
4.8703461 1.8007698 0.85569161 0
4.9513884 -1.7832594 -0.044055879 0
4.8378763 2.0699816 0.099326685 0
4.8355684 2.0471911 0.35963756 0
4.837791 1.9840734 -0.6022014 0
4.8822412 1.4908569 1.2827507 0
4.9117556 0.78155679 1.7228765 0
4.8470211 2.0519469 -0.043099344 0
4.9466801 -1.7738795 -0.30372083 0
4.8357496 2.0031853 0.55856162 0
4.9421182 -1.4052892 1.1453918 0
4.8316984 2.0901239 -0.043195665 0
4.9314542 -1.077824 1.495504 0
4.8293104 1.9141419 0.85526735 0
4.9478922 -1.7393632 0.45986724 0
4.8460455 2.0072889 -0.45545161 0
4.8458815 1.9930506 0.51733774 0
4.9503851 -1.7775445 0.24200581 0
4.8574748 1.9244437 0.65800178 0
4.8525953 1.7534115 1.0540379 0
4.9540672 -1.5392514 0.90672237 0
4.8317499 2.0901461 -0.14552227 0
4.9361019 -1.7634141 0.51189482 0
4.9528093 -1.7836887 0.15862963 0
4.8428812 1.9623291 0.65795255 0
4.953167 -1.7837967 -0.14691725 0
4.8721046 1.7593057 0.95573545 0
4.8545737 1.9667966 0.55893826 0
4.9372287 -1.7789814 0.45991743 0
4.9643435 -0.93666953 1.4960763 0
4.9428205 -1.8238032 0.057301342 0
4.9468575 -1.7740548 0.37730759 0
4.9663444 -0.35682714 1.7239316 0
4.9536409 -1.4491608 1.0612996 0
4.9515572 -1.4826922 1.02457 0
4.8473659 1.9112687 0.78887999 0
4.9609394 -1.7431022 -0.35495424 0
4.9482622 -1.6985083 0.64403743 0
4.9552565 -1.3850639 1.1458024 0
4.8390741 1.9854968 0.65543729 0
4.9636946 -1.4920344 0.96139926 0
4.8566875 1.761363 1.0484614 0
4.9554825 -1.5573435 0.90053618 0
4.841404 2.0740094 0.2395391 0
4.8276963 1.9693367 0.78595883 0
4.8358402 2.0676563 0.37971354 0
4.9461451 -1.7733502 -0.44298607 0
4.955266 -1.784431 0.25933933 0
4.834425 2.0913022 -0.24954671 0
4.8235316 2.1310115 0.044728935 0
4.8385463 2.0484276 -0.4577449 0
4.8981862 0.92418694 1.724961 0
4.9604077 -0.7892983 1.6116104 0
4.8392739 2.0487299 0.45984471 0
4.8584065 1.6865485 1.1751819 0
4.9583373 -1.2851799 1.2623665 0
4.9512873 -1.6955998 0.66412705 0
4.9361868 -1.6517172 0.86001474 0
4.9440289 -1.8241873 0.25932124 0
4.9483137 -1.825549 -0.14814088 0
4.953146 -1.7837903 -0.35588056 0
4.8411651 2.0737371 -0.32687145 0
4.9506102 -1.8262789 -0.045528442 0
4.8373404 2.092562 0.25942504 0
4.8463726 2.0796843 -0.18476063 0
4.8533692 1.8374851 0.95708025 0
4.9427023 -1.8489306 -0.033548146 0
4.939806 -1.6946807 0.7603941 0
4.9456077 -1.824689 -0.25164199 0
4.8364882 1.8995414 0.92527896 0
4.9417114 -1.6175408 0.90539062 0
4.9629006 -0.50003707 1.7256048 0
4.8564196 1.8810661 0.85806382 0
4.9359694 -1.865044 -0.14821914 0
4.8337784 2.0910227 0.35990724 0
4.9519491 -1.4897363 1.0628653 0
4.8659325 1.5118675 1.3816204 0
4.8345165 2.0467544 0.55989838 0
4.9413853 -1.8522209 0.1690554 0
4.8457718 2.0962057 0.056907147 0
4.8362741 1.9823904 -0.74805975 0
4.8240671 2.1317899 -0.2508778 0
4.9533854 -1.7409375 0.56088662 0
4.9392281 -1.8661313 0.056453288 0
4.9411931 -1.768451 -0.58266747 0
4.8283715 2.1337235 0.15831271 0
4.9455004 -1.8537635 0.043573916 0
4.841609 2.0055206 0.65973532 0
4.9478698 -1.5373257 1.0273153 0
4.878427 1.3635889 1.4979713 0
4.8259039 2.1326151 0.2593258 0
4.9371648 -1.7644656 0.64737141 0
4.9514465 -1.7832768 -0.46230733 0
4.8380556 2.0701864 -0.47062695 0
4.9466395 -1.8541905 -0.082414269 0
4.8306379 2.0011477 0.75935316 0
4.9372134 -1.8654592 -0.25254494 0
4.8225212 2.0861578 0.56027687 0
4.8543334 1.9802027 0.66391522 0
4.8560905 1.7962394 1.0583301 0
4.9464464 -1.7389488 0.66133749 0
4.8557348 2.0555654 -0.35583645 0
4.8287077 2.1478686 -0.046128213 0
4.9472446 -1.8252093 -0.35741019 0
4.9606838 -1.6579845 0.76211089 0
4.8346314 2.1365359 -0.045823246 0
4.8457289 1.828661 1.0563775 0
4.9529586 -1.7030234 -0.71601188 0
4.8409958 2.0941417 -0.35617769 0
4.9598589 -1.6157379 0.86279571 0
4.8860936 1.2157575 1.6136265 0
4.8498158 1.9649787 0.76009989 0
4.9533796 -1.3472586 1.2718893 0
4.9503422 -1.8261937 0.36019441 0
4.8356314 2.0918233 0.46054998 0
4.9427633 -1.8237851 -0.46329856 0
4.9511738 -1.8575554 0.10345267 0
4.9450607 -1.6121769 0.9631055 0
4.8366928 2.1374617 -0.1492607 0
4.85957 1.8215535 1.0277139 0
4.8371487 2.0924792 -0.46200484 0
4.8319635 2.1347368 0.29273817 0
4.8660364 1.619457 1.3031034 0
4.9505177 -1.7829962 0.56168491 0
4.951755 -1.8581469 -0.17361233 0
4.833674 2.1537066 0.096148804 0
4.8534222 1.8800182 0.96026629 0
4.8298888 2.1344054 0.36015049 0
4.8497996 1.8362939 1.0600512 0
4.9606686 -1.5741737 0.96462321 0
4.9579906 -1.233647 1.3832306 0
4.9513292 -1.7014573 0.77944291 0
4.9509821 -1.8573596 0.24101155 0
4.9538412 -1.5312458 1.0655761 0
4.8235111 2.1770763 -0.1499745 0
4.8351107 2.0668228 -0.61607295 0
4.9538722 -1.5558815 1.0343921 0
4.9414234 -1.8668638 -0.35911071 0
4.8252511 2.0429068 0.76105571 0
4.9383168 -1.9096997 -0.047338575 0
4.9515791 -1.3840359 1.2660034 0
4.9493265 -1.8556745 -0.31319392 0
4.9502125 -1.4815063 1.1583471 0
4.8386278 2.0484614 0.66138339 0
4.8340063 2.1362548 -0.35862154 0
4.8915257 1.0690972 1.7291783 0
4.9654417 -0.6446563 1.7292008 0
4.8450661 2.1412234 0.055375367 0
4.9363761 -1.8651798 -0.46510631 0
4.949872 -1.8696828 0.25897831 0
4.9437361 -1.8499827 -0.45320755 0
4.8451071 1.9631796 0.86148202 0
4.9325533 -1.7775688 0.76290667 0
4.8341703 2.0657489 0.66040146 0
4.9574909 -1.6977242 0.7859596 0
4.8293877 2.1798182 -0.047450274 0
4.9589934 -0.93566006 1.6155035 0
4.8280034 2.1335583 -0.46420109 0
4.836441 2.1569595 -0.19114685 0
4.9455104 -1.6962276 0.86397171 0
4.8316727 2.1513543 -0.33519572 0
4.9496765 -1.8560312 0.37835598 0
4.9371233 -1.9244084 0.10144787 0
4.9390469 -1.8660707 0.46139076 0
4.8358011 2.1562068 0.23851682 0
4.8470259 2.0804305 0.52080119 0
4.9477615 -1.854611 0.4164134 0
4.8254528 2.1779823 -0.25486082 0
4.8307533 2.1804554 0.055085003 0
4.9465437 -1.4090812 1.2811785 0
4.93361 -1.7352704 0.86378205 0
4.9588008 -1.8726617 -0.0482485 0
4.9480672 -1.7822559 0.66302991 0
4.8463774 1.9203846 0.96187353 0
4.9330578 -1.907861 0.3603594 0
4.9436541 -1.6536276 0.96509588 0
4.834353 2.1357923 0.41632974 0
4.8468471 1.8167845 1.1479694 0
4.8096623 2.2165208 -0.25530434 0
4.95752 -1.858269 0.29163331 0
4.9445539 -1.7717757 -0.72726214 0
4.8496394 2.1425459 -0.0855546 0
4.8275299 2.1789515 0.25896329 0
4.8485246 2.1420534 0.16630888 0
4.957128 -1.8283504 0.46167958 0
4.8230867 2.1768785 -0.3602339 0
4.9431829 -1.6936252 0.91384929 0
4.8596544 1.7643838 1.1881148 0
4.824872 2.1321516 0.56208783 0
4.8496323 1.9972117 0.79685581 0
4.9420152 -1.9295332 -0.03857246 0
4.948813 -1.9133694 0.054323673 0
4.9460802 -1.8523693 0.51556635 0
4.954957 -1.5728855 1.0682452 0
4.9633951 -1.8741946 0.15666404 0
4.9486208 -1.9133024 -0.1525864 0
4.9553895 -1.7415118 0.76476395 0
4.8306885 2.1341734 0.53994918 0
4.9417877 -1.8234751 0.66379184 0
4.8776174 1.6703709 1.2673421 0
4.8198352 2.2214453 -0.1524654 0
4.9381213 -1.6942239 0.96624869 0
4.9503064 -1.538083 1.1485002 0
4.8400412 2.0048957 0.86351299 0
4.8596745 1.6878028 1.3146695 0
4.8396268 1.9610856 0.96370465 0
4.956337 -1.8718398 0.36054069 0
4.8293185 2.179786 0.36047119 0
4.836319 2.0921204 0.66321367 0
4.8387308 2.1841772 0.15671825 0
4.8233957 2.2231691 0.054062188 0
4.852356 1.8796455 1.0644547 0
4.832088 2.1518424 -0.48188502 0
4.8383064 2.159152 0.38095069 0
4.8660526 1.5119048 1.5022038 0
4.9598327 -0.78920674 1.7320487 0
4.8522258 1.6616755 1.3855343 0
4.9455271 -1.9332125 -0.17970192 0
4.8415599 2.1396482 0.46184504 0
4.847487 1.9774098 0.90783197 0
4.9445734 -1.9118872 -0.3631593 0
4.9373946 -1.9093773 0.46204257 0
4.9575253 -1.8284767 0.56344855 0
4.9370356 -1.9092518 -0.46909124 0
4.8226604 2.2319324 -0.051424265 0
4.9513626 -1.6265574 1.0433398 0
4.9554777 -1.9156995 0.15635353 0
4.9480247 -1.7752094 0.78547525 0
4.8448477 1.9085541 1.0675704 0
4.9411755 -1.9550591 -0.15370339 0
4.8235435 2.233001 0.093305379 0
4.9488235 -1.5512984 1.1688527 0
4.9387999 -1.652386 1.0690202 0
4.9529915 -1.9148303 -0.25854969 0
4.8219767 2.2311053 -0.19698232 0
4.9533663 -1.9149613 0.25866508 0
4.810998 2.2637374 -0.049907893 0
4.8269687 2.2248986 0.15635888 0
4.9442673 -1.9561899 -0.04994902 0
4.8287449 2.1795182 0.46210426 0
4.8424959 1.9892933 0.93641239 0
4.9509416 -1.2318931 1.5031009 0
4.824645 2.223774 0.25867289 0
4.9539843 -1.6143243 1.0705119 0
4.8293095 2.1797817 -0.46967548 0
4.8270111 2.1458745 -0.62866765 0
4.9590635 -1.6982628 0.90798348 0
4.8400574 2.0724721 -0.76677847 0
4.9517355 -1.0822567 1.6191427 0
4.9508419 -1.8572171 -0.59875703 0
4.8336101 2.09095 0.76524329 0
4.9444695 -1.8533771 0.66303802 0
4.9484425 -1.9577172 0.053047448 0
4.848166 1.7526877 1.3248088 0
4.937932 -1.9538727 -0.36498004 0
4.9452915 -1.9329658 0.37926748 0
4.819417 2.2280076 0.38165987 0
4.9519572 -1.8703784 0.56412077 0
4.9483767 -1.9576929 0.15596275 0
4.9376011 -1.9094496 0.5640372 0
4.8844094 1.3652611 1.6196361 0
4.8494492 1.9215081 1.0674989 0
4.8390102 2.0712762 0.80278844 0
4.8177299 2.2204263 0.46250319 0
4.9423246 -1.8671645 0.6655159 0
4.8378458 2.0040207 0.9669258 0
4.9428773 -1.6927197 1.0293424 0
4.9516187 -1.384047 1.3870013 0
4.9609189 -1.8595431 0.53916425 0
4.9463024 -1.9569342 -0.26008177 0
4.9368019 -1.998215 0.052760452 0
4.8440919 1.8157518 1.2689779 0
4.9309578 -1.8633721 0.76678246 0
4.9455395 -1.8246673 0.76707989 0
4.8267579 2.2247965 0.36076811 0
4.9344072 -2.0051086 0.098465204 0
4.95471 -1.9428325 0.23989445 0
4.9412174 -1.6917357 1.0506237 0
4.8201895 2.129535 0.78596044 0
4.8190794 2.2677932 -0.15560389 0
4.9372177 -1.9983735 0.15576383 0
4.9465113 -1.7817858 0.86874074 0
4.9527116 -1.9407392 -0.323246 0
4.8210382 2.222028 -0.47253329 0
4.8559561 1.8393755 1.1999588 0
4.8419142 1.9751365 1.0295563 0
4.8305106 2.180342 0.56429154 0
4.8426571 2.1642661 0.52397776 0
4.951416 -1.9588048 0.25843939 0
4.8414354 2.2319019 -0.051531613 0
4.941843 -2.0001411 -0.051560283 0
4.9391031 -1.8452661 0.79079545 0
4.8190117 2.2275164 -0.4915241 0
4.8314171 2.2425294 0.23741132 0
4.9449558 -1.8512244 -0.74241841 0
4.8925247 1.2173578 1.7357175 0
4.8273888 2.1332822 0.76704538 0
4.8321667 2.2274151 -0.36713582 0
4.846251 2.0516272 0.86805475 0
4.8429365 1.9623501 1.0696973 0
4.9445887 -1.9322298 0.51851881 0
4.9573226 -0.93534476 1.7362995 0
4.9485936 -1.5375507 1.2697937 0
4.9494562 -1.9373286 -0.46617854 0
4.8276291 2.2720842 0.051837742 0
4.9431844 -1.9557939 0.46314755 0
4.9399061 -2.0110371 -0.18618834 0
4.8438854 2.1400037 0.66268611 0
4.9577336 -1.8642333 0.65482479 0
4.9517975 -1.9589443 0.36096773 0
4.8439894 2.1407397 0.66648293 0
4.8369293 2.1575334 0.66663837 0
4.8275604 2.1789656 0.66660273 0
4.9421978 -2.0160449 -0.091428459 0
4.8173547 2.2956378 0.16213065 0
4.8389726 1.9853842 1.0778217 0
4.9496279 -2.0031157 -0.15762323 0
4.9434547 -1.9114962 0.66740692 0
4.9423618 -2.0136845 0.23914145 0
4.9442577 -2.016885 0.16172945 0
4.8357172 2.0031724 1.0718725 0
4.9395375 -2.0106399 -0.32987922 0
4.9472685 -2.002214 0.25824183 0
4.8355889 2.2475784 -0.34727323 0
4.8329811 2.2747705 0.15492056 0
4.8254986 2.2353668 0.52625549 0
4.8299561 2.273252 0.25820786 0
4.9417915 -1.9552846 0.56573302 0
4.9383206 -2.0440679 -0.053118467 0
4.9474792 -1.825284 0.87142384 0
4.9645696 -1.4941692 1.2997823 0
4.9486513 -2.0204656 -0.04476437 0
4.9438272 -2.0008991 0.36109388 0
4.9531665 -1.6983035 1.0758774 0
4.8639879 1.5112634 1.623209 0
4.9337044 -2.0422277 -0.26371211 0
4.955842 -1.7829432 0.92516208 0
4.9607544 -1.7430491 0.9743098 0
4.9531188 -1.8566191 0.78596103 0
4.9517193 -2.0199287 0.034249902 0
4.947638 -1.7821263 0.97395223 0
4.8329792 2.1528897 -0.78185177 0
4.8213062 2.2689106 0.46379483 0
4.8302946 2.1497338 0.80938208 0
4.8284407 2.2724915 0.36116254 0
4.9552107 -1.6301522 1.1822701 0
4.8194733 2.3153875 0.15458256 0
4.9430971 -1.7379889 1.0761347 0
4.8341408 2.2753522 -0.26462859 0
4.8226304 2.298152 0.28716576 0
4.8450117 2.0958772 0.87118846 0
4.8481207 1.9120822 1.2109442 0
4.9537506 -2.0046904 -0.26468903 0
4.8301477 2.301734 0.03387332 0
4.9417906 -2.0454507 -0.15890482 0
4.8228951 2.3171668 0.050412118 0
4.944026 -2.0463419 0.050640732 0
4.8412743 2.0738616 0.94629765 0
4.8198414 2.3228066 0.089778304 0
4.9507113 -1.9386437 -0.61224145 0
4.8475366 1.8305545 1.3396808 0
4.8311229 2.2738376 -0.37165856 0
4.9521265 -1.554297 1.3080413 0
4.859097 1.6640286 1.5079131 0
4.9379969 -1.8222703 0.97457004 0
4.877171 1.3632379 1.7399396 0
4.9519224 -2.0039921 -0.37205803 0
4.8252869 2.2240846 0.66872883 0
4.8162479 2.3137107 0.36130035 0
4.8244185 2.2340598 -0.64388466 0
4.9462786 -2.0472398 0.15439028 0
4.9422016 -1.8525269 0.90882719 0
4.9486394 -1.0815799 1.7401931 0
4.9522834 -2.020159 0.28658178 0
4.9433708 -2.0460806 0.25802681 0
4.9611187 -1.9623537 -0.47995949 0
4.9503584 -1.9382741 0.65902972 0
4.9443312 -1.8678339 0.87340343 0
4.8514748 2.0537963 0.9741714 0
4.8176098 2.3144186 -0.37314266 0
4.9478388 -2.0024319 0.46423209 0
4.8215151 2.3248916 0.23640567 0
4.9425058 -2.0138402 -0.47608429 0
4.9547234 -1.232834 1.625254 0
4.9485369 -2.0203426 0.38041708 0
4.8296962 2.3207028 -0.055134594 0
4.8241606 2.3178246 -0.26665705 0
4.8235879 2.2986081 0.41226462 0
4.8252373 2.3183844 0.25792283 0
4.8228774 2.2696993 0.56709713 0
4.9489264 -2.0028474 -0.48069954 0
4.8358297 2.0472994 1.0763566 0
4.9411573 -2.0451984 -0.37320179 0
4.9539785 -1.6965213 1.1521854 0
4.9375682 -2.0895476 0.049739361 0
4.8419628 2.232157 0.56714249 0
4.9429483 -2.0459125 0.36136529 0
4.9553661 -1.3850945 1.509203 0
4.9508429 -2.0195713 0.41201013 0
4.9502349 -1.9138666 0.77225721 0
4.9466915 -1.8529916 0.93199825 0
4.9363203 -2.0432706 -0.48149121 0
4.8141041 2.3606052 -0.1616866 0
4.8285418 2.2390504 0.67163211 0
4.8297224 2.335119 -0.058814764 0
4.8346348 2.2756004 -0.48214823 0
4.8521376 1.8187675 1.3917252 0
4.8223786 2.3259678 -0.3555795 0
4.8399754 2.1847579 0.77225208 0
4.8526659 1.9795225 1.152498 0
4.8281851 2.3332033 -0.20718455 0
4.8216453 2.3250542 0.38299799 0
4.9408379 -2.0909052 0.1537919 0
4.9480658 -1.9358721 -0.75929272 0
4.9479561 -2.0024767 0.56768417 0
4.9500852 -1.7002611 1.1925454 0
4.9417772 -2.0912955 -0.16163963 0
4.9451866 -1.6207874 1.3187425 0
4.9522061 -1.7793465 1.0640433 0
4.8451538 2.1412628 0.87477124 0
4.8457766 2.0962076 0.97678 0
4.9537849 -1.9596713 0.67059338 0
4.8261261 2.2244906 0.7729724 0
4.8379555 2.3249972 -0.16238829 0
4.9398336 -2.0972943 -0.19399887 0
4.9402809 -2.0906742 0.25778338 0
4.9492884 -2.0211525 0.52208167 0
4.8226023 2.3651791 -0.056918502 0
4.9491949 -2.018899 0.53696901 0
4.8117247 2.3593245 -0.37679011 0
4.8242898 2.3178918 0.46510196 0
4.935534 -2.0887029 -0.37578481 0
4.9513655 -1.7832525 1.0816848 0
4.9456816 -2.0470018 0.46497607 0
4.8231363 2.130837 1.0315881 0
4.8307543 2.0897157 1.0795383 0
4.8248968 2.2707129 0.67121732 0
4.8456593 2.1407874 0.90928161 0
4.8150568 2.3611181 0.36166897 0
4.9455462 -2.1036329 0.094260469 0
4.855536 1.5086373 1.7437825 0
4.8206749 2.3238447 -0.5062477 0
4.9462061 -2.1043649 -0.050037324 0
4.8286171 2.3010049 0.53679627 0
4.9343081 -1.3792086 1.6281543 0
4.842618 1.9894288 1.2232659 0
4.8347564 2.182323 0.87625635 0
4.8249345 2.2346842 -0.79726207 0
4.8254862 2.3667316 0.15304562 0
4.8083506 2.4061561 0.047842324 0
4.8269825 2.3192918 -0.48564839 0
4.8219595 2.3648334 -0.27055216 0
4.951602 -1.9395766 0.80018222 0
4.8041553 2.4038196 0.25753999 0
4.9427114 -1.8527181 1.0318525 0
4.8215551 2.3164701 0.56885576 0
4.9500384 -1.9583008 0.77459812 0
4.8419056 2.0745831 1.0911629 0
4.8247433 2.3663318 0.25753903 0
4.9509921 -1.9141313 0.87753803 0
4.948349 -2.0026267 0.6718154 0
4.8253899 2.2352357 0.81704021 0
4.9455924 -1.6936494 1.2740529 0
4.9633493 -1.5421354 1.3935487 0
4.9451599 -1.8245468 1.0833724 0
4.9555154 -2.0970004 -0.057523638 0
4.9335661 -2.1341453 0.2575953 0
4.8314762 2.3699558 0.047588676 0
4.8402309 2.1390514 0.97959709 0
4.9504375 -1.8698714 0.98070461 0
4.9491024 -2.0209522 -0.62582636 0
4.9393439 -2.0902851 0.46552336 0
4.939188 -2.1365747 0.1529378 0
4.9478354 -2.0183444 0.66156733 0
4.9373803 -1.6880465 1.3296216 0
4.8481178 1.9120796 1.3556969 0
4.953186 -2.0960331 -0.27116168 0
4.8162842 2.3183739 -0.65779299 0
4.8159537 2.4103899 -0.058868498 0
4.9428563 -2.13816 -0.058063984 0
4.81495 2.4098308 0.1524452 0
4.9410934 -1.9998546 0.77557623 0
4.9493232 -2.0484533 0.56925821 0
4.9471436 -2.1054049 -0.34176952 0
4.8169308 2.3191791 0.67642671 0
4.9425316 -2.0916088 -0.48791456 0
4.9464407 -2.1046247 0.38147813 0
4.944263 -1.9561884 0.87905967 0
4.9465551 -2.1397583 0.04730168 0
4.8491511 1.9780886 1.2749434 0
4.9410372 -2.0986297 -0.48805541 0
4.946063 -1.7732692 1.203649 0
4.818233 2.411659 -0.16614357 0
4.8301058 2.2264173 0.87911928 0
4.8203125 2.3639467 -0.4896642 0
4.8214674 2.3164246 0.67339587 0
4.830102 2.3355916 0.53048086 0
4.8311033 2.1349509 1.0845118 0
4.8184118 2.4186814 0.085883528 0
4.9483066 -1.854636 1.0738754 0
4.8629732 1.665356 1.6309144 0
4.9554076 -2.1145744 0.23768808 0
4.8317118 2.3024795 0.66136718 0
4.9419231 -1.8670306 1.0860733 0
4.953958 -2.0261867 0.66484708 0
4.9560709 -2.0972311 0.36191505 0
4.8341208 2.1820264 0.98244494 0
4.8167825 2.4165907 0.2352014 0
4.820116 2.1295025 1.1545045 0
4.812048 2.3115268 0.77716351 0
4.9317808 -2.1801789 -0.1657711 0
4.9500179 -2.1412549 -0.16592836 0
4.8185539 2.418864 -0.21470112 0
4.8179626 2.2672327 0.88051015 0
4.9458256 -2.0174191 -0.77479506 0
4.9428511 -2.1381578 0.36198127 0
4.9319887 -2.0872307 0.67379576 0
4.942667 -2.0140135 0.80608684 0
4.8484015 2.1710191 0.95868486 0
4.8073301 2.4549978 -0.060646027 0
4.8206787 2.2218535 0.98358911 0
4.8215375 2.4134991 -0.27502328 0
4.8335309 2.0650189 1.2349194 0
4.9464602 -2.0177834 0.78596252 0
4.9522676 -1.9145774 0.9844411 0
4.9376936 -2.043818 0.77760637 0
4.8182869 2.411689 0.36214235 0
4.9529018 -1.9409382 0.94268966 0
4.8112783 2.4572709 0.045415819 0
4.813303 2.4089139 0.46685603 0
4.8243055 2.366096 0.57109892 0
4.94732 -2.140089 -0.38291848 0
4.9369745 -2.0941219 0.66823095 0
4.9424992 -2.1849937 -0.060342759 0
4.962604 -1.2347949 1.7493238 0
4.9442158 -1.853282 1.1552448 0
4.8212461 2.413337 -0.38470697 0
4.9435654 -2.1854727 0.04592821 0
4.9382582 -1.9096793 1.0888383 0
4.8123007 2.4578595 0.1513257 0
4.9446545 -2.001215 0.88219631 0
4.8122892 2.4650393 0.025953352 0
4.9436073 -1.9559486 0.98577517 0
4.8350096 2.1552765 1.1021614 0
4.8364682 2.3726428 0.46700799 0
4.9332352 -2.1808321 -0.38373595 0
4.8208628 2.4218271 -0.36733973 0
4.9445176 -2.1844625 0.15404373 0
4.9438505 -2.1910033 -0.055567265 0
4.9579382 -2.051887 0.67511153 0
4.7964573 2.4487376 -0.49513364 0
4.8428297 2.2797132 0.77921271 0
4.9484735 -2.1862102 0.025532961 0
4.9383974 -1.9257431 1.0824653 0
4.8141155 2.413168 -0.51907599 0
4.9595499 -1.5409549 1.5159688 0
4.9590397 -2.1451538 -0.27593434 0
4.821887 2.4231417 0.38434359 0
4.8078656 2.4553061 0.36235923 0
4.8161831 2.4600952 -0.16964138 0
4.8135147 2.4585586 0.25692701 0
4.8313074 2.1807137 1.0896662 0
4.7990942 2.5003288 0.044432789 0
4.9433155 -2.1839316 0.28137541 0
4.9450884 -2.1031249 -0.63920218 0
4.9559278 -2.0971715 0.57139993 0
4.8303242 2.2412071 0.96536422 0
4.8322487 2.4364383 -0.065904945 0
4.8195419 2.4123878 -0.49571675 0
4.8650818 1.8236195 1.5162792 0
4.8192854 2.322114 0.82483876 0
4.9494524 -2.1410103 0.46704823 0
4.8348336 2.303967 0.78596288 0
4.9474964 -2.1401651 -0.49421501 0
4.8171015 2.2955172 0.91018134 0
4.9401608 -2.18679 -0.35067183 0
4.8166885 2.2665935 0.98733008 0
4.9322577 -2.2278121 0.15130952 0
4.9449253 -2.1922309 0.2367962 0
4.9505081 -2.1885917 0.15129559 0
4.8450336 1.9921098 1.3709657 0
4.9385357 -2.0095596 0.9490459 0
4.9572706 -2.1166415 0.52605736 0
4.940443 -2.1871123 0.38248506 0
4.8045311 2.5016446 -0.068953127 0
4.9515624 -1.695694 1.3978121 0
4.9503555 -2.1984322 0.090378761 0
4.825768 2.3668833 0.67676002 0
4.9544759 -2.1888621 -0.10439122 0
4.9414091 -1.7686644 1.3454767 0
4.8188443 2.461627 -0.27917761 0
4.8478723 1.977567 1.3980274 0
4.950851 -2.1887457 0.25693488 0
4.9361448 -1.9532189 1.0922341 0
4.8172503 2.4675803 0.280608 0
4.9500561 -2.1980906 -0.20408517 0
4.8062224 2.50457 -0.063603461 0
4.8200026 2.4207227 0.53365213 0
4.8223462 2.4701905 0.15256739 0
4.9460301 -2.1851308 0.40779445 0
4.8106833 2.4087641 0.68223548 0
4.8244476 2.2236781 1.0929481 0
4.8120208 2.4576983 0.46805739 0
4.9489298 -1.8552709 1.2175272 0
4.8233991 2.3174288 0.88589031 0
4.9430385 -2.2328417 0.044244796 0
4.9402905 -2.1840014 -0.49718475 0
4.8001995 2.5009866 0.36264655 0
4.9340858 -2.1812143 0.57256269 0
4.9405146 -2.1371479 0.67715073 0
4.9419594 -2.2323382 -0.17067617 0
4.8139477 2.4092727 0.67798662 0
4.8193769 2.4619339 -0.38986003 0
4.9583015 -2.1920929 -0.27948231 0
4.9406939 -2.2317479 -0.27957928 0
4.9541521 -2.1902287 0.36252832 0
4.929039 -2.1776242 0.66052163 0
4.8234897 2.3656569 0.78277475 0
4.8118181 2.264149 1.0947077 0
4.9474239 -2.1872063 0.46792728 0
4.9565711 -2.0219078 0.91057783 0
4.8131361 2.5086832 -0.17311236 0
4.823535 2.2329907 1.1123044 0
4.95716 -2.1443412 0.57310903 0
4.7943344 2.5483367 0.14971019 0
4.8298202 2.4181113 0.57370764 0
4.9444847 -2.1917276 -0.50202966 0
4.8150287 2.5098095 0.14982694 0
4.9517293 -2.0494123 0.88688391 0
4.8155727 2.3174872 0.9732573 0
4.9395566 -2.2312174 0.36259452 0
4.9431062 -2.1009254 0.81399912 0
4.8120255 2.5080228 0.2565133 0
4.8178186 2.4179204 -0.67603976 0
4.812264 2.5118663 -0.22328842 0
4.8056717 2.5042422 -0.3920635 0
4.9372368 -2.0894098 0.88720477 0
4.9366684 -2.0434091 0.99148613 0
4.9482436 -1.537442 1.6377146 0
4.8158388 2.516592 0.08189556 0
4.9523525 -2.2371871 -0.064110726 0
4.9473248 -2.1056063 -0.79250562 0
4.8138881 2.465858 0.53401011 0
4.853363 1.8192269 1.6379665 0
4.9366541 -2.2747622 0.087819561 0
4.9545908 -2.0966165 0.7832371 0
4.949163 -2.1865149 0.53391933 0
4.8150344 2.5155287 0.23385017 0
4.8261733 2.4721508 0.4067263 0
4.8098297 2.5086484 -0.37718278 0
4.8168201 2.3620672 0.88881767 0
4.834496 2.1358557 1.2794447 0
4.8019028 2.5529876 0.041838527 0
4.8350658 2.1553423 1.2509375 0
4.8141365 2.4093781 0.78480101 0
4.8179283 2.4610999 0.57465559 0
4.9459243 -2.0175648 1.0347922 0
4.8077655 2.4552484 0.68010771 0
4.8729343 1.6687673 1.7562642 0
4.9600358 -2.007092 0.99346328 0
4.8235583 2.298594 1.0348686 0
4.8127069 2.5124519 0.38548252 0
4.9416475 -2.2804141 -0.065202057 0
4.9536767 -1.8568282 1.2799082 0
4.9415379 -2.1883624 -0.65336978 0
4.8004866 2.5521176 -0.28510541 0
4.9405594 -2.2316849 -0.50256938 0
4.8107243 2.5072486 0.46931058 0
4.9496355 -2.2359195 -0.3924731 0
4.9409056 -2.2797599 -0.21094245 0
4.9445171 -2.2335317 0.46879947 0
4.8229332 2.5145125 -0.28505665 0
4.8091636 2.5574498 -0.067272305 0
4.842371 2.0751145 1.3871197 0
4.807724 2.5058653 0.53679955 0
4.9474249 -2.283211 0.042006463 0
4.9603534 -2.2409201 0.25640494 0
4.9380741 -2.0953424 0.95902401 0
4.9422941 -1.8485153 1.3608009 0
4.9451389 -2.1861799 0.68009818 0
4.794487 2.5484307 0.4696992 0
4.8120646 2.5080459 -0.50677079 0
4.9559636 -2.2048366 0.5294674 0
4.8068333 2.5560179 0.25615734 0
4.9469805 -2.2829957 0.14937113 0
4.8126798 2.3118553 1.100729 0
4.9462118 -1.9339299 1.230137 0
4.8163171 2.4671021 0.65999198 0
4.9334316 -2.0421193 1.1000581 0
4.94944 -2.0030437 1.1002469 0
4.8472166 1.9772995 1.5218136 0
4.8015099 2.5527463 -0.3970359 0
4.9459748 -2.01758 1.0964758 0
4.9712234 -1.3895268 1.7583392 0
4.8093338 2.5064213 0.57600969 0
4.942729 -2.2326975 0.57512534 0
4.9539227 -2.1429422 0.78600204 0
4.9506068 -2.2911642 -0.06258747 0
4.947341 -2.2873247 0.23551208 0
4.9378862 -2.1829214 0.78623116 0
4.8130951 2.5129647 -0.53434193 0
4.7966275 2.549746 -0.50901312 0
4.8135214 2.4090352 0.89263982 0
4.7960949 2.6011963 0.040035546 0
4.9486866 -2.2838218 0.2562674 0
4.8191605 2.4196427 0.83422232 0
4.9491329 -2.1970363 0.6756689 0
4.9365282 -2.3267391 0.04117772 0
4.8023381 2.5022588 0.68244851 0
4.95333 -2.2860694 -0.17595601 0
4.9433002 -2.2825754 0.38377911 0
4.8374472 2.3247328 0.99770457 0
4.9598107 -1.6985186 1.5228801 0
4.8110113 2.4571173 0.78809613 0
4.9464245 -2.2827268 0.36308879 0
4.8099241 2.5579174 0.36330602 0
4.9325628 -2.3247492 -0.28603435 0
4.8205347 2.5644376 -0.17868471 0
4.9469237 -2.1399179 0.89276874 0
4.9468298 -2.0933936 0.99800861 0
4.8121438 2.4649644 0.78596437 0
4.9548521 -2.2868063 -0.28665924 0
4.8035479 2.6049678 -0.076149881 0
4.8248954 2.2346373 1.2634575 0
4.9407344 -2.2795589 -0.51447803 0
4.947649 -2.1858461 0.78596443 0
4.9416866 -1.5354047 1.7607796 0
4.7998638 2.5517349 0.57735217 0
4.8194785 2.3223543 1.1252763 0
4.9289117 -2.3487985 0.27617663 0
4.943161 -2.3300681 -0.17759275 0
4.8015985 2.6046879 0.25578487 0
4.8100328 2.5089169 0.68915093 0
4.9472265 -2.2831151 0.47004324 0
4.9517794 -2.2925427 -0.36455446 0
4.8272696 2.3676918 1.0002658 0
4.9417868 -2.3293784 0.25602382 0
4.8047724 2.6067016 -0.18011263 0
4.8304892 2.1499631 1.4002223 0
4.9494133 -2.0189881 1.1598086 0
4.9389033 -2.2790856 0.57656527 0
4.9439344 -2.1910996 0.82234424 0
4.9453201 -2.282192 -0.5095312 0
4.9463768 -2.331682 0.14827131 0
4.8080416 2.6087754 -0.07049337 0
4.8068676 2.6080308 0.14749601 0
4.8112955 2.5105863 -0.69209182 0
4.9391465 -2.3536758 0.016904831 0
4.93714 -2.1356897 0.99975812 0
4.8371592 2.137032 1.404165 0
4.9474659 -2.2349072 0.68284869 0
4.8051529 2.6071541 0.23267086 0
4.8085032 2.6117175 0.07812795 0
4.9385405 -2.3533869 0.14644134 0
4.9530268 -1.8565847 1.4043238 0
4.8282781 2.300843 1.1600255 0
4.9501715 -2.3335865 -0.069027603 0
4.7887907 2.6491406 -0.07119149 0
4.8003225 2.6005757 -0.38795739 0
4.9452081 -2.2848179 0.53227234 0
4.8066244 2.609158 -0.23245311 0
4.8156681 2.4151609 0.98540121 0
4.9371552 -2.3704941 -0.067149937 0
4.9597473 -2.2891762 -0.39985985 0
4.7999043 2.6351817 0.14584714 0
4.9438763 -2.3304272 0.36341703 0
4.8078618 2.6086614 -0.29214293 0
4.9376659 -2.3711116 0.083915994 0
4.79391 2.652492 0.037764996 0
4.943738 -2.1855502 0.89577889 0
4.938592 -2.27704 -0.66842425 0
4.9356384 -2.3686581 0.23455539 0
4.9385223 -2.32774 0.47066814 0
4.8146205 2.4591954 0.89763027 0
4.793251 2.6520607 -0.18247074 0
4.946805 -1.6940647 1.645483 0
4.944468 -2.0924129 1.1078763 0
4.8062344 2.6086273 0.38676107 0
4.8110819 2.5074611 0.79213381 0
4.8209596 2.3642952 1.1092612 0
4.8203063 2.4128137 1.0038586 0
4.8130426 2.465425 0.91185141 0
4.9422174 -2.3792067 0.038646072 0
4.863822 1.8231472 1.7644663 0
4.8031669 2.6369727 0.27435911 0
4.800519 2.6008427 0.54056501 0
4.9481936 -2.2352467 0.79116571 0
4.9501133 -2.3335574 -0.40239543 0
4.944088 -2.3801794 -0.070965201 0
4.9265575 -2.3710644 0.47114274 0
4.8131971 2.6120462 0.36385491 0
4.7978106 2.6022844 0.57954216 0
4.9438305 -2.3800452 0.147237 0
4.9406347 -2.3783836 0.25565255 0
4.9517469 -2.1876564 0.9119848 0
4.9365406 -2.182317 1.0039725 0
4.9339128 -2.27667 0.79193932 0
4.9375143 -2.2302644 0.89829731 0
4.9412861 -2.3787224 -0.29231739 0
4.8095694 2.6097445 0.47207165 0
4.8120427 2.5115738 0.84264338 0
4.9412022 -2.3290849 0.5786798 0
4.9475513 -2.2875724 0.68157494 0
4.815598 2.6437974 0.013768673 0
4.9379511 -2.1360402 1.1108289 0
4.821836 2.2977731 1.2846797 0
4.80478 2.6596086 0.14612359 0
4.9396343 -2.3734944 0.38495415 0
4.9315996 -2.363771 -0.52588129 0
4.807601 2.6084957 -0.51984507 0
4.7887392 2.692966 0.075284705 0
4.937232 -2.3527637 0.53119493 0
4.7975016 2.6548433 0.36402932 0
4.931932 -2.3244324 0.68592191 0
4.8040972 2.6374834 0.40267274 0
4.951026 -2.2849543 0.6858815 0
4.807889 2.5055616 0.90105391 0
4.9321313 -2.4241338 -0.072191387 0
4.9436908 -1.8530852 1.5280819 0
4.8021259 2.5531249 0.79466254 0
4.9524899 -2.1113374 1.1107807 0
4.950263 -2.3833897 -0.18243665 0
4.9540668 -1.9421589 1.3810216 0
4.857193 1.9813693 1.6482677 0
4.9323235 -2.4242373 -0.18295068 0
4.9414339 -2.3787994 -0.40536296 0
4.9567614 -2.0292089 1.2478263 0
4.7994957 2.494988 0.99386984 0
4.9519444 -2.3597744 0.40232453 0
4.9239531 -2.4197321 -0.40621495 0
4.8004284 2.6567597 -0.4096905 0
4.9464831 -2.3814244 0.36386254 0
4.9519234 -2.3883665 -0.22203064 0
4.928978 -2.2742808 0.90047157 0
4.819869 2.5640285 0.68821514 0
4.8073549 2.6612942 -0.29760265 0
4.801405 2.6360054 0.53081107 0
4.8108988 2.6149802 -0.5499869 0
4.9558105 -2.3364167 -0.51847696 0
4.8233747 2.6185033 -0.40935868 0
4.8106251 2.4641864 1.0377485 0
4.9484367 -2.3841469 -0.37533253 0
4.8115168 2.6640191 0.25507829 0
4.9572053 -2.0221667 1.2858427 0
4.942112 -2.2811778 0.83057106 0
4.9468112 -2.1854758 1.0378904 0
4.9402289 -2.4284923 0.14621647 0
4.822413 2.4139867 1.1159973 0
4.8242664 2.3283205 1.2801373 0
4.8217063 2.463275 1.0098805 0
4.829052 2.2396677 1.4183943 0
4.929677 -2.3614442 0.68552285 0
4.7963161 2.7077959 0.14509462 0
4.9553814 -2.2041717 0.97373116 0
4.7989311 2.7072713 -0.083165646 0
4.7907872 2.6958401 -0.39929837 0
4.9435978 -2.3782911 0.53597212 0
4.8073831 2.4550281 1.1179118 0
4.834425 1.9720815 1.769534 0
4.8070846 2.6097851 0.69607282 0
4.9389257 -2.1833885 1.116184 0
4.9380684 -2.4273293 0.36410743 0
4.94174 -2.0994098 1.2574477 0
4.9437661 -2.4303963 0.25517964 0
4.9294252 -2.4735775 0.035718054 0
4.9422855 -2.0136025 1.3928002 0
4.8000059 2.7102876 -0.18846822 0
4.942791 -2.4298713 -0.29722553 0
4.7961149 2.70766 -0.30077374 0
4.8223372 2.4237192 1.1410761 0
4.8108892 2.6105821 0.6903075 0
4.7990704 2.709656 0.25481811 0
4.9391165 -2.0147877 1.4095504 0
4.8039494 2.7129507 -0.077079803 0
4.8489747 2.1422522 1.5311089 0
4.9323664 -2.4630232 0.23331419 0
4.8071346 2.6611502 -0.52738351 0
4.8113785 2.6639285 0.47368973 0
4.9535284 -2.4356508 0.035461932 0
4.9333477 -2.4757617 -0.075366855 0
4.9460497 -2.2342467 1.0109597 0
4.9518604 -2.3842204 -0.5233618 0
4.9357653 -2.3758519 0.6892134 0
4.8036423 2.6588635 0.58265269 0
4.8106918 2.6146979 -0.71128118 0
4.8076234 2.7154319 0.033716828 0
4.8198028 2.2968042 1.4101152 0
4.9495397 -2.3586285 0.65833247 0
4.9385538 -2.4707336 -0.074027598 0
4.8034706 2.6058755 0.79926842 0
4.8052621 2.4614394 1.1635609 0
4.9489079 -2.3826849 0.58141363 0
4.8050489 2.7158587 -0.24295557 0
4.9401464 -2.472718 0.079704747 0
4.9365892 -2.4775665 0.14514862 0
4.8091326 2.6402478 0.65825284 0
4.9384632 -2.4706211 -0.22881866 0
4.9468231 -2.3319058 0.79764163 0
4.9390831 -1.8513579 1.6530173 0
4.9387312 -2.4276862 -0.52569878 0
4.9442115 -2.1843274 1.1639967 0
4.7996511 2.6562507 0.6921854 0
4.786849 2.7559807 0.25453672 0
4.944335 -2.4307027 0.47342795 0
4.9353323 -2.4258568 0.58213019 0
4.8035288 2.6049421 0.85121095 0
4.8209677 2.5133431 1.0155728 0
4.8026767 2.7120914 -0.41719615 0
4.8046203 2.7152572 0.38825271 0
4.9261932 -2.3475032 0.91299796 0
4.8185329 2.5632076 0.9086228 0
4.9377875 -2.4782338 -0.30088723 0
4.8108993 2.7240705 0.23095843 0
4.7950702 2.7617056 -0.079566449 0
4.937871 -2.469883 0.38623935 0
4.9436064 -2.4814742 -0.18887195 0
4.831666 2.1346054 1.6542549 0
4.8172078 2.3195245 1.4329827 0
4.7866473 2.7558403 0.36485901 0
4.9481125 -2.383755 -0.68871635 0
4.8031688 2.6369739 0.7859664 0
4.9406719 -2.2317379 1.1220028 0
4.9619012 -1.6992346 1.773982 0
4.9538393 -2.2024102 1.1241897 0
4.9368753 -2.3764291 0.79944682 0
4.9475455 -2.2875655 0.98291951 0
4.7991004 2.707509 -0.56321663 0
4.8024874 2.6052518 0.91030586 0
4.9442353 -2.281667 1.0152811 0
4.7982578 2.7639253 0.14334695 0
4.9244556 -2.3699718 0.90803021 0
4.9377708 -2.4782248 -0.41549861 0
4.8070159 2.7150216 0.47498205 0
4.7972193 2.6546588 0.80262196 0
4.9417381 -2.4804337 0.36460876 0
4.8142362 2.7198977 0.36490133 0
4.7948732 2.7615688 -0.30650139 0
4.9338379 -2.4648571 -0.54139256 0
4.9479995 -2.4839206 0.25466615 0
4.8001785 2.7652626 -0.19341534 0
4.9317713 -2.4748836 -0.53013659 0
4.7867856 2.7559366 0.4753204 0
4.9381628 -2.4784431 0.4743458 0
4.8149881 2.5097854 1.1270823 0
4.9379306 -2.0951829 1.4081458 0
4.7920809 2.7596242 -0.42138535 0
4.8058434 2.7169738 0.54566014 0
4.8042908 2.7131813 0.58533138 0
4.8073449 2.7702532 0.031024247 0
4.9385891 -2.5305715 0.032563329 0
4.815908 2.5615945 1.0203376 0
4.7940626 2.7004383 -0.72507083 0
4.9484777 -2.4830999 -0.38748974 0
4.9393473 -2.531008 -0.079350442 0
4.9300604 -2.4230192 0.80194366 0
4.9413495 -2.1881473 1.2727039 0
4.9347887 -2.4765639 0.58421898 0
4.7898073 2.8071136 0.07035549 0
4.7870626 2.8118112 -0.082315475 0
4.9369211 -2.2781262 1.126431 0
4.8067942 2.4622242 1.2902265 0
4.8147621 2.5151684 1.1542791 0
4.962832 -2.3649628 0.78596693 0
4.7984343 2.6026804 1.0219398 0
4.9408765 -2.5318885 -0.19243032 0
4.8251858 2.4273753 1.298207 0
4.957449 -2.337239 0.91084671 0
4.9341316 -2.5280049 0.36490241 0
4.9326253 -2.5266798 0.39836475 0
4.9273334 -2.558461 0.23206198 0
4.7884941 2.7025137 0.80566823 0
4.8162041 2.7212267 -0.53832072 0
4.7906399 2.814379 0.14214639 0
4.7946005 2.7613785 -0.53963155 0
4.8060608 2.5555432 1.13138 0
4.9468455 -2.5339639 0.13621885 0
4.9468145 -2.4810276 0.54025364 0
4.7955003 2.8147335 0.0043620467 0
4.8043604 2.7132282 0.69654071 0
4.7953281 2.8146324 0.13595527 0
4.9527674 -2.3893881 0.84159338 0
4.9460793 -2.5348842 0.25425696 0
4.8269873 2.3002279 1.5375659 0
4.9350767 -2.568398 -0.080541193 0
4.7890673 2.806042 0.38939396 0
4.8087301 2.612026 1.0096073 0
4.9531875 -2.5372124 0.00370574 0
4.9451151 -2.5343289 -0.30749971 0
4.952661 -2.0203128 1.5378244 0
4.9479761 -2.534543 0.26689833 0
4.8062763 2.7175817 0.70367324 0
4.9523854 -2.1879385 1.291482 0
4.7983675 2.8195004 -0.09117499 0
4.7881179 2.8104002 0.39767462 0
4.9518251 -2.5381923 0.14288814 0
4.9469147 -2.286824 1.1357322 0
4.940083 -2.4726396 0.69364142 0
4.7877769 2.7566268 0.69787526 0
4.7910972 2.8147073 0.36551565 0
4.9330282 -2.5800164 0.14263107 0
4.9405141 -2.3745589 0.99276257 0
4.7954149 2.8178067 -0.3128984 0
4.8171611 2.6446557 0.91389406 0
4.9600658 -2.4391699 0.69548666 0
4.9360437 -2.5284307 0.52762055 0
4.8006401 2.7655842 0.58766091 0
4.9267311 -2.5762696 0.36521649 0
4.9416084 -2.4803617 0.6959278 0
4.7713575 2.8570309 0.36567229 0
4.8011694 2.8180609 0.2661742 0
4.7851343 2.8086493 0.52750075 0
4.800251 2.822226 -0.25330836 0
4.8009477 2.8232338 0.2296413 0
4.8003478 2.6354251 1.0410662 0
4.9398456 -2.5840726 0.030103892 0
4.9425688 -2.5780127 0.075297505 0
4.8017387 2.8223462 0.2536557 0
4.9576159 -2.3373227 1.0237334 0
4.9479065 -1.8546654 1.7813852 0
4.8073835 2.8263979 0.028185636 0
4.9411469 -2.5848467 -0.082880557 0
4.9359102 -2.5290289 0.58656621 0
4.9456501 -2.4795761 -0.70551157 0
4.8050747 2.8247406 -0.19948727 0
4.8146324 2.4138319 1.452376 0
4.8024149 2.4599812 1.4167477 0
4.9364829 -2.5702024 0.38759786 0
4.941843 -2.532445 -0.54008514 0
4.9397974 -2.4282601 0.91596472 0
4.7855892 2.8675587 0.14071889 0
4.9508343 -2.3592453 1.0414402 0
4.8108625 2.2925441 1.6619804 0
4.9435086 -2.5862522 -0.1971398 0
4.7994585 2.8210795 -0.41632497 0
4.803328 2.7134433 0.86199147 0
4.9461999 -2.3315933 1.1349956 0
4.9462357 -2.5827181 -0.24020684 0
4.8008909 2.8217378 -0.43132508 0
4.7909884 2.8715529 0.027018189 0
4.8065901 2.6078546 1.1389244 0
4.9399548 -2.4794407 0.80760992 0
4.9379625 -2.014317 1.6626093 0
4.8037939 2.658963 1.0300193 0
4.9449511 -2.5871105 0.25381345 0
4.9535961 -2.539212 0.47661901 0
4.8209414 2.6701891 0.92015928 0
4.9577961 -2.5416303 -0.42673486 0
4.8444691 2.1402617 1.7836652 0
4.8151526 2.5156851 1.3129678 0
4.9411001 -2.1878626 1.4272758 0
4.9428272 -2.5783439 -0.39876723 0
4.8006129 2.7106977 0.92122877 0
4.8013082 2.822037 0.47794187 0
4.9406834 -2.473387 0.84865409 0
4.7917337 2.8721044 0.25328532 0
4.935833 -2.5693688 -0.55756813 0
4.795928 2.8752067 -0.087779611 0
4.7802877 2.863637 0.47833556 0
4.7951946 2.7617922 0.81185353 0
4.9416833 -2.2806742 1.2889259 0
4.8076296 2.6105275 1.1683131 0
4.9543896 -2.3855355 1.0281341 0
4.7978735 2.8187857 -0.58078599 0
4.9340143 -2.6341734 0.14111814 0
4.7998948 2.8217103 0.54997444 0
4.9284148 -2.6307325 -0.31429219 0
4.8007646 2.8216467 -0.5503034 0
4.9378695 -2.3713586 1.1471945 0
4.7983685 2.8199267 0.59024352 0
4.9364262 -2.5820382 -0.54554534 0
4.9328985 -2.6334879 0.25357458 0
4.9452991 -2.5873175 -0.42957324 0
4.9190011 -2.4170666 1.1390951 0
4.9429073 -2.5330577 0.69925481 0
4.9485536 -2.5348389 0.65653753 0
4.7781692 2.9071598 -0.26040459 0
4.9402161 -2.378166 1.1392453 0
4.955852 -2.1894701 1.419338 0
4.7973957 2.7051165 1.0205023 0
4.9379396 -2.636586 -0.20051038 0
4.9551029 -2.5931504 -0.31495124 0
4.9418635 -2.4293723 1.0303109 0
4.7970543 2.8760402 -0.31982267 0
4.7987194 2.816623 0.65643829 0
4.9422903 -2.6392593 0.027422398 0
4.8025761 2.880125 -0.20433378 0
4.9450102 -2.5811455 0.54431069 0
4.9485312 -2.5892406 0.47771436 0
4.7965455 2.4569745 1.5434945 0
4.7935739 2.8734655 -0.4369933 0
4.7828283 2.923476 -0.090052187 0
4.9353886 -2.6350179 0.36587647 0
4.7863131 2.9193122 0.065597251 0
4.807056 2.6391079 1.1694978 0
4.796279 2.8184268 0.70310843 0
4.8026843 2.6582365 1.1453582 0
4.7832203 2.9237747 0.1390491 0
4.9382505 -2.5303767 0.81135052 0
4.946063 -2.641578 -0.087001681 0
4.9427185 -2.5318499 0.78596854 0
4.9320354 -2.670192 -0.087443143 0
4.7851982 2.917649 0.22843349 0
4.952775 -2.3601701 1.1696746 0
4.7882032 2.9221332 -0.098098129 0
4.9346952 -2.6345921 -0.43312603 0
4.798562 2.8197815 0.71060491 0
4.934289 -2.5807664 0.70130074 0
4.7904911 2.8711853 -0.55589634 0
4.9390097 -2.5734453 0.70050102 0
4.9483337 -2.4841068 0.92263371 0
4.8049564 2.7136309 1.0372312 0
4.7829351 2.9235573 -0.32317394 0
4.9333639 -2.6719482 0.23042662 0
4.7875257 2.9270558 -0.20689082 0
4.9363613 -2.6759105 0.071426079 0
4.9358454 -2.6352987 0.47839451 0
4.7956858 2.8148425 0.78596872 0
4.780489 2.863786 0.70482171 0
4.7829189 2.9142475 -0.42705077 0
4.7876873 2.9271793 0.25276455 0
4.8006935 2.7656217 0.92728001 0
4.9496698 -2.5899179 0.59029627 0
4.9334655 -2.6883466 0.025802642 0
4.7933979 2.9315314 0.023698717 0
4.9433222 -2.4766757 1.0055852 0
4.8092518 2.507885 1.4714874 0
4.9339166 -2.5278811 0.92438787 0
4.9365125 -2.67611 -0.24857533 0
4.7855144 2.925523 0.36658776 0
4.7941918 2.8739226 0.59273046 0
4.9352608 -2.6349394 -0.5526132 0
4.7956648 2.8179858 0.81705266 0
4.9444351 -2.1844261 1.5457813 0
4.9289722 -2.6854959 -0.32002228 0
4.7842879 2.8081522 0.91510952 0
4.9357328 -2.6897848 0.13949807 0
4.8029389 2.8261154 -0.74999952 0
4.7912855 2.6965394 1.1799986 0
4.7841578 2.9244895 -0.44232821 0
4.8045588 2.6063447 1.3282888 0
4.793376 2.8122771 0.87122351 0
4.7910681 2.758919 1.0405004 0
4.9422412 -2.3551505 1.2971369 0
4.781961 2.912818 0.55339307 0
4.9462786 -2.582773 -0.72428954 0
4.9360838 -2.6755431 0.38905209 0
4.9338207 -2.7087026 -0.0051849484 0
4.7764912 2.9777391 -0.093513191 0
4.7986312 2.7093594 1.1520389 0
4.7867646 2.9264758 0.48058444 0
4.9459691 -2.533515 0.91533244 0
4.9406424 -2.6928997 0.25291064 0
4.7795658 2.9209893 0.59417975 0
4.9388218 -2.5834634 0.81567603 0
4.948473 -2.484184 1.0377266 0
4.9434028 -2.2826955 1.4469157 0
4.9425344 -2.6394095 0.59200269 0
4.9379578 -2.710974 0.12744069 0
4.9239874 -2.7376509 0.13865647 0
4.7924013 2.8156433 0.93157732 0
4.7966986 2.9348109 0.39132714 0
4.9488435 -2.0187557 1.7928162 0
4.9345999 -2.6345334 0.70474964 0
4.9497843 -2.6986992 -0.09110406 0
4.7867126 2.9264367 -0.56397629 0
4.947484 -2.6972404 -0.20688093 0
4.8262892 2.2998955 1.793101 0
4.7843761 2.9839289 0.13707232 0
4.7826023 2.9825366 -0.21165049 0
4.7863064 2.9854443 0.021303535 0
4.9438477 -2.6858065 -0.41236615 0
4.9429884 -2.6943884 0.3665379 0
4.9343987 -2.5275881 1.0442307 0
4.9392033 -2.6919868 -0.44102722 0
4.7833805 2.9831476 0.25222629 0
4.8138771 2.6428528 1.2987176 0
4.937551 -2.4781022 1.1513093 0
4.9479675 -2.3835788 1.3080637 0
4.7681398 2.9711833 -0.5673756 0
4.9345465 -2.6890323 -0.56012779 0
4.9310083 -2.7422473 0.25258535 0
4.7822609 2.9230437 0.70936465 0
4.9417276 -2.6830044 0.5484401 0
4.9381208 -2.5830462 0.9305101 0
4.9357476 -2.3520563 1.4251336 0
4.7888236 2.9987576 -0.0082466602 0
4.942256 -2.5326827 1.0419949 0
4.7775469 2.9916961 0.39173409 0
4.7943797 2.9313502 -0.59849316 0
4.9506149 -2.5883384 0.86048168 0
4.7861376 2.9853117 0.36723492 0
4.9458294 -2.6961904 0.48052859 0
4.7872977 2.9207819 0.71735585 0
4.9457555 -2.479708 1.1644939 0
4.9509177 -2.7180891 0.25862628 0
4.9341326 -2.5671868 1.015927 0
4.7723856 3.0202458 -0.27160352 0
4.7919779 3.0007331 0.12501109 0
4.9342322 -2.7443578 -0.32708019 0
4.9438515 -2.6858113 -0.57647049 0
4.9417539 -2.7492821 -0.09363994 0
4.9425659 -2.7498138 0.022220045 0
4.9367824 -2.7103286 0.52362132 0
4.9401808 -2.7482522 -0.2102856 0
4.9349914 -2.6740994 0.70727181 0
4.7831306 2.9829512 0.48224473 0
4.7861366 2.9853108 -0.45128089 0
4.7955742 2.8179209 1.049214 0
4.9434834 -2.6947021 0.59463537 0
4.7990046 2.8204217 1.0355984 0
4.7680187 3.0313263 0.367488 0
4.7799873 2.9213109 0.82478976 0
4.778657 3.0298996 0.22686091 0
4.9358869 -2.675283 -0.73976922 0
4.932425 -2.7804961 -0.095201403 0
4.9522214 -2.7188046 0.39085948 0
4.7952147 3.0027597 0.25770944 0
4.7788897 3.0401139 0.018830806 0
4.7792263 2.8051815 1.1735425 0
4.7943363 2.7008219 1.3445796 0
4.933466 -2.5802767 1.0457942 0
4.8063827 2.8829408 0.82448375 0
4.8045764 2.7683253 1.1622889 0
4.9510183 -2.1873345 1.6757073 0
4.798377 2.9949195 -0.3340354 0
4.7911663 2.9265552 -0.76764107 0
4.8180537 2.4679918 1.675823 0
4.9465342 -2.6418674 0.82150805 0
4.7741499 3.0362828 -0.33536196 0
4.77421 3.0230536 -0.44067568 0
4.7826595 2.9825814 0.59769082 0
4.7946968 2.8742959 0.93865258 0
4.9431782 -2.7502148 0.36706859 0
4.8058124 2.8207862 1.0455543 0
4.7830257 3.043458 -0.099168807 0
4.9375968 -2.5292263 1.173964 0
4.8117108 2.6416636 1.4276648 0
4.9355631 -2.6351254 0.93532312 0
4.7850809 2.9174738 0.88132906 0
4.940515 -2.748471 0.48177886 0
4.7886772 2.998666 0.52277237 0
4.9339314 -2.8007298 -0.096337974 0
4.7882299 3.044637 0.060059592 0
4.773181 3.0354993 -0.45616126 0
4.8105664 2.6145272 1.4946098 0
4.9352951 -2.7450538 -0.56842864 0
4.783989 3.0442367 0.25155357 0
4.7888064 3.0455251 -0.10713816 0
4.9420605 -2.3764303 1.4659315 0
4.9334497 -2.7438455 0.59622669 0
4.9368773 -2.8027196 0.020071477 0
4.9380155 -2.470063 1.3220955 0
4.9461212 -2.5349083 1.1608081 0
4.9428105 -2.794641 0.066234812 0
4.7899857 3.0490842 0.13471471 0
4.7825103 2.9948041 0.65461224 0
4.9471326 -2.716011 0.65459251 0
4.9352241 -2.7843082 -0.42405927 0
4.9501085 -2.698905 0.71055126 0
4.9501281 -2.7547646 -0.45099902 0
4.7818975 2.9227669 0.94232053 0
4.9378319 -2.6911166 0.8244704 0
4.7911253 3.0500052 -0.21936482 0
4.9381981 -2.6783381 0.86831838 0
4.7853055 2.9846585 0.71428919 0
4.7748547 3.0240471 -0.6114431 0
4.9442806 -2.7966437 0.22856751 0
4.9390674 -2.8041985 0.25186944 0
4.771225 3.0339179 0.59970695 0
4.780376 3.0413158 0.48403773 0
4.9444485 -2.7968724 -0.26104689 0
4.7735929 3.0358319 -0.57931226 0
4.7944832 2.8138793 1.1990268 0
4.944231 -2.8076859 0.13574062 0
4.7882171 3.0446177 0.39284545 0
4.9441757 -2.8076484 -0.21602166 0
4.9401574 -2.7121813 0.78597087 0
4.9330359 -2.8001254 -0.45351183 0
4.9388537 -2.8040543 0.36752608 0
4.9250994 -2.852253 0.018470317 0
4.802433 2.8228443 1.1702538 0
4.7831035 3.0367453 0.55884725 0
4.933712 -2.8005819 0.4829942 0
4.77987 2.980392 0.83050042 0
4.9399357 -2.5746334 1.1782656 0
4.7766924 3.100194 -0.10298586 0
4.7731876 3.0972767 0.25111213 0
4.7817383 2.9943209 0.78597105 0
4.9468741 -2.3573582 1.5562372 0
4.9452548 -2.8083768 -0.33575493 0
4.9412432 -2.5849044 1.1664474 0
4.8099656 2.4638488 1.8040323 0
4.9364138 -2.5286205 1.3038285 0
4.8048429 2.637893 1.5564463 0
4.7638903 3.0895381 0.4849726 0
4.9408989 -2.7487223 0.71291447 0
4.9368148 -2.7864749 -0.59134245 0
4.8034449 2.8807676 1.0592279 0
4.7849827 2.9173267 1.0470378 0
4.9335957 -2.7085791 0.91698992 0
4.7872124 2.8687594 1.1742034 0
4.7837601 3.1060767 0.014841139 0
4.9507246 -2.8054194 0.39102253 0
4.7760005 3.099618 -0.34344816 0
4.9314957 -2.8567073 0.25146005 0
4.7814283 3.1041358 -0.22361493 0
4.934248 -2.7443681 0.8285625 0
4.7768536 3.100328 0.36837113 0
4.7800288 3.032012 0.72512841 0
4.9370885 -2.8606019 -0.10081547 0
4.7849083 2.925061 1.0619459 0
4.9478693 -2.642688 1.056096 0
4.9430933 -2.6944544 0.94267291 0
4.7789898 3.040195 0.71793157 0
4.9365363 -2.8602173 -0.21973282 0
4.7965961 2.7039938 1.5118408 0
4.9462204 -2.7992852 0.55346715 0
4.787775 3.1094186 0.13279881 0
4.956192 -2.1896203 1.8066777 0
4.7690248 3.1421077 -0.11332485 0
4.9400463 -2.8048594 0.59966302 0
4.9390354 -2.6794453 1.0305028 0
4.9423995 -2.8064487 -0.5791229 0
4.7704453 3.1443641 0.056158394 0
4.9423814 -2.8642876 0.13414285 0
4.9339247 -2.6341186 1.1715932 0
4.798018 2.8162115 1.3054252 0
