# .PCD v0.7 - Point Cloud Data file format
VERSION 0.7
FIELDS x y z intensity
SIZE 4 4 4 4
TYPE F F F F
COUNT 1 1 1 1
WIDTH 1433
HEIGHT 1
VIEWPOINT 0 0 0 1 0 0 0
POINTS 1433
DATA ascii
4.2171602 -1.3245835 0.029429078 0
4.2235866 -1.2172595 0.46924233 0
4.1115274 1.555864 0.4683671 0
4.2196627 -0.47049186 1.2321856 0
4.0913935 1.6593893 -0.23152912 0
4.2228308 -1.3061219 0.10638738 0
4.1189461 1.275005 0.97924614 0
4.1059141 1.5970511 -0.37634373 0
4.2281575 -1.0033528 0.81933689 0
4.219573 -1.2339826 0.4833312 0
4.0852327 1.6942663 -0.051941752 0
4.2135668 -1.1603885 0.68007934 0
4.228344 -0.67683405 1.111402 0
4.1086106 1.5999584 0.36499131 0
4.2283821 -0.93221653 0.90874314 0
4.118186 1.485647 0.63868606 0
4.1062536 1.5186119 0.63832402 0
4.1080599 1.5272896 0.60518074 0
4.2298317 -1.0746589 0.73137832 0
4.0961843 1.6608367 0.2106688 0
4.1343699 1.4243847 0.68032193 0
4.1781893 0.1992994 1.4454913 0
4.2238665 -1.2893595 0.29449344 0
4.1192417 1.5217375 0.55376697 0
4.2226448 -0.96774238 0.90762794 0
4.2179856 -1.2963612 -0.34588623 0
4.2193251 -1.2527063 0.46923912 0
4.1009531 1.6658137 -0.006677866 0
4.2417908 -1.2554529 -0.155393 0
4.0996232 1.4110174 0.89238703 0
4.2294416 -1.1819488 0.55655348 0
4.2271938 -1.1459258 0.64367843 0
4.2370863 -1.1108313 0.64432216 0
4.1167769 1.4143736 0.80873311 0
4.2245398 -1.3065997 0.22169518 0
4.21766 -1.3246591 -0.2448324 0
4.0758057 1.6964457 0.3389256 0
4.1014352 1.6624231 -0.14299816 0
4.1320782 1.2815626 0.94344079 0
4.11693 1.2765211 1.014334 0
4.1160402 1.4654689 0.72192216 0
4.1163082 1.3313 0.94704688 0
4.2272191 -1.1783054 0.59712231 0
4.2301836 -1.3074341 -0.10624701 0
4.1097593 1.5554118 0.55370975 0
4.1130891 1.3785335 0.89379132 0
4.2340727 -1.2907557 -0.15467274 0
4.225934 -1.325912 -0.062355876 0
4.2214308 -0.89679164 0.99792933 0
4.2128959 -1.3601738 -0.15223801 0
4.2307501 -0.52991658 1.2012281 0
4.1052752 1.6635833 -0.053897202 0
4.2248755 -0.72578496 1.116993 0
4.0913239 1.6551294 -0.38396668 0
4.2264662 -1.3040595 0.24994731 0
4.2149487 -0.93231267 0.99631572 0
4.22153 -1.1812106 0.64344943 0
4.1049247 1.5959847 0.48631406 0
4.1183939 1.6306092 0.12234986 0
4.1319199 1.1400729 1.123894 0
4.2114277 -1.3556926 0.24869394 0
4.2179637 -1.1451976 0.73048151 0
4.0910749 1.6592932 0.38289177 0
4.101007 1.5531723 0.63860703 0
4.1370792 1.0025569 1.2323294 0
4.2170725 -1.0200404 0.9039464 0
4.2239585 -1.3256129 0.20620561 0
4.0939207 1.6580102 0.36441648 0
4.0925941 1.6966057 0.12303877 0
4.2292418 -1.2425103 -0.46244055 0
4.0999584 1.6647098 -0.25850874 0
4.2240763 -1.2893881 0.38199627 0
4.2267408 -1.0575366 0.81778765 0
4.1111469 1.448559 0.80893695 0
4.1298704 1.2071608 1.0688536 0
4.2192659 -1.3612318 0.028189659 0
4.0996685 1.6618896 0.29670048 0
4.2325954 -0.83682138 1.0213034 0
4.1219492 1.4031494 0.83651984 0
4.1264939 1.4517906 0.72472286 0
4.2229972 -1.3009107 0.36724508 0
4.1158686 1.2664192 1.0567954 0
-3.1076269 3.0052838 -0.98597705 0
4.0886955 1.7012776 0.22262836 0
4.2283382 -1.3262761 -0.15453219 0
4.2194567 -1.3631935 0.0096489191 0
4.2222643 -0.20119737 1.3405943 0
4.237638 -1.2912436 0.20544994 0
4.2171097 -0.60592431 1.2330933 0
4.2235374 -0.88466901 1.0253582 0
4.2071295 -1.2512152 0.64285302 0
4.2273512 -0.88251996 1.0147512 0
4.108901 1.6278887 0.38274801 0
4.2380075 -1.2549903 0.38183224 0
-3.1098423 -3.0062222 -0.98662174 0
4.2342706 -1.0391644 0.82046711 0
4.2091756 -1.2873495 0.55612934 0
4.216948 -1.1088483 0.82085395 0
4.0835505 1.7307791 0.1227951 0
4.214447 -0.86154521 1.088238 0
4.2182469 -1.3610625 0.20621288 0
4.2227249 -0.62292784 1.2124457 0
4.2334194 -1.3103714 -0.22799152 0
4.097187 1.6980655 -0.14449763 0
4.2190318 -1.2167687 0.64354324 0
4.2369318 -0.8607403 1.0017447 0
4.10006 1.6989785 0.0340451 0
4.1547384 1.0570681 1.1500099 0
4.141326 1.1047065 1.1547406 0
4.1079445 1.5190189 0.72431731 0
4.1200466 1.4860667 0.72484612 0
4.2296448 -0.74462336 1.1246812 0
4.105979 1.52511 0.72505844 0
4.1840096 0.33294919 1.447067 0
4.2293339 -1.3079398 0.33595872 0
4.1266589 1.3108795 0.98218989 0
4.2302504 -0.78960967 1.0934329 0
4.1173515 1.5641186 0.5663048 0
4.2278786 -1.3262064 0.29400992 0
4.2368202 -1.1253889 0.70952415 0
4.2207193 -1.2988429 -0.47080421 0
4.1097393 1.4590545 0.84032416 0
4.2131166 -1.0738208 0.90636635 0
4.2238579 -1.3673058 0.12872076 0
4.099762 1.7054256 0.10524487 0
4.0875607 1.7321169 -0.14481902 0
4.1182241 1.3444492 0.98148179 0
4.0901117 1.7329681 0.033876061 0
4.1105833 1.5918555 0.5542382 0
4.239181 -0.75312865 1.0965188 0
4.2220039 -1.3616867 -0.24753773 0
4.2191725 -1.3612163 0.29417288 0
4.1303997 1.1553319 1.1605053 0
4.0990171 1.6986473 -0.23659474 0
4.2274137 -0.8254624 1.0921242 0
4.1964102 -0.20008403 1.4476237 0
4.2046432 -1.358803 0.46924961 0
4.0910435 1.7309995 0.11392653 0
4.2240672 -1.1099916 0.81941473 0
4.217927 -1.3974924 -0.063100457 0
4.2267408 -1.2897527 0.46945059 0
4.1758013 0.46607259 1.447449 0
4.2294979 -1.3629314 -0.064168334 0
4.0917993 1.7335312 -0.055519223 0
4.114151 1.4181026 0.90394652 0
4.2178459 -1.0503461 0.92965722 0
4.1099596 1.6758063 0.24044442 0
4.2383356 -1.2188488 0.55721068 0
4.2267561 -1.1779087 0.71181631 0
4.1404891 1.226012 1.0549951 0
4.1097493 1.6281319 0.46866727 0
4.113996 1.6057644 -0.50834882 0
4.202548 0.066746123 1.4478939 0
4.1023808 1.6997162 0.20914388 0
4.2299199 -1.3630015 0.11621141 0
4.1322966 1.2420661 1.0705681 0
4.2234049 -1.3012805 0.48416436 0
4.2277427 -1.3709347 -0.11277598 0
4.1078787 1.5608745 0.67952192 0
4.22717 -1.3260992 0.38185143 0
4.0905218 1.5864158 0.72429585 0
4.2038879 -0.066765346 1.4480505 0
4.0885882 1.7281952 -0.26626658 0
4.0990028 1.6986425 0.29616356 0
4.2356429 -1.0035135 0.91025376 0
4.2363591 -1.0749861 0.82104123 0
4.1186018 1.2061431 1.1662977 0
4.2267399 -0.33601931 1.3417339 0
4.2228994 -0.93969578 1.0316815 0
4.2252674 -1.3686221 -0.23449636 0
4.2282662 -1.0389495 0.90901756 0
4.1497946 0.99533325 1.2548296 0
4.1030955 1.626225 0.55434394 0
4.1250534 1.2758405 1.0698059 0
4.2318792 -0.78288358 1.1257823 0
4.2197075 -1.3634279 -0.35666776 0
4.2102861 -1.4326695 0.11706161 0
4.1053658 1.5904408 0.63980651 0
4.0959635 1.7366178 -0.012770414 0
4.1104689 1.4484162 0.89590013 0
-3.0671134 -3.0698295 -0.98287272 0
4.2289591 -1.307835 0.45033455 0
4.0972161 1.5159297 0.84427142 0
4.1148982 1.3788607 0.98208308 0
4.2266912 -0.96777135 0.99902678 0
4.2217007 -1.3981748 -0.15574026 0
4.2330098 -1.2543793 0.55714619 0
4.1080456 1.599349 0.60793054 0
4.1063371 1.5545361 0.72517645 0
4.2221546 -1.1625253 0.79186809 0
4.2152219 -1.3970032 0.2940563 0
4.1538563 0.86865294 1.3413875 0
4.2239218 -1.3985764 0.11619055 0
4.2173033 -1.2319803 0.71429586 0
4.1452875 0.73120058 1.4479022 0
4.1027632 1.6628244 0.46872127 0
4.0855608 1.7247379 -0.39509737 0
4.0969114 1.7377005 -0.14012748 0
4.0879021 1.7274117 0.36358058 0
4.102437 1.4820946 0.89576936 0
4.2304382 -1.1820419 0.73239565 0
4.2155046 -1.3243327 0.55673409 0
4.0949984 1.7345985 -0.23855412 0
4.1189022 1.4001355 0.95495319 0
4.2214799 -1.3981348 -0.2490685 0
4.1016808 1.6666205 0.48718572 0
4.2161155 -1.1807054 0.81903994 0
4.2456875 -0.5877158 1.2126675 0
4.2192464 -1.2975059 0.60094166 0
4.1422806 1.0466993 1.2620022 0
4.0797033 1.697907 0.56562531 0
4.1214437 1.3100898 1.0701575 0
4.0861645 1.7690959 -0.14727396 0
4.2389493 -1.0090182 0.92819285 0
4.2246451 -1.368041 0.36643016 0
4.171114 0.5999527 1.4486973 0
4.2355757 -1.2480965 0.59985256 0
4.215898 -1.3598692 0.48476076 0
4.093256 1.7029868 0.45092809 0
4.1123905 1.3434802 1.0691643 0
4.0969048 1.7376928 0.23847401 0
4.2310867 -1.3998722 0.025298834 0
4.224493 -0.47097853 1.3426085 0
4.2324591 -0.6795277 1.2228541 0
4.079751 1.7964377 -0.017030239 0
4.2272625 -1.36256 0.38175011 0
4.0868306 1.585415 0.81026447 0
4.1033416 1.7000215 0.38247681 0
4.2304077 -1.3265895 0.46960568 0
4.0902467 1.7705233 0.12043941 0
4.1122713 1.5200601 0.81160271 0
4.2285795 -1.3994188 0.20474863 0
4.102335 1.6260071 0.64038682 0
4.1327353 1.0016077 1.3419318 0
4.2218924 -1.4349406 0.025702477 0
4.2210627 -0.9949773 1.0379739 0
4.2272911 -1.2176588 0.73244858 0
4.2231812 -0.93225378 1.0901713 0
4.1256933 1.4873402 0.81249666 0
4.1031537 1.7373195 0.20806074 0
4.2223272 -1.4332259 0.12485075 0
4.0986552 1.7358186 0.29557741 0
4.093668 1.7717195 -0.058262706 0
4.2200012 -1.3637028 -0.48243594 0
4.2256289 -0.882195 1.1255953 0
4.1039295 1.559522 0.79189253 0
4.106987 1.4158767 1.0150309 0
4.0896902 1.7703285 0.20824182 0
4.2220726 -1.289114 0.64457548 0
4.1153274 1.41409 0.98368502 0
4.2279186 -1.3075441 0.56424451 0
4.1208668 1.3356826 1.066762 0
4.1044436 1.6696858 -0.51926231 0
4.132865 1.1403083 1.2342353 0
4.212553 -1.3601167 0.55687535 0
4.0805197 1.8048525 -0.058025122 0
4.2233009 -0.88449389 1.1378543 0
4.1055846 1.4473878 0.98301077 0
4.2186737 -0.7736879 1.2339144 0
4.135107 1.0993779 1.2696414 0
4.2214937 -1.3981373 0.38174319 0
4.2236357 -1.4352816 -0.1577642 0
4.0966482 1.7727613 0.030858755 0
4.1054425 1.6636338 0.55501556 0
4.2261171 -1.0220172 1.0153718 0
4.0964642 1.7350876 0.38240135 0
4.2366061 -0.83970016 1.1342461 0
-3.0825491 3.0766315 -0.98739254 0
4.2223597 -1.4332569 0.24548185 0
4.1729689 0.33215597 1.5554421 0
4.2308559 -0.72982353 1.229959 0
4.069355 1.8007689 0.38246965 0
4.2227812 -1.1137037 0.93662596 0
4.0944824 1.6972058 0.55498779 0
4.2386231 -1.1468273 0.82213151 0
4.2122641 -0.33497927 1.4503794 0
4.2279787 -1.438659 -0.12018174 0
4.2258301 -1.435711 0.20439768 0
4.0850115 1.6574612 0.72604883 0
4.2242141 -1.43504 -0.24322867 0
4.2312136 -1.1104524 0.91028595 0
4.2214966 -1.4348631 0.29336607 0
4.2207527 -1.2169541 0.82034492 0
4.2297554 -1.0390028 1.000087 0
4.2246656 -1.4354832 -0.25175881 0
4.218564 -1.4296076 0.36576796 0
4.2300682 -0.74469078 1.235379 0
4.2314734 -1.4368151 -0.067102194 0
4.1313238 1.2805444 1.1255391 0
4.215848 -1.4337578 0.38172495 0
4.2203054 -1.305416 0.67805183 0
4.2219968 -1.074266 0.99864697 0
4.2199478 -1.4714683 -0.066247284 0
4.1258111 1.1512845 1.2768867 0
4.2306213 -1.1812205 0.82787025 0
4.1070633 1.7012044 0.46899128 0
4.2140951 -1.4702361 -0.25083655 0
4.1902761 0.066570066 1.556267 0
4.1096115 1.6010375 0.7301141 0
4.0872154 1.8052125 -0.14721906 0
4.2406821 -0.89637828 1.0949979 0
4.231832 -1.4423637 0.0018590689 0
4.0971646 1.7729419 -0.24242491 0
4.0943379 1.7719536 0.29517937 0
4.0927334 1.7329288 0.48794734 0
4.1033316 1.6684525 0.61043668 0
4.0941896 1.4449885 1.0694034 0
4.2199349 -0.93743676 1.1445723 0
4.2215543 -1.3981483 0.4696579 0
4.0837803 1.8011737 -0.27639502 0
4.2258606 -1.1458206 0.90973961 0
4.0952797 1.7346925 0.46897674 0
4.2245579 -1.4524064 0.21589351 0
4.2287054 -1.4536951 0.098597288 0
4.2203159 -1.0523424 1.0448084 0
4.2293377 -0.96779025 1.091821 0
4.2151804 -1.4704647 0.29331911 0
4.1148753 1.5567205 0.81340182 0
4.1037445 1.6631207 0.64142203 0
4.0746574 1.8457197 0.10068488 0
4.1190481 1.3796111 1.0725768 0
4.0900955 1.8083551 -0.1511811 0
4.1435728 0.86671263 1.4504192 0
4.1246147 1.27459 1.1780238 0
4.2201834 -1.4510475 0.33225107 0
4.222826 -1.0032383 1.0902123 0
4.0968895 1.587322 0.85062826 0
4.0915203 1.8102727 0.10864878 0
4.0844002 1.7684791 0.4689877 0
4.2163458 -1.1689887 0.94149709 0
4.2264729 -1.4728423 0.023796678 0
4.233541 -1.2544442 0.73372698 0
4.2203226 -1.3640029 0.60334396 0
4.2222509 -1.4719534 0.20407343 0
4.0928998 1.7331192 -0.52991515 0
4.1150212 1.3962958 1.0741749 0
4.2235088 -1.2893105 0.73305535 0
4.2258029 -1.4727013 0.11421609 0
4.09307 1.8094431 0.11850357 0
4.2457938 -1.0037315 1.0035553 0
4.1078725 1.4833207 0.98529434 0
4.1187248 1.4682021 0.96257019 0
4.2274485 -1.3261414 0.64550316 0
4.2283916 -1.1640773 0.90394771 0
4.2159886 -1.5077069 -0.066996098 0
4.1080341 1.6276404 0.72772682 0
4.0869827 1.8072165 0.29491997 0
4.1944637 0.20000023 1.5573938 0
4.2233849 -1.2373445 0.83172107 0
4.2290726 -0.60747743 1.3444934 0
4.0787015 1.7664866 0.55535245 0
4.0820656 1.8435708 -0.06094259 0
4.0985222 1.5167513 0.98494399 0
4.096447 1.772691 0.38218939 0
4.1168022 1.5211504 0.90021229 0
4.2151222 -1.0196142 1.1263933 0
4.0985289 1.81144 0.0285151 0
4.0664382 1.861342 -0.28319174 0
4.1150789 1.4140414 1.0732381 0
4.2187614 -1.4297979 -0.49437743 0
4.0950212 1.8101568 0.20662916 0
4.2286949 -1.439348 -0.37023091 0
4.2189198 -1.32485 0.73312008 0
4.0943632 1.5874574 0.89918101 0
4.2209454 -1.5088248 0.023437858 0
4.0829554 1.8439108 -0.15251207 0
4.221981 -1.5021136 0.12066436 0
4.1608763 0.59862351 1.5575068 0
4.1777868 0.46627265 1.5577381 0
4.2233057 -1.0387719 1.0906134 0
4.2265162 -0.83245736 1.2447217 0
-3.044035 -3.1420105 -0.98515773 0
4.085463 1.8031523 -0.40878773 0
4.095439 1.8103096 -0.24536163 0
4.0883856 1.8065875 0.3625288 0
4.2218142 -1.5090209 0.1137445 0
4.2326527 -1.4741435 -0.16159004 0
4.2130613 -1.4332126 0.55758345 0
4.0831385 1.8439806 0.20656645 0
4.0956721 1.4805689 1.0718226 0
4.2097025 -1.5435065 0.11423159 0
4.212369 -1.1600903 1.0157919 0
4.1190634 1.2771175 1.2357461 0
4.0924969 1.7326589 0.61257517 0
4.105485 1.41541 1.126163 0
4.0958714 1.8153875 0.2354269 0
4.1006765 1.6655064 0.73374939 0
4.0994763 1.7360926 0.55586779 0
4.0896072 1.6956565 0.72797632 0
4.2310224 -1.3081958 0.71963692 0
4.2190809 -0.47043324 1.4525354 0
4.2069368 -0.066809081 1.5586095 0
4.216011 -1.507712 0.29286063 0
4.2228231 -1.5092485 -0.16109955 0
4.2152205 -1.3970029 0.64546359 0
4.2227964 -0.88166064 1.2365193 0
4.2226791 -1.4518228 0.44709325 0
4.2140646 -1.4702296 0.46977115 0
4.2318983 -1.1104966 1.0014079 0
4.0771599 1.8743176 0.10516214 0
4.2264304 -1.5065153 -0.12751019 0
4.2206821 -1.2889237 0.82171726 0
4.2273922 -1.4360166 0.46988022 0
4.1108522 1.561893 0.90394771 0
4.2220182 -1.3058947 0.79101992 0
4.2232261 -1.503345 -0.25236148 0
4.2246828 -1.1457276 1.0003276 0
4.1146049 1.5566514 0.90146017 0
4.1062026 1.7009308 0.64260685 0
4.230423 -1.3997521 0.55815315 0
4.2241163 -0.99737412 1.1538024 0
4.2271986 -1.4379094 0.48584104 0
4.0872889 1.8455664 -0.24662471 0
4.236001 -1.1825608 0.91231608 0
4.0939269 1.8481028 0.027164102 0
4.2303762 -1.5104189 -0.0038473606 0
4.2265725 -1.4728633 0.38140559 0
4.0876446 1.8510175 0.21509719 0
4.0934501 1.8479207 0.1168052 0
4.0710745 1.8777621 0.29437912 0
4.0625243 1.9130431 -0.15403992 0
4.1115808 1.5309789 0.96892631 0
4.0947599 1.734519 0.64256501 0
4.2269592 -1.5101814 0.20295835 0
4.223567 -0.88469094 1.252326 0
4.0819979 1.8487139 0.33176637 0
4.1048613 1.3862445 1.1926031 0
4.0797472 1.8812188 0.11688602 0
4.122992 1.3377256 1.1877787 0
4.081233 1.8818111 -0.063494563 0
4.0872803 1.8052881 0.4888413 0
-3.0539942 3.1465702 -0.98809266 0
4.2177052 -1.1095812 1.0900645 0
4.082901 1.7679551 0.64252889 0
4.1102014 1.6282613 0.81565285 0
4.2265887 -1.0744963 1.091903 0
4.2376347 -1.2549448 0.82368886 0
4.2185507 -1.5456357 -0.16204584 0
4.2267947 -1.5101442 -0.25643945 0
4.2208805 -1.2528963 0.91085839 0
-2.9982228 -3.2036734 -0.98101926 0
4.2213035 -1.5462983 -0.069705129 0
4.2250977 -0.74389982 1.3459477 0
4.0899992 1.80832 0.46931398 0
4.2187891 -1.5083385 0.38140643 0
4.1317773 1.2181036 1.2900174 0
4.0771875 1.8801986 -0.24747741 0
4.1123505 1.4617124 1.0828161 0
4.0920954 1.6559851 0.85645318 0
4.0839977 1.8443089 0.38196409 0
4.0902843 1.8467109 0.29403293 0
4.084518 1.8832221 -0.025572002 0
4.2202263 -1.4510609 0.56192076 0
4.2299995 -1.5100467 0.24238527 0
4.21416 -0.20084837 1.5601654 0
4.2277656 -1.1178522 1.0540042 0
4.2152328 -1.4704757 0.55808365 0
4.2341585 -1.2183987 0.91265643 0
4.2251554 -1.5472252 0.021407843 0
4.086195 1.8837889 0.026249766 0
4.0839434 1.8828915 -0.1559968 0
4.21771 -0.93574089 1.2592845 0
4.2256508 -1.3622923 0.73465705 0
4.2193003 -1.5458161 -0.25665343 0
4.1581192 0.73324227 1.5598292 0
4.1407528 1.1422708 1.3456502 0
4.225358 -1.5054541 -0.38033533 0
4.100358 1.5171931 1.075273 0
4.2271624 -1.5072391 0.36471438 0
4.2277336 -1.3052104 0.83767557 0
4.1107807 1.7095557 0.67705822 0
4.0744762 1.9180064 -0.064929724 0
4.1021605 1.6259571 0.90265119 0
4.2250004 -1.2387693 0.94978297 0
4.09758 1.5883297 0.98882949 0
4.2187977 -1.1710896 1.0593495 0
4.172348 0.3321113 1.6657293 0
4.2181129 -1.4982865 -0.50706625 0
4.2206426 -1.2169423 1.0009265 0
4.072319 1.8447657 0.5623647 0
4.0883551 1.8878658 -0.15736687 0
4.2173004 -1.568557 0.24068284 0
4.0898027 1.8082483 0.55663741 0
4.2274542 -1.3261423 0.82361984 0
4.1078091 1.6643488 0.81690323 0
4.1126447 1.5561497 0.99029982 0
4.2175207 -1.3609419 0.8229301 0
4.0814166 1.7300671 0.81607211 0
4.0953918 1.697495 0.81657898 0
4.2206135 -1.5837728 -0.071330011 0
4.2476697 -1.3659496 0.64779639 0
4.1033392 1.5942755 0.97533309 0
4.2186303 -1.5456549 0.38126135 0
4.220335 -1.3054242 0.90394843 0
4.0910072 1.885707 0.20459771 0
4.2229233 -1.1455889 1.092149 0
4.2142801 -1.470275 0.64661384 0
4.0948367 1.6604295 0.9031775 0
4.0885344 1.8513806 0.44629085 0
4.2268353 -1.5476294 0.29183328 0
4.0848265 1.7686282 0.73025548 0
4.2171545 -1.5982968 0.093024969 0
-3.0120554 3.2102478 -0.98512292 0
4.2152615 -1.3242959 0.91165757 0
4.0972443 1.7380805 0.73829687 0
4.0806541 1.9205717 0.11496162 0
4.2192669 -0.33548239 1.5619678 0
4.2135677 -1.4937901 0.60780323 0
4.2228532 -1.5843457 0.11145639 0
4.2327757 -1.549059 0.20169067 0
4.226016 -1.3989551 0.73547065 0
4.0903654 1.8902984 0.23260379 0
4.2275181 -0.60727561 1.455348 0
4.1278296 1.2775934 1.3000376 0
4.2286243 -1.4362576 0.64725137 0
4.211936 -1.6193371 0.020605206 0
4.0889807 1.8072875 0.61541569 0
4.0983801 1.5525005 1.077038 0
4.2182574 -1.5831699 -0.25879371 0
4.2084203 -1.2872461 1.0000951 0
4.2281065 -1.5795586 -0.0096642971 0
4.1527176 1.005975 1.454716 0
4.0960484 1.8155954 -0.54719657 0
4.2364531 -1.3790722 0.72418714 0
4.2304983 -1.0605741 1.1640463 0
4.2237501 -1.5845752 -0.16537684 0
4.2285542 -1.2900007 0.91326427 0
4.102181 1.736995 0.73101628 0
4.2276154 -1.5790586 0.11554766 0
4.0866041 1.8070782 0.6439867 0
4.2343388 -1.4447734 0.60678899 0
4.086565 1.8856995 0.36149096 0
4.2210674 -1.0209135 1.2383444 0
4.1543083 0.59777093 1.6671574 0
4.1711445 0.46560341 1.667419 0
4.0866785 1.8839815 0.38166869 0
4.2288885 -1.5089474 0.48672795 0
4.2203469 -1.5086899 0.55877221 0
4.2198763 -1.5835841 0.29173326 0
4.2154274 -1.6202836 -0.072163343 0
4.2291832 -1.5859652 0.019310355 0
4.2292471 -1.5807195 -0.1361506 0
4.2123508 -0.4697552 1.5626221 0
4.1493025 0.8677938 1.5618486 0
4.2242355 -1.4523064 0.67594099 0
4.0877733 1.9235282 0.023645997 0
4.2100215 -1.6188178 -0.25909334 0
4.2261171 -1.5851808 0.20149469 0
4.2429943 -1.1832134 1.0052822 0
4.0910654 1.5865633 1.0774684 0
4.2170916 -1.3973413 0.82384849 0
4.0739822 1.9541359 -0.031506896 0
4.222991 -1.4338644 0.72662973 0
4.2210684 -0.99498147 1.2697084 0
4.108037 1.7085276 0.7906332 0
4.0801077 1.9203448 0.2930994 0
4.0806866 1.8785849 0.48974776 0
4.0880251 1.701026 0.90394843 0
4.0858984 1.8848922 -0.42331356 0
4.1206903 1.2775722 1.3470657 0
4.2340069 -1.5117711 0.47026575 0
4.2202654 -1.1620553 1.1281374 0
4.2054443 -1.3228095 1.0005863 0
4.2277708 -1.5792167 -0.26343232 0
4.1113825 1.530771 1.092329 0
4.2096529 -1.5809686 0.47013497 0
4.2239838 -1.4353497 0.73605204 0
4.2129812 -1.5442955 0.55881989 0
4.2261782 -1.369473 0.84288037 0
4.0769081 1.9190161 0.38159621 0
4.0736866 1.9570184 -0.16037339 0
4.2183208 -1.232878 1.0671597 0
4.202817 -0.066749983 1.6688583 0
4.11973 1.5649332 1.0163918 0
4.2259455 -0.88225466 1.3482394 0
4.0754752 1.9577913 0.11376441 0
4.1255331 1.0000335 1.5622828 0
4.0942197 1.6971225 0.90517461 0
4.0869827 1.9231999 -0.25425136 0
4.0864182 1.883878 0.46972632 0
4.2257085 -1.5473583 0.47026563 0
4.2168989 -1.5681481 0.4873122 0
4.1025877 1.8514118 0.46978319 0
4.1305656 1.1397362 1.4557521 0
4.0933313 1.8478752 0.55753791 0
4.0783448 1.9595726 0.099312782 0
4.2161651 -1.6405439 -0.14151639 0
4.0803719 1.8782039 -0.55735344 0
4.2146969 -1.4493426 0.79023933 0
4.217063 -1.470861 0.7360872 0
4.2230301 -1.5843909 0.38102388 0
4.2209234 -0.74323565 1.4568577 0
4.2182798 -1.6427598 -0.014400005 0
4.232358 -1.2542996 1.0045989 0
4.2078476 0.066822156 1.6696856 0
4.0938244 1.6601237 0.99256253 0
4.2285318 -1.3059349 0.95729363 0
4.229784 -1.6026218 0.20864236 0
4.2283792 -1.1183631 1.1721299 0
4.0780487 1.9589036 0.20318866 0
4.1080742 1.6276519 0.9936018 0
4.0771208 1.87427 0.61770642 0
4.2080288 -1.656296 -0.26127636 0
4.2257924 -1.6230941 -0.16809857 0
4.2176695 -1.3046794 1.016772 0
4.2066011 0.20052285 1.6701112 0
4.0829601 1.8824997 0.55769134 0
4.0984211 1.588973 1.0988419 0
4.2144852 -1.6200281 0.38100958 0
4.2185678 -1.5698476 -0.52073544 0
4.2206564 -1.6452496 0.11181092 0
4.2287345 -1.5801978 -0.3931095 0
4.0782499 1.9589903 -0.25583792 0
4.0851188 1.9619586 0.02165854 0
4.0667567 1.9937351 -0.16232765 0
4.0787148 1.9197664 0.4698379 0
4.1036911 1.5594404 1.1281674 0
4.0965152 1.7372479 0.86427319 0
4.0695839 1.9950051 -0.069994569 0
4.1265488 1.3411453 1.3115025 0
4.1957312 -1.6909122 0.29144132 0
4.0980334 1.9277887 0.20264077 0
4.0834789 1.8493183 0.6758709 0
4.232234 -1.58376 0.36370575 0
4.2176065 -1.2524961 1.0935969 0
4.2205896 -1.4346856 0.82548714 0
4.0781026 1.9589269 0.29240739 0
4.2177501 -1.6590819 0.10965943 0
4.1166606 1.4661009 1.2075858 0
4.223587 -1.6224962 0.29102564 0
4.1234388 1.4209886 1.2388885 0
4.0748224 1.9551835 0.36067998 0
4.2377195 -1.1827211 1.0969524 0
4.2299652 -1.6026839 0.32566309 0
4.2289672 -1.2178392 1.0955601 0
-2.9771061 -3.2770345 -0.98449159 0
4.1529131 0.73241383 1.6700952 0
4.2211294 -1.6600504 0.017470598 0
4.0925617 1.8114972 0.74289179 0
4.2211571 -1.6457736 0.23763502 0
4.2150345 -1.63936 0.36321735 0
4.207159 -1.6560469 0.38096392 0
4.0802708 1.9619725 -0.30005759 0
4.2301035 -1.363032 0.91568756 0
4.223073 -1.6003236 0.44275546 0
4.2226601 -1.6604891 -0.075616777 0
4.2325878 -1.6249367 0.20006096 0
4.0946426 1.8483763 0.64591086 0
4.0688944 1.9946952 -0.25740188 0
4.2048783 -1.5423455 0.73655903 0
4.0970917 1.8109142 0.73342216 0
4.0776548 1.728812 0.99380803 0
4.2206078 -1.3979771 0.91502976 0
4.0865879 1.9698443 -0.16725844 0
4.0920949 1.9649734 -0.071644723 0
4.2376451 -1.626308 0.10838723 0
4.0705304 1.9556546 0.46995068 0
4.2218757 -1.3654537 0.96290421 0
4.1058383 1.6712337 0.98459601 0
4.2231178 -1.6606202 -0.16983092 0
4.2194662 -0.6062302 1.5658133 0
4.2223577 -1.6604023 0.20008969 0
4.0865412 1.9697862 0.22950006 0
4.0789142 1.9991965 0.02017951 0
4.0857062 1.8449619 0.73357689 0
4.0639229 1.9527991 0.55818295 0
-2.9841805 3.2805219 -0.98660493 0
4.2132854 -1.6962161 0.10889781 0
4.222456 -1.5465755 0.64878058 0
4.0951576 1.6974206 0.99540591 0
4.068326 1.9961735 0.32649875 0
4.2198477 -0.2010933 1.6722913 0
4.2250834 -1.6498871 -0.27293777 0
4.087234 1.6505914 1.106214 0
4.2195745 -1.6214081 0.47048235 0
4.1005945 1.7364656 0.90872121 0
4.0825014 1.9608278 0.38122153 0
4.2297564 -1.0599744 1.2823806 0
4.2203732 -1.4715579 0.82661593 0
4.2125607 -1.448679 0.90394938 0
4.2371531 -1.5124807 0.64935577 0
4.080574 1.9999421 0.11110449 0
4.0740094 1.9969931 0.29179919 0
4.072382 1.9171367 0.64632916 0
4.0754013 1.8794868 0.73393953 0
4.0845337 1.8020597 0.86933637 0
4.1013584 1.4505219 1.3273177 0
4.0807662 1.9625897 -0.4364751 0
4.2288733 -1.5089321 0.73158371 0
4.0944099 1.7034194 1.0169258 0
4.1090569 1.5283344 1.2166867 0
4.0857835 1.9227018 0.5586226 0
4.0845671 2.0033488 0.089056373 0
4.2207088 -1.6984589 -0.077337027 0
4.0711718 1.9506345 -0.57084626 0
4.2247744 -1.3025239 1.077122 0
4.121912 1.4031131 1.3222065 0
4.0720654 1.9961197 0.38113987 0
4.2326012 -1.1829174 1.1824908 0
4.2209072 -1.4347478 0.91640937 0
4.1770296 0.33244771 1.7778366 0
4.0668707 2.0317128 0.22759378 0
4.2181854 -1.5831513 0.64918888 0
4.2199535 -1.6982305 -0.17158175 0
4.223196 -1.6992102 0.015405297 0
4.2262568 -1.5776753 0.6113869 0
4.0921574 1.7322712 0.99038434 0
4.1102695 1.7775236 0.8228265 0
4.0797219 1.9612885 0.49085665 0
4.2224588 -1.1134348 1.2899539 0
4.0838995 2.0030537 0.20722771 0
4.1915922 0.066588953 1.7784228 0
4.2149234 -1.6392434 -0.53341472 0
4.2343035 -1.4447401 0.84996176 0
4.2208214 -1.6984928 0.19927764 0
4.0734415 2.0370791 0.018469691 0
4.1922894 -0.066598952 1.7785542 0
4.0948153 1.8872248 0.64716077 0
4.2282104 -1.0224746 1.3510594 0
4.2258024 -1.1634331 1.240936 0
4.1131907 1.6291182 1.0862417 0
4.0742583 2.0374601 -0.074256182 0
4.0711279 1.9974111 0.44245708 0
4.2269726 -1.6518662 -0.40471339 0
4.2214861 -1.6219265 0.56026018 0
4.0995789 1.811824 0.82306182 0
4.0713673 1.9508779 0.62062931 0
4.2203703 -1.6983564 -0.26763099 0
4.2294598 -1.6025108 0.55802059 0
4.1493807 0.86780852 1.6733365 0
4.2307072 -1.3631321 1.0078063 0
4.0985746 1.7734349 0.9106729 0
4.2265854 -0.88237548 1.4602973 0
4.2193422 -1.6595383 0.47065723 0
4.0894089 2.003911 0.20069134 0
4.0751677 2.042361 -0.040094256 0
4.0746584 2.041707 0.093876362 0
4.2365761 -1.5123504 0.7395134 0
4.1033258 1.6629943 1.0862689 0
4.2218804 -1.3252982 1.0973761 0
4.0625849 1.9936367 0.55892181 0
4.2226124 -1.5092008 0.82823265 0
4.074295 2.0412405 -0.17492062 0
4.2247934 -1.2385869 1.189563 0
4.2227159 -1.7229764 -0.021946549 0
4.224472 -1.6492469 0.4884212 0
4.0860677 1.8850975 0.7474612 0
4.0742569 1.9971042 0.47030199 0
4.2122626 -1.4330564 1.0064886 0
4.128231 1.2796799 1.4596672 0
4.0848312 1.7686298 0.99834776 0
4.2227745 -1.7230394 0.10672736 0
4.2300205 -0.33625504 1.6752357 0
-2.9434905 -3.3444443 -0.98454344 0
4.2370558 -1.2911639 1.1000962 0
4.2233639 -1.7236753 -0.15188712 0
4.2416611 -1.5891576 0.56084514 0
4.0783634 2.0393753 0.20027828 0
4.2113681 -1.6956367 0.47070158 0
4.1220446 1.4205551 1.3509665 0
4.2198305 -1.6981934 0.38054395 0
4.2401733 -1.6655079 0.28958285 0
4.0649996 2.0738759 0.10899901 0
4.0723743 2.0387759 -0.31081569 0
4.2036762 -1.0171125 1.4608152 0
4.221487 -1.7216518 0.23472703 0
4.2221947 -1.5735397 0.73517537 0
-2.9460764 3.3457654 -0.98532152 0
4.0643001 2.0735371 -0.16960394 0
4.0671225 2.0749032 0.016801953 0
4.1786079 0.46635541 1.7803018 0
4.0812411 2.0407181 -0.16988391 0
4.2194242 -1.5834684 0.73950899 0
4.0766325 2.0385678 0.29076719 0
4.0783429 2.0393658 -0.26468688 0
4.206171 -1.4685675 1.006742 0
4.1363363 1.1411719 1.5682769 0
4.2213726 -1.6218957 0.6503222 0
4.0993156 1.6987419 1.0880785 0
4.222229 -1.7224519 -0.28283036 0
4.0800943 1.8428175 0.91193223 0
4.2029324 0.20036487 1.7812819 0
4.2223248 -1.7378359 -0.17481178 0
4.209527 -1.7087576 0.48899889 0
4.2267952 -1.4729102 0.91900742 0
4.2301025 -1.3081546 1.1303198 0
4.0701017 2.0763457 -0.076771259 0
4.0863338 2.0430939 0.10825562 0
4.0776711 1.9587402 0.64817524 0
4.2276058 -1.4383004 0.97149968 0
4.0971937 1.8493509 0.82478964 0
4.2264962 -1.7391617 0.013032556 0
4.2222047 -1.36172 1.0989921 0
4.2289381 -1.5089962 0.85499883 0
4.2193995 -1.7369063 -0.2704407 0
4.2282963 -0.74440879 1.5698197 0
4.0543823 2.1098509 0.10821521 0
4.0558529 2.110589 0.015903831 0
4.2248039 -1.7386239 0.19790542 0
4.2282639 -1.7397234 0.10555959 0
4.1358595 1.0022904 1.6755691 0
4.2208595 -1.7373703 0.28946257 0
4.2123108 -1.160076 1.3525376 0
4.2354183 -1.4006555 1.0103586 0
4.0763521 1.9980454 0.5597353 0
4.0851474 1.9224377 0.73703563 0
4.105073 1.8581271 0.78942978 0
4.2300243 -1.740283 -0.081473529 0
4.1070609 1.5982876 1.228133 0
4.215394 -1.7487688 0.32150304 0
4.2251868 -1.5472327 0.8299973 0
4.0774493 2.0452888 0.3594178 0
4.1173754 1.5641268 1.2415941 0
4.0864983 1.8505499 0.90394986 0
4.0801973 1.8779929 0.87613893 0
4.2271733 -1.6617825 0.56110835 0
4.2241068 -1.7244763 0.36202681 0
4.0932789 1.7340249 1.0894685 0
4.2290792 -1.3721836 1.0869102 0
4.2221746 -1.5091022 0.91962862 0
4.1030884 1.5220816 1.3414154 0
4.2252016 -1.6500113 0.61407197 0
4.0866737 1.8045754 0.99848652 0
4.2205343 -1.4511564 1.0178022 0
4.0689192 1.9947064 0.64874339 0
4.2225304 -1.3004868 1.1987033 0
4.0729804 2.0368638 0.47057068 0
4.0962143 1.7040958 1.1301155 0
4.2249861 -1.7523643 0.20217359 0
4.0897913 1.8852222 0.82576323 0
4.2128305 -1.7739125 -0.27183807 0
4.175374 0.60050583 1.7825911 0
4.0619011 2.1136246 -0.07854557 0
4.0600615 2.1127012 -0.17272413 0
4.2193556 -1.5990504 0.78905582 0
4.2176933 -1.5830257 0.83021116 0
4.2181773 -1.7756966 0.19745219 0
4.106009 1.8141758 0.91470075 0
4.2367201 -0.47221047 1.6782548 0
4.0777626 2.0800543 0.19879794 0
4.2244787 -1.7248769 -0.41659492 0
4.076376 1.9581807 0.73775601 0
4.2229362 -1.7772844 -0.082390904 0
4.0922465 1.732373 1.1187458 0
4.0783954 1.9196337 0.82614565 0
4.0847368 2.0423491 0.38060284 0
4.2142553 -0.88004905 1.5711417 0
4.0758114 2.0791099 -0.26864588 0
4.2105198 -1.7873828 -0.29060942 0
4.2178736 -0.2010083 1.7840996 0
4.220932 -1.6985261 0.56133831 0
4.075983 2.0791929 0.28988385 0
4.2334127 -1.1836123 1.3043294 0
4.0706797 2.0357904 0.56028855 0
4.2176256 -1.6420743 0.739205 0
4.0626678 2.1158311 0.22423124 0
4.2173805 -1.7949951 -0.15958434 0
4.2267599 -1.7392454 0.38021636 0
4.2196875 -1.7975547 -0.028453827 0
4.2246804 -1.7778664 -0.17819113 0
4.0667953 2.1212871 -0.047154903 0
4.1619225 0.73384744 1.7836742 0
4.0945587 1.8099877 1.0036781 0
4.218359 -1.7182791 -0.54946923 0
4.0831728 1.8825843 0.91530037 0
4.0733452 2.0779157 0.38051593 0
4.0799055 1.9615176 0.75230527 0
4.2274303 -0.60726416 1.6792803 0
4.2393494 -1.7577482 0.080744743 0
4.2463827 -1.6083061 0.67270637 0
4.2246919 -1.576082 0.86046588 0
-2.9093418 -3.4115953 -0.98472548 0
4.221797 -1.3058331 1.2432096 0
4.0921049 1.7711728 1.0923886 0
4.2136068 -1.7350655 0.56153858 0
4.2299008 -1.662564 0.65199661 0
4.0780916 2.0004878 0.6733501 0
4.2157669 -1.6203758 0.83142328 0
4.2324123 -1.4001119 1.1034453 0
4.2312593 -1.6245763 0.74220026 0
-4.3648214 -1.037446 -0.98463643 0
4.225358 -1.7780923 0.28857744 0
4.0705886 2.0765812 0.47083056 0
4.0734687 2.0401804 -0.59004855 0
4.0641537 2.1177955 -0.32202584 0
4.2352514 -1.7813933 0.0096424818 0
4.2343988 -1.7811086 0.10326958 0
4.2252221 -1.4360089 1.0949004 0
4.2206383 -1.5087557 1.0119822 0
4.227458 -1.5477793 0.92233551 0
4.0700569 2.1255987 -0.18510967 0
4.0827579 2.0521019 0.4921329 0
4.0591412 2.1540349 -0.081641436 0
4.2260704 -1.7527707 0.43768895 0
4.2216907 -1.7768688 0.38009703 0
4.119463 1.419753 1.4633193 0
4.0883026 1.8459538 1.0052335 0
4.2146635 -1.5974438 0.90395081 0
4.2271667 -1.24068 1.3130989 0
4.216898 -1.7944591 0.36121011 0
4.0732346 2.1297994 0.087839127 0
4.0711398 2.1182613 -0.27216166 0
4.0868897 2.0574038 -0.45452201 0
4.2226815 -1.6990547 0.65229225 0
4.2240267 -1.8172965 0.0094865561 0
4.0672979 1.9957191 0.78898752 0
4.0598087 2.154382 -0.17705017 0
4.2311721 -1.7406478 0.47126436 0
4.224802 -1.6611029 0.74264121 0
4.2322888 -1.512311 0.98021531 0
4.2216873 -1.8164785 0.19600809 0
4.0773649 2.1213856 0.19723022 0
4.0736122 2.0371585 0.6506629 0
-2.918808 3.4166036 -0.98759496 0
4.0669727 2.1215219 0.35847366 0
4.2177305 -1.4710015 1.1032319 0
4.0797911 1.9596565 0.82882214 0
4.0630913 2.1506455 0.20123136 0
4.0801992 1.920383 0.91753423 0
4.213191 -1.6961875 0.74248993 0
4.0651922 2.157181 0.011229277 0
4.2303381 -1.8093717 0.10070634 0
4.0755568 2.1204779 0.28894722 0
4.089632 1.8518281 1.0180826 0
4.213522 -1.8535013 -0.085553408 0
4.2231684 -1.5844264 0.92324257 0
4.2163291 -1.2948575 1.3206153 0
4.1065845 1.6720619 1.2406292 0
4.077446 2.0452845 0.62470782 0
4.1537981 0.86864197 1.7865167 0
4.2206106 -1.4511801 1.1317823 0
4.1334543 1.2811401 1.5729108 0
4.1139002 1.5629367 1.3543711 0
4.2144041 -1.6581231 0.83282125 0
4.2228889 -1.7515782 0.55493522 0
4.2230935 -1.7773368 0.47132862 0
4.2302647 -1.8194773 0.10222697 0
4.1033068 1.5942407 1.3555369 0
4.2306919 -1.8196267 -0.086478293 0
4.2189188 -0.4704169 1.7879353 0
4.2234354 -0.74363536 1.6818357 0
4.0826092 2.0008566 0.74056947 0
4.2137899 -1.7742329 0.56218338 0
4.095315 1.7037587 1.2434387 0
4.2280397 -1.3712125 1.2107003 0
4.2348137 -1.4374686 1.1059294 0
4.2159176 -1.8543775 0.10244238 0
4.0728698 2.1191294 0.38020527 0
4.2242918 -1.8173892 -0.27851045 0
4.2172709 -1.8548722 0.008489728 0
4.2202234 -1.7981491 -0.42841679 0
4.2329378 -0.33646467 1.7883973 0
4.0830402 1.8825314 1.0071721 0
4.0667572 2.1579947 0.1965996 0
4.0742931 2.0783749 0.56141758 0
4.0655251 2.1196077 -0.46290898 0
4.23035 -1.8195072 -0.18253767 0
4.2317381 -1.810925 0.23091149 0
4.2120867 -1.8692296 0.097851753 0
4.2159147 -1.8543763 -0.18211085 0
4.0673933 2.0323842 0.75648952 0
4.0875888 1.7270539 1.2472081 0
4.0706835 2.1600361 0.10362935 0
4.0644226 2.1181509 0.49285245 0
4.2054191 -1.7714399 0.65277112 0
-4.3816648 1.0376871 -0.98852539 0
4.0812101 1.8432441 1.0962811 0
4.218564 -1.7963078 0.49023318 0
4.2133512 -1.8534389 -0.27900338 0
4.0793958 1.9608819 0.88396883 0
4.2157297 -1.1609267 1.4660141 0
4.2176619 -1.6208895 0.92401326 0
4.0699682 2.1176732 0.471138 0
4.2164173 -1.7161856 0.74385476 0
4.067215 2.1526108 0.31898832 0
4.2294521 -1.8191934 0.287678 0
4.2232122 -1.8170116 0.37984538 0
4.0984774 1.811421 1.0976286 0
4.221683 -1.6463249 0.86640501 0
4.0624199 2.1138849 0.56168234 0
4.2096939 -0.60496151 1.7891116 0
-4.3650007 1.1249168 -0.98511147 0
4.091136 1.8098204 1.1300015 0
4.2209044 -1.8562015 0.19490218 0
4.0605583 2.1494389 0.437433 0
4.219295 -1.5084527 1.1057794 0
4.2284541 -1.5480189 1.0157974 0
4.1450977 1.1433519 1.6823251 0
4.216526 -1.3043597 1.3563595 0
4.0791597 1.9593835 0.92030549 0
4.0769005 2.038693 0.74186623 0
4.2347527 -1.7359531 0.61769521 0
4.0727644 2.0776346 0.65211606 0
4.20543 -1.8990653 0.19721985 0
4.2180958 -1.7957888 -0.56474966 0
4.2272739 -1.5787108 0.98710454 0
-2.8751478 -3.4787617 -0.98518765 0
4.0804977 1.999908 0.83149529 0
4.2181664 -1.8761728 -0.16927934 0
4.2127028 -1.8934853 0.10113037 0
4.2256308 -1.505724 1.1044188 0
4.0493803 2.1912036 0.37998867 0
4.2197533 -1.5835526 1.0158241 0
4.2224636 -1.7514189 0.67150569 0
4.0636849 2.1989031 0.0083498955 0
4.0600214 2.2051909 -0.054918408 0
4.0678406 2.1585581 0.37997031 0
4.0631065 2.0729594 0.74214268 0
4.2176862 -1.7363617 0.74447751 0
4.0610342 2.1974766 0.1954267 0
4.2314868 -1.7407478 0.65410805 0
4.0752048 2.1623871 0.28796434 0
4.062151 2.1555998 0.47131765 0
4.2131071 -1.8936398 -0.18467844 0
4.0940895 1.8948052 1.0101924 0
4.0629225 2.198493 -0.18244821 0
4.0782275 1.8806132 1.0991774 0
4.0660448 2.2001734 -0.087021828 0
4.0843334 1.849667 1.1320724 0
4.2236452 -1.4344928 1.2200136 0
4.2237749 -1.8825777 -0.036591887 0
4.0831509 1.9216087 1.010596 0
4.0662756 2.2002976 0.10179591 0
-4.375731 -1.125224 -0.98758972 0
4.0950289 1.65924 1.3668942 0
4.068131 1.9546175 1.010376 0
4.2186842 -1.5988204 1.0188296 0
4.2107849 -1.8927526 0.28727245 0
4.2174783 -1.8753872 -0.30429667 0
4.145401 1.0043757 1.7900684 0
4.0561857 2.1524985 0.56231213 0
4.0508451 2.1080754 0.74269867 0
4.0796242 2.1646848 -0.27984542 0
4.0613604 2.2070148 0.22044039 0
-2.8212104 -3.5348222 -0.97986889 0
4.2181959 -1.9042724 0.075206876 0
4.1997719 -1.8885446 0.4715991 0
4.0666275 2.1210656 0.62751269 0
4.0730228 2.0368836 0.83285689 0
4.0657959 2.2130551 0.082387567 0
4.2177134 -1.8756557 0.36014104 0
4.1195002 1.2772397 1.6838775 0
4.0638618 2.2104211 -0.19529545 0
4.2308512 -1.8598397 0.28689158 0
4.2217884 -1.7998855 0.61970949 0
4.2252774 -1.857801 0.37957168 0
4.0552206 2.2373555 0.0066008568 0
4.2238612 -1.8977488 -0.090448201 0
4.208066 -1.9323642 0.099925041 0
4.0661001 2.2002029 -0.28109294 0
4.2251005 -1.8840921 0.22827578 0
4.2216759 -1.8969139 0.19359136 0
4.2272558 -1.7004368 0.83666635 0
4.0654068 2.1517489 0.55413067 0
-4.3624787 1.2123483 -0.98525167 0
4.2251148 -0.88209796 1.6860075 0
4.2247467 -1.5471268 1.1095545 0
4.2277784 -1.8992455 0.0044693947 0
4.2133718 -1.8937409 0.37954664 0
4.0708375 2.1181095 0.6535306 0
4.0690928 2.2018137 0.28728127 0
4.1104183 1.5617443 1.4674675 0
4.2138495 -1.5820422 1.1089745 0
4.2368603 -1.0243652 1.5783041 0
4.227067 -1.8183593 0.56358945 0
4.2199497 -1.7504766 0.78785443 0
4.0930252 1.7029002 1.3569484 0
4.0696173 2.035238 0.89038539 0
4.2373796 -1.821965 0.47181642 0
4.2213545 -1.8967912 -0.28508049 0
-2.8918509 3.4879072 -0.99029016 0
4.0740099 2.1308243 -0.60940194 0
4.085371 2.0037038 0.90395153 0
4.2092438 -1.9486592 0.09275341 0
4.1251307 1.1383837 1.792094 0
4.2220879 -1.6467493 0.99427497 0
4.2042332 -1.8501036 0.65494478 0
4.2195473 -1.8157303 0.65519345 0
4.2069035 -1.8113096 0.74613428 0
4.2218351 -1.776917 0.74650407 0
4.2268848 -1.6233904 1.0197599 0
4.2051334 -1.7323723 0.9277966 0
4.0650473 2.2120359 0.35722697 0
4.0868969 1.8048377 1.2606983 0
4.2153258 -1.9352578 -0.1886493 0
4.2286568 -1.3717885 1.3370094 0
4.2215576 -1.8800454 -0.44275665 0
4.2181244 -1.8551847 0.56379819 0
4.0690289 2.0350204 0.92453444 0
4.0615439 2.2408767 0.19356418 0
4.2281857 -1.8588648 0.47188234 0
4.2339535 -1.6637255 0.92930031 0
4.0687799 2.0757055 0.83488953 0
4.2240725 -1.5754516 1.1138062 0
4.212368 -1.9340789 -0.28647012 0
4.1295347 1.4228826 1.578022 0
4.0530052 2.2361219 0.37955654 0
4.2129173 -1.9342978 0.28637671 0
4.066011 2.2433643 0.099284887 0
4.0825863 1.9213741 1.1043756 0
4.0880003 2.0032785 0.92531884 0
4.2320633 -1.4547385 1.2468472 0
4.0608921 2.206377 -0.47833222 0
4.2252645 -1.907156 0.31368268 0
4.2220688 -1.9379454 -0.092964649 0
4.212873 -1.9529257 -0.17793453 0
4.2192574 -1.659514 1.0203037 0
4.0683036 2.2446408 -0.091558039 0
4.2250156 -1.6997601 0.92961144 0
4.0715971 1.9976183 1.0190241 0
4.2115993 -1.7473466 0.90395212 0
4.061532 2.2072487 0.49406922 0
4.2287035 -1.7398632 0.83873415 0
-4.3786402 -1.2130427 -0.98898625 0
4.0688729 2.2016957 0.4717977 0
4.224823 -0.74385613 1.7956746 0
4.0686002 2.2448061 -0.18873292 0
4.2170277 -1.4281311 1.3451328 0
-2.8428693 3.547087 -0.98653817 0
4.0761137 1.9979384 1.0160956 0
4.0685701 2.1532564 0.67078555 0
4.0912442 1.7312286 1.3806417 0
4.2231455 -1.8013914 0.74975371 0
4.0656052 2.2431381 -0.28650171 0
4.0885859 1.9723337 1.0191638 0
4.0933571 1.8939192 1.1428061 0
-4.3577828 1.2996906 -0.98517871 0
4.0734186 2.2234371 -0.33956724 0
4.2109671 -1.71031 1.0003996 0
4.0528965 2.2797167 -0.18954957 0
4.226285 -1.939626 0.19185698 0
4.2122383 -1.9018422 0.55180049 0
4.2305264 -1.9413164 0.0016410351 0
4.0636425 2.1988804 0.56379426 0
4.2198906 -1.7762682 0.83919275 0
4.0778017 1.6971941 1.4692235 0
4.0591707 2.1540504 0.74617732 0
4.0707707 2.1265426 0.7632035 0
4.2150459 -1.9763794 -0.09451586 0
4.0529246 2.2917798 -0.063022614 0
4.0731659 2.1613269 0.65543222 0
4.2156868 -1.6969416 1.0219526 0
4.2333918 -1.7344859 0.87527394 0
4.2224736 -1.6221943 1.1139503 0
4.214684 -1.9762292 -0.19207716 0
-4.3639512 -1.3000442 -0.98660505 0
4.2302203 -1.8899386 0.49159014 0
4.2264757 -1.6014888 1.134217 0
4.2210884 -1.9375546 0.379143 0
4.2195215 -1.8777211 0.62268031 0
4.0597067 2.2398539 0.47197723 0
4.2253032 -1.9675379 -0.044611812 0
4.0684915 2.0347695 1.0180357 0
4.0995159 1.5580107 1.5799069 0
4.2243266 -1.883208 -0.58337057 0
4.2263269 -1.3070992 1.4715774 0
4.2204161 -1.9786096 0.096380234 0
4.0562067 2.2816226 -0.2893917 0
4.2140055 -1.9759476 -0.29110485 0
4.2072334 -1.7330397 1.0225558 0
4.216629 -1.9357773 0.47217309 0
4.111371 1.2749674 1.796159 0
4.2332802 -1.910426 0.4316994 0
4.0705433 2.1179616 0.83809936 0
4.2202497 -1.9785404 0.19106293 0
4.0624394 2.1982327 0.65611267 0
4.0564642 2.2967484 -0.20568794 0
4.0961914 1.8545039 1.2473395 0
4.2162514 -1.8145781 0.84060884 0
4.2204938 -1.6450789 1.1230457 0
4.0644369 2.2863615 0.19138288 0
4.0636387 2.2101173 -0.62477708 0
4.0606728 2.284194 0.28556621 0
4.2376881 -1.5176525 1.2357395 0
4.0801034 1.8778794 1.272613 0
4.2271662 -1.8990116 0.56504643 0
4.0576825 2.2984583 0.21667016 0
4.0635962 2.2100599 0.6311574 0
4.2299538 -1.0228556 1.6914043 0
4.0486341 2.2772627 0.47213078 0
4.0767283 2.0795536 0.92960215 0
4.2080088 -1.5951645 1.2482967 0
4.0643167 2.118011 0.89805043 0
4.0440688 2.3188455 0.28539979 0
4.2210574 -1.9788759 0.28510094 0
4.0798206 1.9614115 1.1513176 0
4.0601683 2.2401104 0.56467223 0
-4.3509607 1.3868895 -0.98490262 0
4.0701332 2.1540015 0.78739202 0
4.1177645 1.4192253 1.6902101 0
4.0830898 2.2528749 0.28535259 0
4.0722294 2.2908478 8.1896782e-05 0
4.0717311 2.290561 -0.096536219 0
4.226058 -1.9684253 -0.31907737 0
4.2240453 -1.9660592 0.35887432 0
4.0634012 2.3064854 0.075886846 0
4.0555954 2.2955291 0.35614276 0
4.2063551 -2.0306697 -0.18670732 0
4.2164817 -2.0187263 -0.0010068417 0
4.0591416 2.1964576 0.74860919 0
4.2227297 -1.7772154 0.93374848 0
4.0944386 1.9659863 1.1119633 0
4.2323322 -1.9758008 0.22438955 0
4.234437 -1.9844317 -0.0015063882 0
4.0778179 2.0457623 1.0272284 0
4.2173691 -1.8752625 0.75424981 0
4.0550299 2.2372491 0.65718341 0
4.2270551 -1.8584511 0.75041354 0
4.2171783 -1.7494379 1.0199816 0
4.0766354 2.2933846 0.095123291 0
4.2218027 -1.963423 -0.45736617 0
4.2225361 -1.97949 0.37884378 0
4.064589 2.286449 0.37894773 0
4.2149057 -1.6967055 1.1175013 0
4.2200694 -1.9613855 0.49241853 0
4.0815916 2.0003996 1.1125317 0
4.0560369 2.3259664 -0.19556934 0
4.2219238 -1.9378875 0.56553137 0
4.2196264 -1.4997842 1.3590367 0
4.2284489 -0.88272703 1.8008299 0
4.2127938 -2.0171328 -0.295111 0
4.0400467 2.3613448 0.094717264 0
4.2208662 -2.0206213 0.094316959 0
4.2464609 -1.1685733 1.5842319 0
4.0595789 2.3280737 0.094779015 0
4.0595808 2.3280747 -0.098181486 0
4.2275467 -1.8062744 0.88129497 0
4.0653782 2.3129497 0.19083548 0
4.2150149 -2.0180926 0.28459084 0
4.2235317 -1.9064493 0.66882908 0
-4.3343091 -1.4732256 -0.98263764 0
4.2226806 -2.0214052 -0.099296749 0
-2.8086262 -3.6144474 -0.98759258 0
4.0588379 2.3276329 0.1899817 0
4.0790281 2.0009015 1.1346009 0
4.2326422 -1.6633496 1.1195369 0
4.0822983 1.8488367 1.3609824 0
4.062048 2.3112442 0.31131387 0
-2.8110867 3.6158879 -0.98835659 0
4.0645223 2.3310149 -0.002078414 0
4.0443993 2.3190422 0.47243536 0
4.2165403 -2.0429955 0.086018562 0
4.0741014 2.1197476 0.93259883 0
4.2198601 -1.8558196 0.84334695 0
4.0723791 2.0365834 1.1143234 0
4.233861 -1.9015696 0.65894973 0
4.2149115 -1.3039085 1.5848022 0
4.2185292 -1.9365346 0.6588124 0
4.0585384 2.1537218 0.93290937 0
4.0464115 2.2759831 0.65819728 0
4.2340593 -1.5856187 1.2462637 0
4.0661192 2.3103004 -0.35241717 0
4.2161193 -1.9567418 0.62569892 0
-4.369782 -1.3882387 -0.989259 0
4.0597563 2.31007 0.43085599 0
4.0614066 2.3291612 -0.29702896 0
4.0490294 2.3045757 0.55042267 0
4.0587597 2.2999706 0.49535239 0
4.2206388 -2.0479553 -0.051810503 0
4.2198887 -1.9611728 -0.5984087 0
4.2140894 -2.059922 -0.10078758 0
4.078517 2.0804193 1.0246503 0
4.0567932 2.3264163 0.37871277 0
4.2461185 -1.4591055 1.363101 0
4.0777121 2.1636908 0.84240568 0
4.2279034 -1.9817188 0.47265756 0
4.0599298 2.3016124 -0.49601781 0
4.0958033 1.8153076 1.3984952 0
4.2244992 -1.8174617 0.93660307 0
4.219779 -1.1619341 1.694978 0
-2.7553825 -3.6704679 -0.98300719 0
4.0525608 2.369035 -0.0035733581 0
4.2181597 -1.7958596 1.0111685 0
4.062294 2.2851274 0.5659318 0
4.2211375 -2.0207384 0.37858534 0
4.2205286 -1.9786561 0.56626892 0
4.2124395 -1.9341073 0.7520529 0
4.2190137 -2.0621343 -0.0041463375 0
4.2186146 -2.0625699 0.064971447 0
4.0465117 2.3827019 -0.071709037 0
4.2209482 -1.7210705 1.1338639 0
4.0956917 1.5567009 1.6937761 0
4.2169333 -2.0618274 0.18678844 0
4.0446186 2.3799624 0.21356678 0
4.0671844 2.116276 1.025964 0
4.2342157 -2.0263901 -0.20074695 0
4.2220407 -2.0496521 0.22177017 0
4.0528955 2.2917395 0.63429737 0
4.2315564 -1.9006891 0.75274765 0
4.0704203 2.2193539 0.769696 0
4.0753303 1.955816 1.2858698 0
4.2359591 -2.0271435 0.18813848 0
4.226737 -1.7785525 1.0300915 0
4.2195272 -2.0623651 0.18821144 0
4.2209187 -1.7373891 1.1222677 0
4.2144232 -2.0600722 -0.30015033 0
4.2169027 -1.8547378 0.93765306 0
4.0633087 2.2418597 0.75173533 0
4.2247696 -1.9069542 0.78642416 0
4.0556583 2.3709383 -0.20086712 0
4.2191124 -1.8959343 0.84546113 0
4.2197227 -2.0201271 0.47278762 0
4.0788546 2.1581576 0.90395319 0
4.2192163 -2.0462344 0.35785604 0
-4.3552065 1.4750247 -0.98748004 0
4.0519781 2.3686767 -0.30034608 0
4.0472441 2.3657677 0.37849998 0
4.2163229 -1.9769099 0.65996492 0
4.0725079 1.998021 1.2497404 0
4.2268519 -2.0656555 0.09141469 0
4.2253313 -1.452647 1.4762824 0
4.2225933 -2.0503206 -0.33084351 0
4.0691414 2.1243887 1.0362692 0
4.0585623 2.2032037 0.90601563 0
4.2038336 -2.0979133 0.28341103 0
4.0623975 2.3750796 -0.10337806 0
4.2256203 -1.0219085 1.8055391 0
4.2261353 -2.0653336 -0.20266539 0
4.073638 2.2042603 0.84484017 0
4.0937366 1.703167 1.5860307 0
4.2136059 -2.0603571 0.42791808 0
-2.7699585 3.6792822 -0.98757136 0
4.2219133 -1.5732534 1.3734145 0
4.0530558 2.2798083 0.75293589 0
-4.3344541 -1.5609862 -0.98455334 0
4.0600958 2.3018456 -0.64413655 0
4.0600548 2.3736401 0.28319693 0
4.053381 2.3926415 -0.21784031 0
4.2234898 -1.8171089 1.0322599 0
4.0773096 2.0798352 1.1204917 0
4.0475378 2.4117858 0.090656757 0
4.0584621 2.3274093 0.56687784 0
4.048049 2.3662622 0.47291636 0
4.0652595 2.3768384 0.18727326 0
4.0812311 2.0501423 1.1650167 0
4.2088351 -2.1002469 -0.30327034 0
4.2274423 -1.8867662 0.88867533 0
4.2262144 -2.0659275 0.3063252 0
4.2278633 -2.0661099 0.28295982 0
4.0634713 2.1987882 0.93785357 0
4.2317677 -1.6568902 1.2577167 0
4.2188272 -1.9045302 0.90395403 0
4.0806065 1.8481463 1.4759612 0
4.2234216 -2.0217254 0.56728911 0
4.0511894 2.3894706 0.35484457 0
4.22188 -2.0494578 -0.47259879 0
4.2165246 -2.0610161 0.47302437 0
4.2007556 -1.9294504 0.93990469 0
4.2171307 -2.1041169 -0.20450276 0
4.2165332 -1.8949488 0.94032323 0
4.0598125 2.4019485 0.069230318 0
4.2249861 -2.0648174 0.37821364 0
4.0715208 2.1546626 1.0205498 0
4.0876827 1.8870521 1.411829 0
4.2142549 -1.8537692 1.0331028 0
4.0524902 2.2911696 0.77386785 0
4.0413918 2.407887 0.37819719 0
4.2202549 -2.1055746 0.18657982 0
4.2322178 -1.7550749 1.1368854 0
4.0535922 2.3929474 -0.3641693 0
4.2266407 -1.6015455 1.3655012 0
4.0557156 2.3257749 0.66110039 0
4.0561371 2.4172416 -0.0080978274 0
4.0552874 2.4167025 -0.10649103 0
4.0534515 2.4155378 0.18635619 0
4.2220168 -1.9379246 0.84830797 0
4.0476046 2.365989 0.56743717 0
4.2272005 -1.778707 1.1272972 0
4.0502996 2.4135385 0.28252304 0
4.2267313 -2.1085961 -0.0083212256 0
-4.3475466 1.5623024 -0.98759115 0
4.2256184 -2.0539818 0.49371934 0
4.0704908 2.2458587 0.8475672 0
4.0663013 2.3134227 0.66757596 0
4.2239709 -1.9800856 0.75549221 0
4.0560188 2.4171665 -0.20659059 0
4.2160788 -2.0608156 0.56776297 0
4.048708 2.3858795 -0.51045519 0
4.2284703 -1.9712605 0.76124263 0
4.1296864 1.4229295 1.8073587 0
4.2177763 -1.8757277 1.0205855 0
4.2294817 -2.1098795 -0.1075508 0
4.2057047 -2.1419904 -0.30731434 0
4.0755272 2.1204629 1.1248767 0
4.055016 2.4165304 -0.30782813 0
4.2213516 -2.0637791 0.54678762 0
4.0435705 2.4558668 -0.0097390413 0
4.2139215 -1.9759126 0.849388 0
4.0432324 2.4556458 0.088183641 0
4.0594816 2.154212 1.1251624 0
4.2207689 -1.8161573 1.1289103 0
4.2213902 -2.1378212 -0.060425043 0
4.079339 2.1645367 1.0335321 0
4.220089 -2.0472903 0.62946916 0
4.0618715 2.1979272 1.0335724 0
4.0657272 2.1198757 1.1739328 0
4.2177391 -1.6421931 1.3859074 0
4.2167473 -1.7492762 1.2525122 0
4.0621939 2.2412388 0.94159865 0
-2.7273192 -3.7416523 -0.98658717 0
4.2282867 -2.023828 0.66253018 0
4.0582566 2.2027872 1.0451953 0
4.224885 -1.8033214 1.1461802 0
4.2198057 -2.1358471 0.21834135 0
4.2361193 -2.1129761 0.087961197 0
4.2231693 -2.1069345 0.37793636 0
4.2238569 -1.7242067 1.2677836 0
4.218473 -2.1481714 -0.10881329 0
4.054944 2.3949034 0.49667048 0
4.04637 2.4576998 -0.10935128 0
4.223568 -2.0515001 -0.61758924 0
-4.3290315 -1.6483634 -0.98546994 0
4.2237573 -2.1407709 0.078986526 0
4.0489283 2.3668025 0.6624496 0
4.0642681 2.1512065 1.1368988 0
4.2220831 -2.1386845 -0.20154631 0
4.2217722 -2.1497686 -0.010411263 0
4.2189775 -2.1484158 0.18507171 0
4.218667 -2.1482656 -0.20919871 0
4.2216892 -1.4515153 1.5915892 0
4.0592575 2.3278825 0.75657499 0
4.0634155 2.3119445 0.78590477 0
-2.7333531 3.7454202 -0.98849332 0
-4.3342228 1.6489604 -0.98667634 0
4.2191553 -2.1350362 0.35665464 0
4.2229624 -2.0215268 0.7573632 0
4.2206311 -2.1368754 -0.34364903 0
4.078167 2.0005212 1.3661664 0
4.2136793 -2.1458509 0.37779438 0
4.2269878 -1.1637278 1.8118701 0
4.0679245 2.2883694 0.85053134 0
4.0478363 2.4586594 0.28135049 0
4.2242327 -2.1074307 0.47348404 0
