# .PCD v0.7 - Point Cloud Data file format
VERSION 0.7
FIELDS x y z intensity
SIZE 4 4 4 4
TYPE F F F F
COUNT 1 1 1 1
WIDTH 1435
HEIGHT 1
VIEWPOINT 0 0 0 1 0 0 0
POINTS 1435
DATA ascii
8.63381 4.2564378 -0.41485018 0
7.6956635 -5.7962074 -0.11345655 0
7.2061863 -6.3037176 1.081111 0
5.784791 -7.6798615 -0.6269213 0
7.4806089 -6.0330915 0.69407541 0
5.7317772 -7.7247748 0.56216365 0
7.502069 -5.9952793 0.78608418 0
7.5514812 -5.9556527 -0.59061676 0
7.6922565 -5.7999864 0.1817178 0
5.7898316 -7.6893072 0.44303709 0
5.7416487 -7.7380791 -0.11357832 0
7.5586162 -5.9623184 0.43785957 0
5.6476941 -7.8074675 0.14537644 0
8.310729 4.6031446 1.6182559 0
5.7057371 -7.764782 0.17587806 0
5.2460418 7.990067 1.2313428 0
6.0582123 -7.4117537 1.1156194 0
7.399857 -6.1008596 0.95045155 0
7.1045117 -6.3991041 1.2104032 0
7.2929726 -6.2080498 1.0786207 0
7.3328476 -6.1822209 0.95135581 0
7.5695086 -5.9491682 0.46237031 0
7.6280341 -5.8834124 -0.33245516 0
8.3914661 4.5186019 1.4424621 0
8.6364975 4.2586112 0.45431703 0
8.6439571 4.2646418 0.16491556 0
5.2730484 7.871429 1.7822542 0
7.4780822 -6.0358014 0.76876664 0
-8.7721987 3.7260768 1.4526458 0
6.1852856 -7.2922373 1.2298386 0
6.3488998 -7.1511054 1.2262497 0
7.6565356 -5.8576083 -0.14774862 0
8.4716015 4.4460664 1.1920259 0
7.1774979 -6.3234081 1.2095909 0
5.8731155 -7.6139627 0.70864868 0
7.5194731 -6.0091882 0.56200969 0
6.4876513 -6.9776549 1.4818846 0
5.7854962 -7.6811833 0.7095539 0
5.7087469 -7.7706213 -0.092436612 0
5.6181512 -7.8350739 0.17547409 0
-8.8985806 3.7033951 -0.28924739 0
5.9540772 -7.5020237 1.1190488 0
8.6168127 4.2897577 -0.57923019 0
7.6280828 -5.8834567 0.437819 0
7.3180456 -6.2004337 1.0093673 0
8.5466843 4.3696823 0.9409433 0
7.2490139 -6.2464156 1.2087235 0
5.7070379 -7.7673068 -0.36129385 0
5.9500475 -7.5289774 0.9725107 0
5.8602781 -7.6193657 0.79818934 0
5.6198997 -7.8385897 -0.093510985 0
8.3272362 4.571712 1.673058 0
8.6498699 4.2694211 -0.12540501 0
7.7012844 -5.8004413 0.33696204 0
8.1726847 4.7433653 1.94449 0
6.721705 -6.7611809 1.4765452 0
6.3411937 -7.165679 1.2318194 0
5.7066064 -7.766469 0.44355509 0
7.382431 -6.1173544 1.0767782 0
6.9261832 -6.5693631 1.4006174 0
-8.8950958 3.7025301 0.50912428 0
7.5635371 -5.9415054 -0.76303935 0
5.6517854 -7.8178396 -0.18425593 0
-3.3990195 -8.8738108 1.6733255 0
8.6155415 4.2890964 0.68904442 0
7.1211362 -6.3934183 1.2318892 0
7.7071786 -5.8048806 0.11127549 0
-8.8852921 3.7000964 -0.6889748 0
7.655499 -5.856317 0.46203008 0
6.5514617 -6.9424477 1.4166911 0
8.6800098 4.2055421 -0.32526821 0
6.8360462 -6.6657977 1.404855 0
-3.391747 -8.9095984 1.5036105 0
8.4718399 4.4297962 1.3248901 0
7.7406988 -5.7633443 -0.14670309 0
6.3545794 -7.1236935 1.424944 0
5.6184587 -7.8356915 0.44393796 0
6.2535462 -7.2124634 1.4290639 0
7.7060032 -5.8121114 -0.075519502 0
6.7234588 -6.7718482 1.4534812 0
7.4777069 -6.0303016 0.95101762 0
8.5570621 4.3467708 1.0340712 0
5.7043662 -7.7621222 -0.63127941 0
6.1086903 -7.3726425 1.2332788 0
7.5667 -5.9455643 0.7678439 0
5.7535858 -7.7106895 0.80044007 0
7.6585107 -5.8600702 -0.45423317 0
6.5727706 -6.9146132 1.4816951 0
5.5278521 -7.9146976 0.11090487 0
7.7425022 -5.7655268 0.15763983 0
6.9163551 -6.5775242 1.4536166 0
7.7036462 -5.8100319 -0.33310395 0
7.0197067 -6.479907 1.3975499 0
7.30616 -6.1903629 1.2321672 0
6.3256116 -7.1480708 1.4536477 0
7.0208759 -6.4629579 1.470314 0
6.4559793 -7.0375934 1.4213648 0
7.771451 -5.7296543 -0.075272828 0
5.5329008 -7.911818 0.17492361 0
7.6661377 -5.8695741 0.15707323 0
7.7003727 -5.7997546 0.56167173 0
6.6513543 -6.8429532 1.4800323 0
6.8769808 -6.6180716 1.4742599 0
6.1394854 -7.3523707 1.2322891 0
8.6382904 4.2600598 -0.70786572 0
6.5301147 -6.9658613 1.4538579 0
7.7103429 -5.8072639 -0.34232748 0
8.6056385 4.2839475 0.94199467 0
5.7366233 -7.7313061 0.78608483 0
8.6926384 4.2118807 -0.071401536 0
7.6291013 -5.8843813 0.69444168 0
5.8706355 -7.6094713 0.97524929 0
7.5051937 -5.9977765 1.0097342 0
6.4189382 -7.0645356 1.4868977 0
5.7050986 -7.7635431 0.71141934 0
5.9439974 -7.5482612 1.0097415 0
7.7400069 -5.762507 0.4616918 0
7.3288455 -6.1781464 1.2095203 0
8.693264 4.2121944 0.18275717 0
5.6530366 -7.8210115 0.47427773 0
7.7411098 -5.7638416 -0.45226812 0
7.6362252 -5.8908482 -0.59288073 0
8.5375195 4.3647494 1.1943302 0
7.6953053 -5.8026757 0.69417197 0
6.8064723 -6.6983457 1.477067 0
7.7070179 -5.8130059 0.43802577 0
5.5329752 -7.9220328 -0.11613214 0
7.1129146 -6.3912182 1.3947631 0
5.243526 7.9862351 1.4542568 0
5.7847657 -7.6798143 0.97707361 0
-3.3728523 -8.962244 1.3042862 0
5.5442934 -7.9149771 0.14427605 0
8.6418991 4.2629776 0.74426782 0
5.6195817 -7.8379493 -0.63488275 0
8.7246265 4.1575894 -0.11628789 0
8.3291178 4.6006126 1.6974971 0
8.2315865 4.6910253 1.9159056 0
5.945282 -7.5206318 1.2387309 0
5.6264739 -7.8518052 -0.36470503 0
6.3424478 -7.1414766 1.4901563 0
6.9562821 -6.5488844 1.4739323 0
8.7187328 4.1724181 0.16489772 0
-2.9979467 9.0685101 1.4928999 0
5.5452876 -7.9176073 -0.18712282 0
-8.5812874 -4.121377 1.6887796 0
5.539217 -7.9249849 -0.095723301 0
7.2030859 -6.2992315 1.3916547 0
8.3942146 4.519114 1.6192349 0
7.555624 -5.9595232 0.95170599 0
8.5364075 4.3726754 1.2328725 0
5.8572636 -7.6123219 1.1245055 0
7.4028578 -6.1038289 1.2094707 0
6.1588683 -7.3167648 1.4354683 0
7.4786315 -6.0365276 1.0761377 0
5.5361271 -7.9185438 0.4446066 0
-8.8897171 3.701195 0.90816879 0
5.1958694 8.1573725 0.14231442 0
7.7809138 -5.7377629 -0.33405739 0
7.6230893 -5.8789239 0.95127088 0
7.290596 -6.2047138 1.3883266 0
5.5357738 -7.9260397 0.3357276 0
8.696825 4.2139816 0.43671238 0
6.1300888 -7.3411179 1.4549721 0
8.7327156 4.1614442 0.10953629 0
8.6909513 4.2110333 -0.58293915 0
6.0351882 -7.4599109 1.2378254 0
7.7851901 -5.7414269 0.18116419 0
7.1058321 -6.400569 1.4718634 0
5.5331211 -7.9122763 -0.63842303 0
7.6603646 -5.86238 0.76746929 0
8.2477474 4.6705422 1.9502845 0
5.622508 -7.843833 0.71321797 0
8.3881416 4.5166874 1.699158 0
7.7119341 -5.8173423 -0.59378976 0
8.7203388 4.1736794 0.45453793 0
-3.3410401 -9.0824413 0.13799474 0
5.4501472 -7.9961686 0.17420697 0
-3.3326187 -9.0700665 -0.54961538 0
5.540534 -7.927731 -0.36737329 0
7.7183414 -5.8132882 -0.57212949 0
8.7228642 4.1756616 -0.41654074 0
7.8521557 -5.6600437 -0.076150328 0
5.545927 -7.9192982 0.47520462 0
5.2605944 7.9244976 1.7968626 0
8.7331753 4.1616631 0.33543661 0
5.4344215 -8.0099831 0.1433859 0
7.1792645 -6.3253131 1.4709148 0
8.7301502 4.1813807 -0.12582082 0
8.3221188 4.5689025 1.895933 0
7.1220222 -6.3942137 1.4554811 0
8.4759293 4.4484763 1.4486302 0
7.8523064 -5.6601691 0.18118432 0
7.5658422 -5.9444633 1.0743957 0
6.7186217 -6.7669764 1.6764358 0
7.6643796 -5.867383 -0.76358104 0
5.6526651 -7.8200703 0.80378163 0
5.8668165 -7.6025553 1.2427844 0
5.2318134 8.0506668 1.2580171 0
7.7425694 -5.7656078 0.76625705 0
8.7364998 4.1632471 -0.34526193 0
7.8512516 -5.6592908 -0.33432913 0
5.7391052 -7.7346511 1.0102925 0
5.9425492 -7.546422 1.2335324 0
8.6930141 4.2120686 0.69082355 0
5.5271597 -7.9137063 0.78608555 0
7.7864242 -5.7424846 0.43826419 0
6.8270717 -6.6510763 1.7196511 0
7.7110186 -5.8077726 0.78608561 0
-2.9384685 9.1845741 0.90504241 0
5.7532196 -7.7097988 1.1288489 0
7.8393221 -5.6869197 -0.14695466 0
-2.9577594 9.2226706 0.11066842 0
8.7292862 4.1598096 0.56098354 0
6.2718458 -7.2286048 1.4955165 0
-3.3450575 -9.0883446 -0.20620894 0
6.060854 -7.41747 1.441528 0
5.5374265 -7.9284067 0.56096154 0
7.7817092 -5.7384439 -0.59389955 0
-2.9388475 9.2246656 0.33509153 0
7.3072972 -6.1913266 1.4559193 0
8.6059647 4.2841172 1.197129 0
7.8406124 -5.6884365 0.15757072 0
6.6409488 -6.8389463 1.7302957 0
8.7622757 4.1299629 0.18231134 0
-2.9531589 9.2135859 0.50855386 0
5.4551659 -8.0070267 -0.097736567 0
5.7075 -7.7682028 0.98078209 0
5.4510927 -7.9982152 0.44523239 0
-8.7838154 3.7310114 1.6771408 0
8.6405621 4.2618966 1.0350099 0
7.8356709 -5.6826277 -0.45213866 0
6.4474835 -7.0216732 1.7408203 0
8.7655373 4.1315422 -0.072966665 0
6.7369728 -6.7490854 1.7256227 0
7.2558379 -6.2535644 1.4709498 0
6.1085424 -7.3724008 1.5010144 0
6.7966528 -6.6861091 1.7393235 0
6.5282702 -6.9638934 1.6773281 0
8.4686289 4.4270439 1.6185622 0
7.4848766 -6.0371943 1.210968 0
6.3266716 -7.1492691 1.6774489 0
5.4457788 -7.9867172 0.71596402 0
5.9570341 -7.5086689 1.4464607 0
5.6192589 -7.8373008 0.98268777 0
7.9190297 -5.5886459 -0.14578509 0
8.560895 4.3499603 1.3269193 0
5.7843094 -7.6789589 1.2461958 0
7.652998 -5.8532004 1.0728626 0
5.538866 -7.9242525 0.71508074 0
7.7824779 -5.7391028 0.69543386 0
7.9135981 -5.5824432 -0.44995779 0
7.9255991 -5.583919 -0.076595992 0
7.3876257 -6.1244292 1.3873211 0
7.5132351 -6.0042028 1.2341065 0
7.7514057 -5.7763019 -0.76165652 0
5.5442381 -7.9148302 0.80636722 0
-3.4015601 -8.8804436 1.8977813 0
8.7666702 4.1320901 -0.32922739 0
8.537199 4.3645773 1.4507605 0
-3.3456674 -9.089241 0.48154885 0
-2.9416838 9.2395792 0.13949215 0
-2.9413238 9.2389984 -0.20130295 0
7.3293581 -6.1786685 1.4705281 0
8.7243233 4.1768074 -0.70975876 0
5.4405384 -8.0268927 -0.1905905 0
6.9221039 -6.5829911 1.6779988 0
7.8415127 -5.6894946 0.46185356 0
-8.8143187 -4.0462456 0.10778111 0
5.4372635 -8.0178394 0.47615993 0
7.8292317 -5.6750584 -0.75826991 0
8.7413254 4.1655469 -0.57500219 0
8.5356188 4.3722711 1.4568114 0
6.5503836 -6.9404955 1.7372963 0
7.9238935 -5.5942006 0.15786614 0
6.4958482 -6.989161 1.7510318 0
5.4574165 -8.0118961 -0.37093705 0
8.7664528 4.1319852 0.43716967 0
6.6513805 -6.8429871 1.7460209 0
6.9274254 -6.5713367 1.7172848 0
-2.9363289 9.2309341 -0.54252988 0
5.1946983 8.153821 0.81206918 0
8.7249889 4.1773291 0.74487698 0
6.0296526 -7.450531 1.5051991 0
5.2020502 8.1761217 0.47743019 0
7.9093471 -5.6089292 -0.3474263 0
-2.9450943 9.2442732 0.10754383 0
5.4520564 -8.0002995 -0.64396054 0
7.8509665 -5.6590538 0.69546926 0
8.3194494 4.5948601 1.9554086 0
5.2452183 7.9888124 1.6784003 0
7.9019389 -5.6036758 0.56057829 0
6.5757093 -6.9186158 1.7490182 0
8.3200207 4.6115789 1.918089 0
6.7293234 -6.7709575 1.7441423 0
7.9155817 -5.6133504 -0.11995757 0
7.5598669 -5.9634871 1.2114259 0
6.354949 -7.1244106 1.7484232 0
7.8647394 -5.6705179 0.43849808 0
7.9168167 -5.6142263 0.10730839 0
8.7334461 4.1617918 0.7860862 0
-8.8160963 -4.0470619 0.33420041 0
7.7119207 -5.8173304 0.95346928 0
5.52809 -7.9150386 1.0108309 0
7.8344159 -5.6811523 0.76595783 0
7.9311733 -5.5884252 -0.33580315 0
5.3692598 -8.0876608 -0.099725515 0
7.0270071 -6.4699597 1.7358947 0
5.3653908 -8.0789652 0.44589818 0
6.2013097 -7.3176961 1.5013862 0
6.9550881 -6.5474806 1.7381678 0
7.923203 -5.5934119 0.46151561 0
5.8555965 -7.608427 1.4527055 0
-2.9892125 9.0548515 1.8333864 0
5.9393601 -7.5423727 1.4575037 0
7.9068222 -5.6071386 -0.57641864 0
-3.3397889 -9.0806026 0.82511818 0
8.7677937 4.1326342 -0.58714569 0
7.9301682 -5.5876126 0.43846327 0
5.7398334 -7.7356319 1.2348005 0
7.4062638 -6.1071982 1.4711071 0
7.0231347 -6.4851842 1.7139553 0
6.3424625 -7.141499 1.7584426 0
8.4660797 4.4429908 1.705282 0
7.715632 -5.8112473 1.0109442 0
7.863502 -5.669488 -0.59610945 0
-3.3925576 -8.9107533 1.8499936 0
5.3706274 -8.0907354 0.17327699 0
6.4233322 -7.0708942 1.7559406 0
7.9382267 -5.5941272 0.18075588 0
7.1188579 -6.3913732 1.6793494 0
5.3283219 -8.1204576 0.14218533 0
5.6520777 -7.8185806 1.1343715 0
5.9499626 -7.5288291 1.5095872 0
6.2625523 -7.2142973 1.7616996 0
-8.7686548 3.7245717 1.8998013 0
8.700779 4.2159657 0.94670135 0
7.1133537 -6.3918734 1.7094889 0
5.1809349 8.2176294 -0.10210517 0
5.1808925 8.2175264 0.17254511 0
7.8994904 -5.6019392 0.78608644 0
5.2292638 8.0447083 1.5319433 0
6.8866472 -6.6297703 1.741878 0
8.0027447 -5.5103636 -0.077356309 0
8.8035889 4.087811 0.45477033 0
7.9232192 -5.581995 0.69583559 0
7.4770317 -6.0296526 1.4705561 0
-2.946496 9.2473478 0.48006737 0
7.6341391 -5.8889542 1.2119348 0
-2.9448829 9.2436085 0.56024873 0
7.5644827 -5.942719 1.3826282 0
7.2878213 -6.2008195 1.7003038 0
7.9234457 -5.6189275 0.33359835 0
7.1055751 -6.4002838 1.7359124 0
-3.3694463 -8.9561787 1.704682 0
7.4845672 -6.0443745 1.3865527 0
7.7011194 -5.8003168 1.2351999 0
5.180357 8.2162237 -0.37762767 0
5.3347373 -8.1251554 0.10629332 0
8.3914871 4.5167074 1.9161443 0
5.7077427 -7.7686734 1.2515843 0
6.1841192 -7.2903848 1.7659466 0
7.2045865 -6.3014035 1.7057724 0
8.8161297 4.0973687 -0.12669122 0
5.1802258 8.2159052 0.44682431 0
-8.8217955 -4.0496783 0.56012017 0
6.7185144 -6.7668681 1.9008268 0
8.0004044 -5.5085268 0.43856204 0
6.1391397 -7.3519564 1.6803863 0
5.2808075 -8.165164 -0.10159421 0
7.7503147 -5.774981 1.0729324 0
8.0135574 -5.5077324 -0.14590514 0
5.5280418 -7.9016886 1.2563813 0
6.9111538 -6.572578 1.9010345 0
6.2626839 -7.230834 1.7568594 0
8.0056753 -5.5126643 -0.33677131 0
-2.9389825 9.235218 0.82046998 0
7.3194628 -6.1685944 1.7316035 0
8.8417263 4.0517716 0.18164469 0
5.368557 -8.0860815 -0.6493181 0
5.5435858 -7.934092 0.98739058 0
5.8706102 -7.6094251 1.5145637 0
7.3118219 -6.1951604 1.6808856 0
8.8401203 4.0510225 -0.33198673 0
5.4402475 -8.0260906 0.80994576 0
5.753293 -7.7099781 1.4593451 0
6.1613336 -7.3219042 1.7627738 0
8.8222294 4.1020169 0.16422062 0
8.8161926 4.0974164 -0.41881108 0
8.726675 4.1786528 1.0363646 0
7.5157747 -6.0062323 1.4589536 0
8.017622 -5.5122428 0.15784904 0
8.3920984 4.5189657 1.9610326 0
5.3404474 -8.133853 -0.12242532 0
7.1839066 -6.330318 1.7361498 0
8.8026571 4.0871005 -0.71062756 0
5.5446506 -7.9159222 1.1389301 0
5.3379703 -8.1300802 0.33302647 0
8.7803593 4.1387172 0.69322968 0
5.3682437 -8.0853777 0.71899462 0
7.9257507 -5.5963216 0.76571977 0
-2.9448001 9.2433491 0.78608692 0
8.8024921 4.0869741 0.74519253 0
5.7848272 -7.6799302 1.5178955 0
-8.9053974 3.7050872 1.3101871 0
8.0135365 -5.507709 -0.45087677 0
8.0156622 -5.520504 0.1804994 0
8.6479836 4.2678962 1.3287963 0
7.2561021 -6.2538414 1.7349402 0
7.8589425 -5.6656923 0.95460463 0
8.5584469 4.3479233 1.6213452 0
5.377748 -8.1067381 -0.37561494 0
7.7968082 -5.7513819 0.95528865 0
5.3322721 -8.1318874 0.47742575 0
8.0778389 -5.4346957 -0.078043044 0
7.7126598 -5.8179827 1.2133087 0
6.3284221 -7.1512465 1.9024217 0
7.9294782 -5.6005783 -0.75938928 0
5.2856121 -8.1763916 0.17250018 0
8.7430544 4.1663709 1.0115443 0
5.1893549 -8.2381124 0.1721566 0
6.0245757 -7.4419279 1.7749571 0
7.1064839 -6.3802638 1.902548 0
5.7372708 -7.7321787 1.4594667 0
8.6195335 4.2911725 1.4568504 0
6.5322051 -6.968091 1.9026344 0
5.6256332 -7.8501153 1.2559512 0
5.9348078 -7.5365915 1.6817594 0
6.110034 -7.3748474 1.7723202 0
8.0173483 -5.5119386 0.46154383 0
8.8459625 4.0537477 0.43783692 0
5.2833385 -8.1710796 0.44679898 0
5.2845621 -8.1739388 -0.37774259 0
5.196281 8.1586218 1.1487888 0
-3.3369446 -9.0764236 1.1696882 0
5.5326095 -7.9215093 1.2361879 0
7.7793403 -5.7364144 1.2129166 0
8.8557758 4.0583262 -0.075590849 0
7.3970394 -6.0980725 1.7325367 0
7.9480109 -5.6020365 -0.59887946 0
5.4565363 -8.0099916 0.99015355 0
-8.8635979 -4.0332179 -0.29187882 0
-8.8676109 -4.034337 0.10926393 0
5.1815734 8.219183 0.7215932 0
5.3385458 -8.1309566 0.55965531 0
7.5616307 -5.9651351 1.4732525 0
7.9270735 -5.5851111 0.95474195 0
5.1838598 8.2247458 -0.65605026 0
8.7728338 4.1350741 0.94922656 0
8.0838375 -5.4392672 0.18042572 0
-2.9421964 9.235177 1.0117192 0
8.0080843 -5.5016594 -0.75671935 0
8.5434933 4.3763051 1.6823491 0
8.0113907 -5.5171504 -0.59847182 0
-8.8284197 -4.0527191 0.78608733 0
5.2462497 7.9903841 1.9035239 0
7.6290855 -5.884367 1.4724457 0
7.3884044 -6.1254902 1.6999726 0
8.1008339 -5.4188666 -0.14555442 0
8.0078983 -5.5144095 0.6970998 0
5.6481476 -7.8086176 1.4657569 0
5.7025552 -7.7586083 1.5228788 0
5.9573522 -7.5093832 1.7761743 0
8.1019945 -5.4201183 0.15804204 0
6.0644588 -7.4252701 1.7710484 0
7.663599 -5.8664103 1.3828279 0
5.2804251 -8.1642704 0.72094327 0
5.2208385 -8.2331123 0.1409224 0
5.8582172 -7.5869823 1.7834085 0
8.8421898 4.0519876 0.69420516 0
8.1082211 -5.4072251 0.33209595 0
5.9456716 -7.5213146 1.7806022 0
8.0859528 -5.4408798 -0.33848423 0
8.7088661 4.2200251 1.2048004 0
-2.948246 9.2038832 1.3054481 0
-8.8645096 -4.0334725 0.51007986 0
8.0832863 -5.4388475 0.43896222 0
8.7971239 4.0828834 1.0361135 0
8.850728 4.0559711 -0.59230214 0
5.330842 -8.1277504 0.81305707 0
5.2840137 -8.172657 -0.65490919 0
7.5057368 -5.9982109 1.683182 0
8.0139561 -5.5081754 0.76533639 0
8.893034 4.0060205 -0.12703958 0
5.3363047 -8.1275434 0.78608757 0
8.0995617 -5.4174948 -0.45013034 0
8.5505199 4.371747 1.7130286 0
8.9102077 3.9674304 0.18117072 0
8.7355814 4.1628098 1.2368612 0
8.4764414 4.4337382 1.9180257 0
7.7458014 -5.7695193 1.3799763 0
7.8480225 -5.6971474 1.0732064 0
7.9166336 -5.6140966 1.012015 0
6.1341944 -7.3460345 1.9048882 0
7.7068663 -5.8046455 1.4608707 0
8.1552868 -5.3602757 -0.078946948 0
8.8905983 4.0042191 -0.41912073 0
8.8971004 4.0090284 0.16415015 0
7.3034005 -6.188025 1.9051249 0
8.8315506 4.0470243 0.95055938 0
8.1206694 -5.4155264 0.10343814 0
8.7233295 4.1760268 1.3290036 0
7.1704483 -6.3158083 1.9993453 0
8.9093609 3.9670498 0.43821311 0
5.3709559 -8.0914736 0.99355316 0
5.1993976 -8.2625427 -0.10465008 0
5.2288561 8.0437546 1.8095198 0
8.892169 4.0053806 0.4551428 0
5.4401884 -8.0259256 1.1447866 0
5.221838 -8.236145 0.47853336 0
-2.9404545 9.2375946 1.1626153 0
7.4812498 -6.039989 1.6979021 0
8.1226377 -5.4168396 -0.12548721 0
8.1109171 -5.4090233 0.55913961 0
7.8599019 -5.666491 1.2149343 0
8.1068916 -5.4253988 0.46148372 0
8.4700365 4.4451947 1.968298 0
5.198041 -8.2592421 -0.38169682 0
-2.9407971 9.2307844 1.2373818 0
8.6377926 4.2596579 1.6221951 0
5.8563499 -7.6101866 1.7844092 0
5.3320951 -8.1211319 1.0122464 0
7.5650187 -5.9434066 1.6938487 0
8.0839415 -5.4393468 0.69784522 0
8.7686024 4.1330256 1.206656 0
8.1621017 -5.3653169 0.18010834 0
7.7100596 -5.8156891 1.4747497 0
5.5310912 -7.9193354 1.4616649 0
-8.8311348 -4.0539656 1.0122938 0
5.1985292 -8.2604303 0.44766462 0
5.454957 -8.0065756 1.2642095 0
5.6225362 -7.8438892 1.5292037 0
7.9068036 -5.6071258 1.2376264 0
5.7356954 -7.7300553 1.6848202 0
5.1024837 -8.3252277 -0.38392884 0
8.1886492 -5.3308067 -0.14534718 0
8.0064316 -5.4998264 1.0693483 0
7.832469 -5.6788635 1.3782834 0
7.9331741 -5.6047993 1.0719576 0
7.4854093 -6.0377064 1.7366416 0
5.279892 -8.1630239 0.996104 0
5.5434179 -7.9126616 1.4730415 0
8.8856888 4.0005875 0.74596083 0
7.2473598 -6.2446828 1.9995545 0
8.0117245 -5.5174131 0.95684415 0
5.1844797 8.2262526 0.9979763 0
8.6979866 4.2145643 1.4623957 0
7.5536447 -5.957674 1.7355675 0
8.1645374 -5.3671188 -0.34010738 0
7.778748 -5.7359066 1.4746696 0
8.1924725 -5.3348126 0.1580442 0
5.933125 -7.5344543 1.9071914 0
8.0970364 -5.449326 -0.6016947 0
5.7507439 -7.7037754 1.7916085 0
8.9332924 3.9778011 -0.077527761 0
8.1642399 -5.3668981 0.43933809 0
5.5350742 -7.916348 1.533435 0
5.1944304 8.1530094 1.4865801 0
8.9124565 3.9684405 0.69573069 0
8.6200085 4.291419 1.7176659 0
8.1043787 -5.422689 0.76522768 0
5.1086178 -8.3407784 -0.10667613 0
8.1325817 -5.4234715 -0.35664034 0
5.1095219 -8.3405638 0.13973208 0
5.3291101 -8.1227388 1.1495318 0
5.1319695 -8.3275986 -0.12723804 0
5.7860241 -7.6821718 1.7929747 0
5.1988521 -8.2612162 -0.66089183 0
-8.892746 3.7019465 1.7122171 0
8.948782 3.9535263 -0.1273576 0
8.126339 -5.4193077 -0.5868783 0
5.1308646 -8.3258057 0.33051398 0
5.3674345 -8.083559 1.2683792 0
5.1337352 -8.3304644 0.10172606 0
8.9230547 3.973202 -0.59614587 0
8.8980293 4.0097156 -0.71428657 0
8.108036 -5.426631 -0.75820172 0
8.1153822 -5.4120011 0.78608847 0
-8.8864193 -4.0395813 -0.69663835 0
8.9469395 3.9527121 0.33045012 0
8.9356642 3.9788668 -0.336959 0
7.9175735 -5.5869832 1.3765706 0
-3.3145337 -9.195837 0.51120961 0
7.6572289 -5.8584728 1.6923562 0
8.1939106 -5.3363194 -0.45061481 0
7.9394813 -5.5951414 1.2169328 0
5.1993361 -8.262394 0.7240417 0
8.1648903 -5.3673792 -0.60231543 0
8.1807404 -5.3225212 0.76414692 0
8.9542494 3.9559417 0.10145396 0
5.2230439 -8.2398014 0.81681377 0
7.3961921 -6.0972342 1.9993477 0
-8.8275862 -4.0523362 1.238564 0
8.1965904 -5.3391266 0.46145993 0
8.1626205 -5.3657007 0.69882506 0
5.1297626 -8.3240175 0.55847371 0
8.9524441 3.9551442 -0.35805321 0
8.2736015 -5.2399573 0.15824857 0
5.1221275 -8.3116283 0.78608871 0
8.5504045 4.3798451 1.9091557 0
8.5627556 4.3515091 1.920531 0
7.6340079 -5.8888354 1.7379938 0
-8.8794518 -4.0376391 0.9121415 0
8.7155571 4.1699252 1.6229731 0
8.0065746 -5.513371 1.2171203 0
5.1113882 -8.3478022 0.44851106 0
5.3350682 -8.1256599 1.2389035 0
-3.3433127 -9.0857811 1.5180264 0
8.5466061 4.3696399 1.9754264 0
8.7476463 4.1685591 1.4637959 0
8.7653122 4.131433 1.4661385 0
7.7118096 -5.8083687 1.6875193 0
8.2460194 -5.2947564 0.17964989 0
8.093008 -5.4462571 0.95866036 0
8.8075409 4.0908222 1.3307815 0
7.5104661 -6.0019898 1.9099984 0
8.8884287 4.0026135 1.0382845 0
5.7061167 -7.7655187 1.8001077 0
8.951148 3.9545715 -0.58943272 0
5.1165552 -8.3609018 0.17064314 0
8.280714 -5.2471981 -0.1455557 0
8.2497072 -5.2974043 -0.081005573 0
8.9542322 3.9559338 0.55820763 0
8.5981035 4.2800298 1.9762608 0
5.6488285 -7.8103437 1.8012353 0
5.4533176 -8.0030289 1.5403389 0
8.6880398 4.2095718 1.7222043 0
5.196866 -8.2563848 1.0008266 0
7.8641615 -5.6700368 1.4782736 0
8.1159821 -5.4124012 1.0131792 0
8.2483253 -5.2964115 -0.34238845 0
7.9268637 -5.5849414 1.477404 0
8.3088541 -5.2029977 0.32941234 0
7.7072206 -5.8131847 1.7387936 0
8.9436436 3.951256 0.78608912 0
8.2458553 -5.2946386 0.43974662 0
7.7486906 -5.773016 1.6910082 0
-2.9444964 9.2423964 1.4644949 0
5.107964 -8.3356009 0.81974584 0
7.9128623 -5.6114221 1.4645293 0
8.3124599 -5.2110839 -0.081079185 0
5.7351947 -7.7293806 1.9112432 0
5.5350375 -7.9249859 1.6886451 0
5.1156883 -8.3602085 0.48002735 0
5.186759 8.2317972 1.2763864 0
8.3097248 -5.2091789 -0.3423686 0
5.1108599 -8.3464622 0.72639632 0
-2.9422464 9.2404881 1.5071282 0
8.1073914 -5.4259362 1.0705377 0
8.1989889 -5.3416386 -0.75825453 0
-2.9487028 9.2047853 1.7072909 0
5.2202148 -8.2312202 1.1554767 0
8.2386036 -5.289434 0.69968933 0
8.2438412 -5.2931933 -0.60478538 0
5.4427128 -8.0329046 1.4826 0
5.6213293 -7.8414631 1.8058324 0
5.113162 -8.3522987 -0.66733533 0
5.1419048 8.3437204 0.5579356 0
8.283289 -5.2498193 -0.45061761 0
8.3198299 -5.2098713 -0.13045907 0
8.3205624 -5.21033 0.099488437 0
8.8582497 4.0594807 1.2127213 0
5.2858577 -8.1769657 1.2748847 0
7.7791967 -5.7362914 1.7395459 0
5.1518836 8.3599138 -0.13078105 0
8.2724113 -5.2387447 -0.75544953 0
-8.8595943 -4.0321016 1.313602 0
8.2868195 -5.2534137 0.46148068 0
5.3663301 -8.0810766 1.5459061 0
7.696476 -5.7968197 1.9124761 0
8.3129778 -5.2055802 0.55776155 0
8.3223381 -5.2179623 0.17933601 0
5.1515489 8.3593702 0.32867855 0
5.1271329 -8.3197498 1.013588 0
8.3224068 -5.2114849 -0.36182415 0
8.0172863 -5.511869 1.3778069 0
5.1550956 8.3651257 0.098879755 0
8.3179722 -5.2149229 0.43997115 0
8.2304916 -5.2836103 0.95986789 0
8.9352894 3.9786983 0.95632309 0
8.7400055 4.1649179 1.6900556 0
8.3116322 -5.2105079 -0.6057207 0
5.3292556 -8.1231594 1.4884032 0
-8.8326712 -4.0546708 1.4658083 0
8.0918064 -5.4453411 1.2202876 0
-3.3205328 -9.2068872 0.91537941 0
8.3604908 -5.1512361 0.46112496 0
8.6462574 4.2665014 1.9226004 0
7.8396378 -5.6872907 1.6898584 0
8.3180904 -5.2087822 -0.59345055 0
-3.2925262 -9.2645531 0.13582541 0
5.5449281 -7.9166565 1.8110145 0
-2.9406376 9.2302837 1.6905921 0
9.0083733 3.9419982 -0.12994879 0
5.3372116 -8.1289244 1.4661999 0
8.1782742 -5.3772802 0.96100229 0
8.1173992 -5.4133463 1.2405959 0
8.1936264 -5.3360209 1.0699787 0
8.7594843 4.1286116 1.7277024 0
5.180934 8.2176285 1.5542389 0
9.0115833 3.9443023 0.16320053 0
7.8550105 -5.6624203 1.74154 0
8.0706749 -5.4292359 1.480093 0
8.9518051 3.9548619 1.0139098 0
8.919672 3.9716825 1.2150906 0
5.5405946 -7.9278569 1.814033 0
8.8455944 4.0535765 1.4723294 0
8.2871037 -5.2537036 0.76543361 0
9.0071888 3.9411476 0.45610505 0
8.8914843 4.0048742 1.332687 0
-3.297111 -9.2715015 -0.21278423 0
8.0142918 -5.5194287 1.4817696 0
8.9952793 3.9325993 -0.71836042 0
5.1988096 -8.2611132 1.2802782 0
8.3775558 -5.168119 0.15785606 0
8.3778477 -5.168407 -0.14622378 0
8.9946499 3.9321468 0.74846345 0
5.2801771 -8.1636915 1.5524412 0
7.9249182 -5.5953708 1.6876624 0
-3.2921681 -9.2640095 -0.56174123 0
-8.8169193 -4.0474396 1.6919136 0
8.1019535 -5.4030452 1.4671679 0
7.9141541 -5.6123381 1.691973 0
8.3740749 -5.1646752 -0.45094728 0
-3.3373652 -9.0770416 1.8666914 0
8.3997555 -5.141263 0.17897873 0
8.3243351 -5.2193532 0.70123762 0
-2.8850231 9.4164295 -0.20770711 0
5.1984148 8.1650953 1.8298178 0
-3.2967482 -9.2709513 0.48370841 0
5.1520758 8.3602247 0.78609037 0
5.1275721 -8.3204632 1.2413731 0
5.115941 -8.3593445 1.0065374 0
5.21735 -8.2225313 1.4955683 0
5.1346598 8.4068022 0.16978189 0
9.0168304 3.9480693 -0.42515314 0
8.8129654 4.0949564 1.6279117 0
5.1106653 -8.3442059 1.1619511 0
8.4039898 -5.1441231 -0.083050519 0
8.108593 -5.4272318 1.3777024 0
-2.887475 9.420517 0.13728791 0
5.1334162 8.4036493 -0.39130419 0
8.9439535 3.9513929 1.2415774 0
5.3301797 -8.1182146 1.6928585 0
8.173954 -5.3740845 1.2230999 0
-2.9350533 9.2288761 1.8521444 0
8.7227249 4.1755519 1.9232106 0
8.3302526 -5.2163982 0.78609061 0
8.3148031 -5.2127156 0.96231008 0
5.438695 -8.0217972 1.8207972 0
8.7323828 4.1612854 1.9169087 0
-2.8835793 9.4140224 -0.55380517 0
5.4565253 -8.0099688 1.8215109 0
8.2809277 -5.2474155 1.0697229 0
8.4060955 -5.1455445 -0.34617335 0
5.1343079 8.419529 0.13828743 0
5.5396061 -7.9315271 1.9170632 0
7.9353805 -5.5918264 1.7449157 0
5.1357374 8.4095345 0.44966942 0
8.0115814 -5.5055404 1.6861421 0
8.4596844 -5.0743694 0.15797229 0
8.3731403 -5.1637506 -0.75765669 0
5.1403017 8.4211054 -0.11120152 0
8.4072809 -5.1463451 0.44057977 0
8.3190393 -5.2093763 1.0145855 0
8.4556408 -5.0704823 -0.4503023 0
8.241106 -5.2912302 1.223772 0
-2.890615 9.4257517 0.48221868 0
8.1912155 -5.3334956 1.3762723 0
8.4635849 -5.0781193 -0.14613685 0
8.4564791 -5.0712876 0.46135011 0
5.1519647 8.3600445 1.0146912 0
8.3993645 -5.1409984 0.70215797 0
8.4051666 -5.144917 -0.61063725 0
5.3674994 -8.0837049 1.8274164 0
8.4754705 -5.0627222 0.17863731 0
8.7034264 4.2172942 1.9913254 0
5.1348596 8.4212885 0.48114479 0
8.4727402 -5.060935 -0.34692991 0
8.1598988 -5.363687 1.4851599 0
5.1131225 -8.3521996 1.2867222 0
8.9216652 3.9725778 1.4779435 0
8.4799137 -5.0656309 -0.08408615 0
8.472208 -5.0605869 0.44069466 0
5.136631 8.4117985 -0.67518872 0
-3.3223414 -9.2102194 1.3211426 0
5.1969833 -8.25667 1.5609245 0
5.1355629 8.4090919 0.72992474 0
-2.9420917 9.234848 1.9191278 0
-2.8865499 9.4486923 0.10768956 0
5.1259751 -8.317872 1.4694204 0
8.0093699 -5.5155644 1.7469281 0
9.0025902 3.9378474 1.0430195 0
8.3835754 -5.1740746 0.76604611 0
-2.8813906 9.4381313 0.51150531 0
8.3642216 -5.1549268 1.0691346 0
-3.3015928 -9.2782946 0.83261079 0
8.4638977 -5.0551457 0.70248294 0
8.3901539 -5.1347785 0.96389037 0
8.5191364 -5.0003333 -0.36868894 0
8.5263062 -5.0045414 -0.13700145 0
8.9448166 3.9517744 1.4700062 0
-8.8638306 -4.0332828 1.7191502 0
9.0772667 3.9248192 -0.083312929 0
8.5431881 -4.9821305 -0.14570445 0
9.0730305 3.9229887 -0.34598547 0
8.894968 4.0074511 1.6299758 0
8.8002567 4.0852709 1.9243945 0
7.9150524 -5.6129751 1.9204254 0
8.1014671 -5.4195499 1.6856971 0
5.3311586 -8.1286659 1.8310765 0
8.4582367 -5.0729775 -0.75735509 0
8.8529758 4.0570202 1.7381423 0
8.5319586 -5.0078588 0.094190657 0
8.5189066 -5.0001979 0.5561434 0
8.0809326 -5.4370532 1.7485939 0
9.0821943 3.9269485 0.17870845 0
5.2814522 -8.1666708 1.8355075 0
9.0772943 3.9248309 0.4405984 0
8.3227348 -5.2182393 1.226782 0
8.3242016 -5.2126083 1.2436126 0
8.5221281 -5.002089 -0.60290837 0
8.4831963 -5.06778 -0.61337113 0
5.1535935 8.3626881 1.243685 0
-8.8277168 -4.0523963 1.9216115 0
8.4655266 -5.0799866 0.76567805 0
9.072175 3.9226189 -0.61039674 0
8.5554857 -4.9862208 -0.085160702 0
-3.2738121 -9.3407125 0.32502061 0
5.1873283 8.2331829 1.840353 0
8.552763 -4.9910755 0.15779316 0
5.1357102 8.4094648 1.0112512 0
8.5534763 -4.9849463 -0.34926564 0
5.1130247 -8.3517227 1.5067453 0
-2.8980913 9.4382153 0.82843858 0
8.5525398 -4.9843521 0.44115239 0
-9.2267723 3.6119428 0.10501686 0
5.3357654 -8.1267223 1.9225951 0
8.5424318 -5.0140066 0.32467583 0
-3.2728677 -9.3380175 0.55574775 0
9.0742912 3.9235334 0.70254308 0
8.5614796 -4.9900231 0.17806283 0
8.2891626 -5.2557988 1.3777847 0
-9.2295532 3.611448 0.092940152 0
8.5515041 -4.9899001 0.46157682 0
-3.2782662 -9.3534203 0.092917919 0
8.2462349 -5.2949114 1.4897959 0
-3.2986665 -9.273859 1.1821735 0
8.5536041 -4.9918618 -0.45179164 0
5.1399889 8.4376297 0.82535017 0
8.4723377 -5.0606718 0.96628785 0
8.9175806 3.9707429 1.7425786 0
8.5460472 -4.9802322 0.70397484 0
8.1283131 -5.4206243 1.6983066 0
9.0596581 3.9172099 0.96411097 0
8.5518904 -4.9839396 -0.61488402 0
-3.3102379 -9.1879244 1.726078 0
8.4557705 -5.0706062 1.069718 0
-9.2320194 3.6131661 -0.3051312 0
9.0053062 3.9397962 1.3392758 0
5.0595036 -8.5324373 0.16820875 0
-9.2251759 3.6097353 0.55548495 0
5.2213516 -8.2346687 1.8414205 0
5.0606213 -8.5353956 -0.11528468 0
8.1620255 -5.3652601 1.7528197 0
8.5319767 -5.0078697 0.7860924 0
5.0584421 -8.5296297 -0.39922303 0
5.1954947 -8.2530489 1.844528 0
5.1305089 -8.3252287 1.6991613 0
8.5483513 -4.9869542 -0.75812054 0
-9.2308865 3.6129017 0.51445687 0
8.9456224 3.9521303 1.6992185 0
-2.8887739 9.4532452 0.91648978 0
5.1507316 8.3580437 1.4727221 0
-2.8904147 9.4254179 1.1743678 0
5.1336827 8.4175386 1.1686754 0
8.3224096 -5.2114863 1.4728472 0
8.6290483 -4.8921061 -0.45073473 0
8.1988239 -5.341466 1.6872572 0
8.6363945 -4.8987746 0.15781075 0
8.3710737 -5.1617055 1.3766998 0
8.5517654 -4.9901433 0.76571959 0
8.4054794 -5.1451283 1.2300837 0
8.6381512 -4.9003696 -0.14646271 0
8.6265717 -4.9033389 0.44149953 0
5.1184549 -8.3657179 1.5722995 0
-3.2750351 -9.344202 0.78609264 0
8.6344318 -4.9081697 0.17773944 0
5.0609951 -8.5363836 0.45126492 0
-9.2469454 3.6182535 0.32353905 0
8.3241272 -5.2192087 1.4929472 0
8.8903217 4.0040135 1.92891 0
8.6414471 -4.9124804 -0.086935103 0
8.2763691 -5.2427745 1.6845714 0
8.4689131 -5.0584292 1.230675 0
8.1139326 -5.4110341 1.9262049 0
8.0979614 -5.4157705 1.9974165 0
8.6406746 -4.9026604 0.46169019 0
-9.2385921 3.6146979 -0.71727931 0
5.0606403 -8.5354462 -0.68599015 0
8.6423492 -4.9130344 -0.35252857 0
-9.2356119 3.6138186 0.78609312 0
9.1456671 3.8912981 0.45757642 0
9.1474152 3.8925154 -0.43167579 0
8.6298962 -4.9053822 0.70562464 0
8.6354322 -4.9087839 -0.61869723 0
-3.2935061 -9.2660379 1.5330085 0
5.1411591 8.4232788 1.2961041 0
9.1566067 3.898916 0.1615909 0
8.5590401 -4.9884758 0.9692421 0
9.1583824 3.9001524 -0.135102 0
8.5408211 -5.013061 1.0166332 0
5.1101561 -8.3425837 1.8522968 0
8.5503769 -4.9888473 1.0708053 0
5.0631919 -8.5421963 0.73506576 0
8.396842 -5.1392951 1.4952868 0
8.2477379 -5.2959905 1.7583547 0
-3.2768581 -9.3494024 1.0167187 0
9.139143 3.8867548 0.75327337 0
8.5236702 -5.0029941 1.2464969 0
9.0740242 3.9234178 1.2300441 0
5.1280212 -8.3211918 1.9287418 0
8.705574 -4.8245955 0.44196832 0
8.7128859 -4.8289456 0.17728318 0
-9.2297478 3.6115243 1.0168154 0
8.7243919 -4.810329 -0.14668423 0
9.1439762 3.8901212 -0.73025751 0
-9.2391033 3.6148169 0.92491233 0
8.641449 -4.9033632 0.76609617 0
8.4632454 -5.0777931 1.3776083 0
8.3622513 -5.1529779 1.6840978 0
8.7119808 -4.8284073 -0.35391045 0
-2.8858895 9.4178734 1.5221238 0
8.7268152 -4.8124666 0.15763913 0
8.7247505 -4.7899499 0.5543952 0
8.7379551 -4.7971992 0.088938951 0
5.0584087 -8.5295429 1.018615 0
5.1537547 8.3629494 1.7032996 0
5.1145387 -8.3557901 1.8571746 0
9.0109863 3.9438741 1.6388965 0
8.7403154 -4.7984953 -0.14487636 0
8.9493608 3.9537816 1.9298455 0
5.1331053 8.4028606 1.5786234 0
-2.8887506 9.4531965 1.3226599 0
5.132956 8.4152231 1.5149173 0
-3.2733018 -9.3392563 1.2470938 0
8.5525188 -4.9843388 1.2343756 0
8.7247543 -4.8360071 -0.088597268 0
8.6318302 -4.9065709 0.9708485 0
8.7270966 -4.8127151 -0.45249569 0
5.079618 8.5856514 -0.1181004 0
8.3312969 -5.2170515 1.703908 0
8.1918526 -5.3341627 1.9983705 0
5.0406733 -8.5973473 0.48360232 0
8.6516972 -4.9126663 -0.76127589 0
5.0447183 -8.6109104 0.13555066 0
-9.1647434 -3.942673 -0.3058697 0
8.7142792 -4.8297749 -0.62196183 0
8.732605 -4.8175731 0.46189564 0
8.4750271 -5.0624318 1.4988577 0
8.7469234 -4.8021231 -0.38040197 0
8.7497368 -4.803668 0.32111824 0
9.1404362 3.8876555 1.0503318 0
8.386898 -5.1325803 1.7624016 0
8.638586 -4.900764 1.0712616 0
8.3308306 -5.2238765 1.7634504 0
8.7901335 -4.7481384 -0.089228123 0
-3.2685547 -9.3257122 1.4772165 0
5.0850544 8.6000347 0.16694736 0
-9.2348671 3.6135273 1.2480446 0
9.0707569 3.9220061 1.4963229 0
-3.2443871 -9.453907 0.13351133 0
8.7172937 -4.7858562 1.0175952 0
8.7215519 -4.8341017 0.707802 0
5.039732 -8.5941896 0.83165848 0
-9.2271328 3.6120267 1.3356497 0
-3.255816 -9.4396057 0.51448107 0
5.1470475 8.352066 1.9329823 0
8.626874 -4.9035249 1.2368639 0
8.3156433 -5.2072496 1.9330794 0
8.7309942 -4.8161526 -0.76062953 0
5.0857048 8.6017551 -0.40596896 0
5.0581555 -8.5288715 1.3045273 0
8.7985592 -4.7529893 0.17666233 0
8.2786942 -5.245141 1.9976816 0
-3.2470641 -9.4580936 -0.21955627 0
5.0856361 8.6015739 0.45248139 0
-9.1899986 -3.949327 0.10422099 0
8.5327587 -5.0083284 1.4780619 0
8.7524538 -4.8051591 -0.61739194 0
8.8094864 -4.7191143 -0.45256293 0
8.5575714 -4.9955673 1.3790697 0
8.7944164 -4.7506046 0.44265428 0
8.7349329 -4.8196263 0.76682091 0
8.8213577 -4.7292857 -0.14773276 0
-2.8289943 9.6013517 0.13508825 0
8.7145691 -4.829947 0.97357386 0
5.1296988 8.3942251 1.8652058 0
8.8159618 -4.7246623 0.46192968 0
8.5538483 -4.9851818 1.5027231 0
8.75175 -4.8047729 0.78609502 0
8.7945194 -4.7506638 -0.62555772 0
-2.831059 9.6049089 -0.21477681 0
8.8043118 -4.7146797 -0.75924885 0
8.8068743 -4.7577772 -0.35795391 0
-9.2269497 3.6104295 1.4790529 0
8.8292561 -4.7360535 0.15716475 0
9.2315502 3.8726735 0.4427225 0
-2.8823848 9.4401665 1.7295417 0
-2.8290811 9.6015015 0.4843148 0
-3.2524652 -9.4665403 0.48615044 0
-3.2527614 -9.4337816 0.92419815 0
-9.1962128 -3.9509647 0.51529121 0
9.2424126 3.8771844 -0.090308428 0
9.2413712 3.8767517 0.1764919 0
-2.8285718 9.6006241 -0.56541932 0
9.2266474 3.8706374 -0.62537128 0
5.1309185 8.4087324 1.8632778 0
8.6371698 -4.8994784 1.3782668 0
5.0109472 -8.6791973 0.31924486 0
-9.172039 -3.9445953 0.92566514 0
5.0883436 8.608736 0.73879373 0
8.4744368 -5.0885525 1.689694 0
9.0616999 3.918092 1.7640876 0
9.0136423 3.9457805 1.9416169 0
8.801897 -4.7549119 0.70933956 0
-9.1923485 -3.9499466 -0.72041929 0
8.5244627 -5.0034595 1.7089912 0
8.4771204 -5.0638027 1.7696029 0
9.1472263 3.8923843 1.3501438 0
-3.2458191 -9.4561472 0.83883524 0
-3.2566247 -9.4730444 -0.57538414 0
8.7350807 -4.819757 1.0728271 0
-3.3061976 -9.2852736 1.8913418 0
9.2317362 3.8727505 0.70910257 0
8.8201952 -4.7282901 0.76705259 0
8.374157 -5.1647558 1.9997109 0
-2.8270793 9.5980539 0.83376145 0
5.0205302 -8.6957951 0.083846331 0
9.2538271 3.8819242 -0.35914862 0
5.0947886 8.6257858 -0.69784844 0
8.5513487 -4.9897542 1.6877717 0
5.0431299 -8.6055841 1.1820891 0
8.7187748 -4.8324494 1.2420042 0
-9.2476568 -3.9280324 0.08340776 0
5.0870953 8.6054335 1.025713 0
-9.2462759 -3.9274459 0.31813043 0
9.2250023 3.8699543 0.97581798 0
8.8026505 -4.7553453 0.97692752 0
5.0619879 -8.53901 1.5946817 0
5.0633664 8.67344 0.48498833 0
-3.2774265 -9.3510246 1.7112662 0
8.5518084 -4.9838877 1.7733907 0
8.4534435 -5.0683694 1.9976631 0
-3.2478294 -9.4243784 1.3346038 0
8.645834 -4.9151764 1.5092086 0
8.7492542 -4.8034024 1.2510473 0
5.0224395 -8.6991024 0.55226243 0
-2.9034395 9.4471321 1.8790551 0
8.9032974 -4.6864591 -0.092796057 0
5.0694265 8.6937599 0.13404158 0
8.8205929 -4.728631 1.0732425 0
5.00807 -8.7313099 -0.12395954 0
5.0813446 8.5902195 1.31258 0
-9.2323761 3.6132491 1.7502139 0
-9.2388411 3.6150825 1.7124052 0
5.0054502 -8.7240686 0.45400131 0
-3.24611 -9.4566021 1.1930766 0
8.7094631 -4.8269091 1.5105981 0
8.7349939 -4.8196807 1.3806844 0
8.7936735 -4.7501764 1.2448379 0
5.0099745 -8.736577 0.16516653 0
5.0508866 -8.5096416 1.8806154 0
-3.2699401 -9.3296652 1.9418044 0
9.3007317 3.8497078 -0.44061989 0
5.0086756 -8.7329855 -0.41439986 0
9.3010225 3.8499048 0.45940423 0
-9.2089911 3.6034024 1.9421289 0
9.1483059 3.8931363 1.652016 0
8.6419868 -4.903851 1.6891149 0
8.5295019 -5.0064173 1.9422861 0
5.024394 -8.7024879 0.78609687 0
-9.2638655 -3.9349172 0.55179596 0
-9.1797352 -3.9466231 1.3386781 0
5.064415 8.6769562 0.83618492 0
9.3128662 3.8579032 0.15974636 0
8.9164791 -4.6937995 -0.36354017 0
8.9159088 -4.6934819 0.44400832 0
9.3167763 3.8605435 -0.14077401 0
8.7458916 -4.8015566 1.4838865 0
9.2975178 3.8475382 -0.7428484 0
8.5430927 -4.9820418 1.9987686 0
8.6344547 -4.9081831 1.7792232 0
5.0071321 -8.7287178 0.74321508 0
5.0080566 -8.7312746 -0.70630288 0
5.0427771 -8.6044016 1.5338888 0
5.045567 8.7391605 0.08034569 0
-2.8174081 9.690649 0.10440351 0
-2.8359528 9.6133385 1.1861055 0
9.2368412 3.8748703 1.2461265 0
8.9304361 -4.7015719 0.17510146 0
5.0215368 -8.6975393 1.0198894 0
8.9180717 -4.6946864 -0.63537192 0
-9.2670937 -3.9362884 0.78609741 0
8.7859039 -4.7457032 1.5145497 0
8.9528542 -4.6762066 0.15619048 0
-2.8160243 9.6877098 0.51493979 0
5.0035229 -8.7187395 1.0324745 0
9.3101082 3.8560407 0.75975239 0
8.920785 -4.6961975 0.71324515 0
9.2895966 3.8421886 1.0588444 0
5.0467596 8.7412262 0.55113149 0
5.0519171 8.7501593 0.31543019 0
8.9602289 -4.6823444 -0.15170592 0
5.0630245 8.6722927 1.1881793 0
-3.2433367 -9.4522638 1.5488286 0
-9.260644 -3.9335485 1.0203174 0
5.0176077 -8.6907339 1.2535695 0
8.7087517 -4.8264856 1.7833639 0
8.8303108 -4.736958 1.3828529 0
8.7338686 -4.8186879 1.6909654 0
9.2259922 3.8703656 1.5157715 0
8.9134645 -4.692121 0.98263836 0
-2.8120813 9.6793375 0.92543513 0
-9.2474804 -3.9279575 1.2541254 0
5.0874863 8.6064672 1.6061038 0
5.0300694 8.7921305 -0.12734911 0
8.9536953 -4.6769061 -0.77026975 0
5.0301619 8.7923861 0.1641306 0
-2.7976243 9.7389545 0.077430665 0
8.9703941 -4.6908054 -0.46172035 0
-3.2540331 -9.4362068 1.7497247 0
-9.1714916 -3.9444509 1.752756 0
8.9728279 -4.692831 0.46366313 0
8.7584772 -4.8084664 1.7190058 0
9.1537848 3.896951 1.9583805 0
5.0399981 -8.5950832 1.8872873 0
-2.7991686 9.7443304 0.31381992 0
8.964138 -4.6855979 0.77137244 0
-2.8379526 9.6167831 1.5401664 0
5.0056615 -8.7246523 1.3248383 0
9.3911562 3.8308847 0.3136313 0
5.0188813 -8.6929398 1.4881191 0
4.9639015 -8.8499241 0.13193761 0
9.3956728 3.8327274 -0.16134602 0
9.3787851 3.8258383 -0.63767958 0
9.3977432 3.8335717 0.076259136 0
-9.2418213 -3.9255536 1.4883451 0
8.8216047 -4.7294979 1.6921844 0
9.4046831 3.8242662 0.17419672 0
9.3945951 3.8322875 -0.40000677 0
5.0356779 8.8076344 -0.42134482 0
5.0514183 8.7492952 1.0212822 0
-2.7995861 9.7457838 0.55005229 0
-3.1900473 -9.6405134 0.13125987 0
5.0804176 8.5877676 1.8968501 0
5.0644941 8.7719431 0.78609914 0
9.4141083 3.8280232 -0.097672224 0
5.0385995 8.815711 0.45570236 0
5.0334826 8.8015642 -0.71548069 0
8.7442245 -4.8006411 1.9522395 0
8.9588528 -4.6811991 1.0798066 0
9.3990946 3.8341231 0.54979396 0
8.8043413 -4.7563186 1.79251 0
8.9268494 -4.6995749 1.2560058 0
5.0651007 8.6792545 1.5434796 0
-2.7986758 9.7426147 0.78609937 0
9.4002857 3.8225138 -0.64289272 0
-3.1959977 -9.6501188 -0.22664791 0
9.3113251 3.8568628 1.3642942 0
4.9674587 -8.8625059 0.48769063 0
-2.8137593 9.6829014 1.3379424 0
9.2347364 3.8739965 1.7917144 0
5.0361285 8.8088808 0.74768263 0
-3.1946211 -9.6478968 0.48829174 0
9.4163303 3.8289089 0.44542217 0
9.4205284 3.8305817 -0.37096488 0
-3.246345 -9.4569693 1.9089833 0
9.3981962 3.8337564 0.78609973 0
9.4077797 3.8255005 0.71671522 0
5.0516896 8.7497654 1.2567468 0
-3.1959877 -9.6501026 -0.5856685 0
8.9108257 -4.6906519 1.5274706 0
4.9649534 -8.8536453 0.84362358 0
5.0052118 -8.7234097 1.6189559 0
-2.7757506 9.7989397 -0.22217023 0
5.0214515 -8.6973906 1.7237949 0
9.4496822 3.8005159 -0.44908857 0
4.9463539 -8.915288 -0.13197151 0
-2.8011026 9.7510633 1.022275 0
9.4586983 3.8064182 -0.14539704 0
5.0351481 8.8061705 1.0406086 0
9.45965 3.8070419 0.15810439 0
9.395669 3.8327258 1.0223198 0
9.0749445 -4.6540203 0.17328754 0
-2.7784896 9.8038168 0.48694366 0
-2.7845016 9.8145227 0.13224202 0
-3.1975627 -9.6526451 0.84620363 0
9.0823069 -4.6523056 0.072417796 0
-9.2575922 -3.9322524 1.7252169 0
9.079154 -4.650691 0.31090698 0
9.0729656 -4.6529555 0.44607323 0
-3.1900263 -9.6813593 0.51770598 0
9.0820923 -4.6578674 -0.1002956 0
9.4600601 3.8073094 0.46130419 0
-2.839654 9.6197138 1.8974617 0
8.962513 -4.6842465 1.3910786 0
5.0497928 8.74648 1.4924446 0
-3.1971083 -9.6953449 0.1014204 0
9.0793781 -4.6564074 -0.37447017 0
9.4145164 3.8281853 0.98979867 0
4.9486623 -8.9219656 -0.4282372 0
9.0813208 -4.6518006 -0.40669656 0
-2.7811961 9.8086367 -0.5791682 0
4.9484606 -8.921381 0.45691675 0
9.3083858 3.8548772 1.6694988 0
9.0886793 -4.65557 -0.16735184 0
9.3852854 3.8284898 1.2582735 0
4.9523249 -8.9325638 0.16227674 0
9.0739098 -4.6534634 -0.64972502 0
-9.5898418 3.5193398 -0.32234269 0
-9.5953064 3.5205314 0.099092677 0
4.964891 -8.8534241 1.2010028 0
-2.7768641 9.8009224 0.84168941 0
-2.8007114 9.7497015 1.2586406 0
9.0849638 -4.6536665 0.54848093 0
4.9470339 -8.9172544 -0.72533393 0
9.4589176 3.8065622 0.7648108 0
-3.1914091 -9.6427116 1.2043078 0
9.4624062 3.8088458 -0.75707698 0
-2.8111129 9.6772804 1.7520075 0
5.0663109 8.6833143 1.9018698 0
5.0223246 -8.698904 1.9603409 0
9.0903349 -4.6564178 -0.6495465 0
4.9501114 -8.9261589 0.75197434 0
5.0366478 8.810317 1.3360234 0
9.1185837 -4.6483302 -0.1569919 0
-9.2475662 -3.927994 1.9606433 0
-9.5981712 3.5211561 0.52035856 0
9.4104891 3.8265805 1.2636414 0
5.0050344 -8.7229195 1.9164077 0
8.9202166 -4.6958809 1.8063211 0
9.0901966 -4.66223 0.72017795 0
-2.7975054 9.7385406 1.4947405 0
9.1248655 -4.6534085 0.15412146 0
9.1187563 -4.6484694 -0.46940696 0
9.4544592 3.8036435 1.0689881 0
8.9572458 -4.6798615 1.7035255 0
5.0509181 8.7484293 1.7292993 0
-3.1970415 -9.6952133 0.93503922 0
-2.7742257 9.7962246 1.1973228 0
9.3924494 3.8314123 1.4955432 0
9.0809155 -4.6572342 0.99402285 0
9.1260605 -4.6543746 0.46530539 0
9.1009817 -4.6618714 0.78610194 0
9.1131916 -4.6439714 0.77602857 0
9.113142 -4.6439309 -0.7828387 0
-9.6058407 3.5228286 -0.74685407 0
4.9919167 8.9490194 0.48925993 0
4.950036 -8.9259415 1.0480051 0
-9.506815 -3.8543789 -0.32209098 0
-3.1815009 -9.6645231 1.3506211 0
-9.5954056 3.5205531 0.94204116 0
9.0899067 -4.656199 1.0238516 0
-9.5122147 -3.8557193 0.099177033 0
4.9976997 8.9694757 0.12976904 0
-9.4951305 -3.8514783 -0.74394786 0
5.0356793 8.8076382 1.6331422 0
-2.7974138 9.7382212 1.7321228 0
9.4166794 3.8290474 1.5412803 0
-9.5173168 -3.8569858 0.52031475 0
9.3211308 3.8634846 1.9815285 0
9.111043 -4.6422343 1.0879393 0
9.0804176 -4.6569667 1.2700326 0
-3.1959634 -9.6500635 1.5662848 0
4.969614 -8.8701296 1.5627162 0
5.0486436 8.7444897 1.9664959 0
9.0881996 -4.6553245 1.2617705 0
9.459157 3.8067186 1.3760002 0
9.3948584 3.8323951 1.7334683 0
4.9501467 -8.9262609 1.345904 0
4.9962511 8.9643526 0.84965289 0
4.9802284 9.0132971 -0.13740608 0
-9.5094757 -3.8550394 0.94163465 0
9.5868549 3.7749338 0.17154756 0
9.0741415 -4.6481233 1.4991457 0
-2.7427115 9.9334869 0.10110281 0
9.580843 3.7726367 0.44774014 0
9.5663185 3.7670872 0.72334224 0
-2.7782354 9.8033648 1.5564255 0
9.5913849 3.7766645 -0.1053485 0
-9.5925903 3.5199394 1.3650676 0
9.4003401 3.8225353 1.8177613 0
4.9814854 9.0169344 -0.43702811 0
9.0722351 -4.6525621 1.5469973 0
4.9851742 9.0276089 0.16052143 0
9.5959206 3.7783976 -0.38359976 0
9.3805199 3.826546 1.9704366 0
4.9020729 -9.082777 0.06426084 0
4.9847317 9.0263271 0.45885491 0
-2.7979953 9.7402468 1.9708092 0
9.5866003 3.7748365 -0.6620754 0
9.2370682 -4.6122499 0.17112708 0
-2.7467108 9.9423046 0.51846623 0
9.6187763 3.7607911 0.15620703 0
4.9829564 9.0211906 -0.73883653 0
5.0375538 8.8128204 1.9349908 0
9.2372131 -4.6123252 0.4482758 0
9.2405806 -4.6140761 -0.38520467 0
4.9022059 -9.0830231 0.54583097 0
-3.1417832 -9.8444834 -0.23386669 0
-9.7256384 3.4872937 0.30480948 0
4.9077988 -9.0933857 0.30474889 0
-3.143549 -9.8474274 0.12859841 0
4.9978819 8.9701204 1.2116127 0
-9.7204113 3.4854198 0.54571658 0
4.9508281 -8.9282322 1.646669 0
9.1273966 -4.6554546 1.4044894 0
9.5775719 3.7713871 1.0012814 0
9.6307812 3.7684081 -0.15189856 0
4.9682164 -8.8651867 1.9251994 0
9.4671154 3.811929 1.6866674 0
-2.7413745 9.9305391 0.93583083 0
4.9873323 9.0338516 0.75794584 0
9.0789881 -4.6506057 1.7385429 0
9.6277351 3.7664754 0.46337819 0
-3.1911879 -9.6836529 1.7731968 0
-3.140223 -9.8567572 0.30420741 0
9.2594271 -4.6238751 -0.10767758 0
9.2374725 -4.6124601 0.72578073 0
-3.1979895 -9.6533337 1.9312255 0
9.2711067 -4.6060348 0.1526401 0
-9.7461166 3.4946368 0.061988175 0
9.6177301 3.7601278 -0.76986718 0
4.8893433 -9.1275892 -0.14155763 0
9.247014 -4.6174212 -0.66644311 0
-3.1396439 -9.8549395 0.54533112 0
4.9050689 -9.0883284 0.7861048 0
4.8880844 -9.1306973 0.12756291 0
9.274601 -4.608777 -0.16209567 0
9.636034 3.7717402 -0.46142912 0
9.1033211 -4.6359921 1.7170068 0
-9.517086 -3.8569286 1.3653271 0
-3.1448567 -9.8713017 0.061537802 0
9.6223278 3.7630446 0.77077389 0
4.9832578 9.0220633 1.0569029 0
-3.1472034 -9.8535204 -0.598643 0
-9.7253046 3.487174 0.78610492 0
4.8970838 -9.0735331 1.0261273 0
4.8918443 -9.1351757 0.1592636 0
9.2731791 -4.6076612 0.46680591 0
-3.1526175 -9.862546 0.49110931 0
9.080307 -4.6569066 1.8299785 0
4.8907242 -9.1317778 0.46007398 0
9.2337036 -4.6105008 1.0039266 0
9.2762518 -4.6100731 -0.47809136 0
4.8913794 -9.1337662 -0.44419086 0
-3.144618 -9.8492098 0.85355556 0
-2.7811556 9.8085642 1.9188428 0
-9.5947647 3.5204136 1.7911121 0
4.9769106 9.0036983 1.3559641 0
4.9946179 8.9585752 1.5740016 0
-2.7207127 10.001994 0.48948446 0
4.8905888 -9.1400661 0.49200639 0
9.2682314 -4.6037774 0.78107131 0
-2.7264228 10.012512 -0.23071915 0
9.5841579 3.7739036 1.2811545 0
-2.7287798 10.016854 0.12962042 0
4.9481955 -8.9206142 1.948954 0
9.2736568 -4.6080365 -0.79550815 0
-2.723001 10.00621 -0.59183925 0
-3.1445324 -9.8702831 0.78610575 0
9.6237173 3.7639263 1.0795529 0
4.8927822 -9.1380215 -0.74888623 0
-2.7421484 9.9322443 1.3551161 0
-9.711194 3.4821146 1.2666864 0
-2.7180729 9.9971313 0.84920198 0
9.0832672 -4.6527977 1.9791628 0
9.4641132 3.809963 1.9989116 0
4.8895321 -9.1361122 0.85684943 0
-9.7406731 3.4926848 1.0269951 0
4.8949361 -9.1445541 0.76189375 0
-3.1425822 -9.8641615 1.0271053 0
4.9061193 -9.0902748 1.2672976 0
9.2696152 -4.6048632 1.0967531 0
-3.1212869 -9.9292011 0.098354951 0
9.5768595 3.7711148 1.5615783 0
9.2437897 -4.6157446 1.2853968 0
4.8903112 -9.1305246 1.0632923 0
4.947371 9.166707 0.057593346 0
4.9454813 9.1632061 0.30105525 0
-9.5116234 -3.8555725 1.7905117 0
-3.1488824 -9.8563185 1.2183285 0
4.9426618 9.1579819 0.54385054 0
-9.7040796 -3.7971263 0.30068609 0
-3.1230192 -9.9327469 0.52111399 0
4.8871698 -9.1272764 1.2223018 0
4.9006934 -9.0802212 1.5077481 0
-9.6987104 -3.7950256 0.54366219 0
-3.142493 -9.8638821 1.2683531 0
4.9420114 9.1567764 0.78610706 0
4.9817972 9.0178366 1.6616848 0
-9.7216778 -3.8040125 0.055996001 0
9.2361927 -4.6117949 1.5669322 0
9.6375275 3.7726882 1.392146 0
9.3924828 -4.5631223 0.16910139 0
-9.7281399 3.4881909 1.5088897 0
9.2700958 -4.6052413 1.4143523 0
4.8913455 -9.1336622 1.3677226 0
4.9985704 8.9725552 1.9428713 0
9.6073971 3.7535722 1.7003363 0
-2.7422161 9.932394 1.7768927 0
-2.7306776 10.02035 1.212647 0
9.576519 3.7709844 1.8460203 0
9.7663155 3.7199597 -0.39577299 0
4.9432793 9.1591263 1.0283942 0
-9.7120342 -3.8002388 0.78610772 0
9.773468 3.7225761 -0.11329415 0
9.4082785 -4.5710506 -0.11336514 0
-3.1472902 -9.8536644 1.5845201 0
-3.1274505 -9.9418173 0.9449867 0
4.9009213 -9.0806437 1.7495623 0
4.9246483 9.2346802 0.15743479 0
9.7723923 3.7221825 0.45056349 0
9.7849379 3.715183 0.15416849 0
9.7809143 3.7252998 0.16867812 0
9.4095564 -4.5716915 -0.39668286 0
9.7779179 3.7108691 -0.46913773 0
9.4098282 -4.5718279 0.4506374 0
-9.7049923 -3.7974834 1.02871 0
-3.1465378 -9.8765783 1.5110641 0
9.2256603 -4.6063185 1.8503543 0
9.7929506 3.7201068 -0.15776691 0
9.4312286 -4.5661516 -0.16722184 0
4.9289737 9.2477999 -0.14819112 0
9.4048271 -4.5693183 0.73256278 0
